# .PCD v0.7 - Point Cloud Data file format
VERSION 0.7
FIELDS x y z normal_x normal_y normal_z curvature
SIZE 4 4 4 4 4 4 4
TYPE F F F F F F F
COUNT 1 1 1 1 1 1 1
WIDTH 588
HEIGHT 1
VIEWPOINT 0 0 0 1 0 0 0
POINTS 588
DATA ascii
-0.10020798 -0.38434964 0.62278402 0.60396361 0.021457626 -0.79672301 0.29846257
-0.058896691 -0.3533082 0.57742989 0.60418648 0.021294923 -0.79655844 0.29847029
-0.054991819 -0.2346663 0.57732248 0.60422719 0.0213206 -0.79652673 0.29846734
-0.10367703 -0.33218616 0.63032538 -0.60402042 -0.021446183 0.79668021 0.29846668
-0.10385261 -0.33572519 0.62877959 -0.60402042 -0.021446183 0.79668021 0.29846668
-0.10182907 -0.18668263 0.63430679 -0.60461432 -0.021106662 0.79623872 0.29847875
-0.10990518 -0.40502399 0.63406003 -0.60402757 -0.021450698 0.79667473 0.29846701
-0.11110838 -0.23114027 0.64211816 -0.60474348 -0.021061374 0.79614174 0.29848123
-0.069766626 -0.19899742 0.59619927 0.60442334 0.021240423 -0.79638004 0.298475
-0.066247806 -0.30974358 0.58403885 0.60415381 0.021319238 -0.79658246 0.29847002
-0.11784077 -0.32261971 0.64705509 -0.60408741 -0.021410596 0.79663038 0.29846928
-0.11774193 -0.40001002 0.64317375 -0.60408568 -0.021410875 0.79663169 0.2984688
-0.102793 -0.15084532 0.64060593 -0.60472196 -0.02105253 0.79615831 0.29848227
-0.10657042 -0.19067451 0.63985562 -0.60478574 -0.021045174 0.79611009 0.29848671
-0.068806551 -0.16033734 0.59264696 0.60425258 0.021327 -0.7965073 0.29846936
-0.11711322 -0.27520084 0.64582956 -0.60465062 -0.021096906 0.79621142 0.29847765
-0.12010615 -0.33470258 0.6491434 -0.60404867 -0.021422053 0.79665947 0.29846814
-0.1177667 -0.43468729 0.64620888 -0.60410881 -0.021403894 0.79661423 0.29847029
-0.11730371 -0.23591359 0.65012193 -0.6047135 -0.021070605 0.79616427 0.29847977
-0.076373994 -0.28150094 0.59741479 0.60477328 0.02105136 -0.79611945 0.29848263
-0.11759889 -0.1697626 0.65416038 -0.60465032 -0.02108223 0.79621196 0.29847962
-0.12504408 -0.22628611 0.66201687 -0.6047135 -0.021070605 0.79616427 0.29847977
-0.12390811 -0.23258448 0.66036385 -0.6047135 -0.021070605 0.79616427 0.29847977
-0.081836596 -0.17942721 0.60795176 0.6046626 0.021077575 -0.7962029 0.29848072
-0.13890274 -0.27039579 0.6780827 -0.60467398 -0.021089558 0.79619384 0.29847911
-0.12400882 -0.13779244 0.6711489 -0.60465157 -0.021068152 0.79621136 0.29847783
-0.092440911 -0.36591339 0.61344391 0.60402042 0.021446183 -0.79668021 0.29846668
-0.14326853 -0.38001874 0.67176503 -0.60408545 -0.021411583 0.79663187 0.2984688
-0.14071342 -0.30799749 0.67307407 -0.6040827 -0.021418741 0.79663378 0.29846931
-0.14621666 -0.37815481 0.67753381 -0.6040805 -0.021420138 0.79663533 0.2984688
-0.12595047 -0.16336153 0.66758758 -0.60465157 -0.021068152 0.79621136 0.29847783
-0.12818623 -0.17240795 0.6719411 -0.60459733 -0.021098558 0.79625183 0.29847723
-0.14090911 -0.24704376 0.67787242 -0.60465223 -0.021089539 0.79621029 0.29847819
-0.15534498 -0.29935902 0.70373988 -0.60423261 -0.021308912 0.79652297 0.29847381
-0.14519583 -0.22317323 0.68855482 -0.60465324 -0.02102685 0.79621124 0.29848024
-0.15780029 -0.44687292 0.68299264 -0.60410357 -0.021412574 0.7966181 0.29847026
-0.10464467 -0.40785703 0.62918741 -0.60402757 -0.021450698 0.79667473 0.29846701
-0.15192206 -0.32008591 0.69964105 -0.60423654 -0.021306157 0.79652011 0.2984719
-0.023312127 -0.33125141 0.54634482 0.60414511 0.021315208 -0.7965892 0.29847002
-0.14222939 -0.15423419 0.68538475 -0.604599 -0.021085097 0.79625082 0.29847491
-0.14683193 -0.19734339 0.6894778 -0.60461324 -0.021069124 0.79624057 0.29847923
-0.15152167 -0.18065734 0.69465327 -0.60461324 -0.021069124 0.79624057 0.29847923
-0.11626185 -0.35632515 0.64192033 -0.60397166 -0.021453412 0.79671699 0.29846433
-0.135768 -0.13406752 0.69403398 -0.60458368 -0.021077635 0.79626274 0.29847857
-0.15152338 -0.23519334 0.71743929 -0.60460037 -0.021042258 0.79625106 0.29848075
-0.11605798 -0.16506235 0.65091866 -0.60472679 -0.021051059 0.79615474 0.29848143
-0.12203158 -0.22809011 0.65833867 -0.6047135 -0.021070605 0.79616427 0.29847977
-0.15091446 -0.14306988 0.71270829 -0.60450768 -0.021107694 0.7963196 0.29847658
-0.15452714 -0.17195135 0.70878285 -0.60462743 -0.021070801 0.79622966 0.29848248
-0.029607341 -0.15703432 0.54879779 0.60434264 0.021291208 -0.79644001 0.29847437
-0.12916018 -0.38243258 0.65547127 -0.60408556 -0.021411238 0.79663181 0.2984688
-0.13289456 -0.32815725 0.66379285 -0.60401869 -0.021431411 0.79668188 0.29846668
-0.13057213 -0.21487547 0.66833651 -0.60473973 -0.021061843 0.7961446 0.29848123
-0.13402177 -0.27347174 0.66542619 -0.60465062 -0.021096906 0.79621142 0.29847765
-0.14588708 -0.35378611 0.67717111 -0.60399467 -0.021446215 0.79669976 0.29846579
-0.15406692 -0.41644093 0.69611883 -0.60443062 -0.021245698 0.79637444 0.29848045
-0.15121901 -0.32183966 0.69464171 -0.60423654 -0.021306157 0.79652011 0.2984719
-0.054238699 -0.26607543 0.57677668 0.60424525 0.0213146 -0.79651332 0.29846939
-0.16470341 -0.44497222 0.70234036 -0.60443062 -0.021245698 0.79637444 0.29848045
-0.15566477 -0.19552903 0.69805765 -0.60461324 -0.021069124 0.79624057 0.29847923
-0.09359964 -0.3016566 0.62052959 0.60406393 0.021439916 -0.79664749 0.29846907
-0.1009451 -0.17241083 0.63531458 -0.6046164 -0.021105979 0.79623711 0.29847875
-0.11144073 -0.33968487 0.63977206 -0.60402578 -0.021429222 0.79667664 0.29846668
-0.11704854 -0.14510088 0.66198796 -0.60462642 -0.021076405 0.7962302 0.29847637
-0.13295001 -0.20841673 0.67096066 -0.60477108 -0.021050217 0.79612106 0.29848319
-0.13618173 -0.1747075 0.68094528 -0.60472119 -0.02105234 0.79615897 0.29848227
0.082566112 -0.13192728 0.64034098 0.60409403 0.021357812 -0.79662675 0.29847085
0.00047289373 -0.43005332 0.55246073 0.60418797 0.02130796 -0.79655689 0.29847348
-0.086975954 -0.13451335 0.74578625 -0.60440552 -0.021173133 0.79639548 0.29847655
-0.013909788 -0.14225361 0.55531746 0.60422546 0.021322194 -0.7965281 0.29846814
-0.11728134 -0.38493314 0.64219576 -0.60408556 -0.021411238 0.79663181 0.2984688
-0.027702181 -0.24713586 0.54914212 0.60424757 0.021314133 -0.79651153 0.29846907
-0.15623243 -0.16347514 0.71105766 -0.60451323 -0.021107292 0.79631537 0.29847658
-0.15009302 -0.32791343 0.6924004 -0.60423642 -0.021306511 0.79652017 0.2984719
-0.10943431 -0.14526591 0.65084118 -0.60472208 -0.021052362 0.79615831 0.29848227
-0.14577451 -0.39906439 0.67881507 -0.60408068 -0.021419777 0.79663527 0.2984688
-0.092223071 -0.39885125 0.61416811 0.60398173 0.021458546 -0.79670918 0.29846463
-0.11543252 -0.16159429 0.65104508 -0.60469693 -0.02106061 0.79617715 0.29848078
-0.016296115 -0.44355962 0.54395437 0.6040808 0.021341581 -0.79663724 0.29846931
-0.16379549 -0.43163458 0.70628726 -0.60423768 -0.021308104 0.79651916 0.29847461
-0.093795061 -0.13770489 0.75843596 -0.60440552 -0.021173133 0.79639548 0.29847655
-0.15819182 -0.28662261 0.70518297 -0.60433728 -0.021181678 0.79644698 0.29847643
-0.11599329 -0.13294995 0.71040469 -0.60450453 -0.021109078 0.79632199 0.29847658
0.030098807 -0.13131133 0.79707718 -0.60397065 -0.021306243 0.7967217 0.29846501
-0.15445982 -0.21233277 0.70693773 -0.60457152 -0.021052206 0.79627264 0.29847929
-0.027794885 -0.12771372 0.60666835 0.60434741 0.021290231 -0.79643631 0.29847437
-0.020779425 -0.13136126 0.77788991 -0.60490441 -0.021034865 0.79602021 0.29849127
0.06625589 -0.1265468 0.72539973 0.60411924 0.021259535 -0.7966103 0.29847094
-0.15248509 -0.21318305 0.70938385 -0.60457152 -0.021052206 0.79627264 0.29847929
0.056763269 -0.13042106 0.77414674 -0.60397053 -0.021306597 0.79672182 0.29846501
0.0065874318 -0.12955311 0.74283898 -0.60496908 -0.021020973 0.79597133 0.29849502
0.059557755 -0.12720728 0.6619277 0.60406655 0.021366857 -0.79664743 0.29846936
-0.01282259 -0.12920883 0.66436565 0.60426372 0.021310145 -0.79649937 0.29847109
0.024462674 -0.12914531 0.59757888 0.6041432 0.021343213 -0.79658985 0.29847348
-0.13107844 -0.41988719 0.73340499 -0.60421073 -0.02131664 0.79653943 0.29847315
-0.14762561 -0.31809905 0.71631086 -0.60419154 -0.021321557 0.79655379 0.29847318
-0.086740755 -0.1346186 0.76685297 -0.60440552 -0.021173133 0.79639548 0.29847655
-0.088670902 -0.1372232 0.76583833 -0.60440552 -0.021173133 0.79639548 0.29847655
-0.1117724 -0.13699552 0.73469746 -0.6044687 -0.021140819 0.79634833 0.29847571
-0.13203636 -0.38928223 0.73334825 -0.60422033 -0.021299824 0.79653257 0.29847306
0.044033092 -0.1269903 0.62686217 0.60404325 0.02137479 -0.79666489 0.29846874
-0.066020258 -0.13712133 0.78250229 -0.60471117 -0.021056546 0.79616648 0.29848242
-0.12782654 -0.30705866 0.74043185 -0.60409808 -0.021344468 0.79662412 0.29846868
-0.062669754 -0.23066415 0.79249924 -0.60477024 -0.021101655 0.79612041 0.29848853
-0.11175188 -0.20871125 0.75462145 -0.60446757 -0.021105675 0.79635006 0.29847607
-0.046300814 -0.21185969 0.80793816 -0.60483521 -0.021067169 0.79607189 0.29849032
-0.01317122 -0.12759401 0.59678668 0.60430163 0.021298107 -0.79647094 0.29847199
0.00070034171 -0.31211856 0.84363699 -0.60436302 -0.021198053 0.79642701 0.29847637
-0.14518826 -0.14535442 0.72433722 -0.60455275 -0.021114439 0.79628521 0.29847956
-0.0026067821 -0.18837082 0.83927119 -0.60498083 -0.021018371 0.79596263 0.29849529
-0.075233124 -0.16576186 0.78060007 -0.604514 -0.021132547 0.79631418 0.29848069
-0.15690836 -0.2854194 0.70778948 -0.60434175 -0.021160811 0.79644412 0.29847604
-0.13191272 -0.36035615 0.73385578 -0.60422713 -0.02129662 0.7965275 0.29847452
-0.12652242 -0.27939123 0.74142712 -0.60447747 -0.021103574 0.79634261 0.29847553
-0.15268998 -0.33914608 0.70913464 -0.60416394 -0.021330608 0.79657453 0.29847169
-0.14686824 -0.20787305 0.71794194 -0.60457486 -0.021051392 0.79627007 0.29847929
-0.1130936 -0.23671667 0.7533921 -0.60446775 -0.021105312 0.79635 0.29847607
0.068637721 -0.12937061 0.63958728 0.60406655 0.021366857 -0.79664743 0.29846936
-0.14444776 -0.33007321 0.72033155 -0.60416394 -0.021330608 0.79657453 0.29847169
-0.089806303 -0.15213767 0.76880288 -0.60439283 -0.021170998 0.79640508 0.29847449
-0.079280496 -0.15635589 0.77711004 -0.60436583 -0.021179575 0.79642534 0.29847303
-0.12265305 -0.34208235 0.74429649 -0.60412902 -0.021362815 0.7966001 0.29847145
-0.024982499 -0.29746887 0.82743406 -0.60437107 -0.021195481 0.79642093 0.2984761
0.011137528 -0.13017367 0.80909365 -0.60485953 -0.021056294 0.79605371 0.29849002
-0.15701185 -0.16469063 0.70954579 -0.60451323 -0.021107292 0.79631537 0.29847658
-0.092937455 -0.13337186 0.72810489 -0.60433674 -0.021181973 0.7964474 0.29847211
-0.13231979 -0.29783055 0.73618966 -0.60421377 -0.021300482 0.79653752 0.29847369
-0.11309197 -0.39470041 0.7522105 -0.60422325 -0.021341255 0.79652923 0.29847583
-0.11262452 -0.41705126 0.75183249 -0.60422713 -0.021332474 0.79652655 0.29847533
-0.10754906 -0.33296064 0.75798231 -0.604155 -0.021354605 0.79658061 0.29847291
-0.040995255 -0.13505514 0.79700023 -0.60492182 -0.021035416 0.79600704 0.29849273
-0.12879084 -0.28048807 0.73932153 -0.60456181 -0.021076627 0.79627937 0.29847935
-0.12318875 -0.37529176 0.7432375 -0.60408652 -0.021342687 0.79663295 0.29846743
-0.1063062 -0.20561501 0.75883758 -0.6042791 -0.021213863 0.79649031 0.29847118
-0.10050369 -0.17945942 0.7628721 -0.60431367 -0.02120257 0.79646438 0.29847303
-0.06012325 -0.21565981 0.79609877 -0.60472417 -0.021102464 0.79615533 0.29848558
-0.042886656 -0.21184972 0.81037372 -0.60483521 -0.021067169 0.79607189 0.29849032
-0.10331092 -0.30542403 0.76055145 -0.60404283 -0.021390028 0.79666483 0.29846728
-0.069496937 -0.13111053 0.683209 -0.60425538 -0.021326687 0.79650521 0.29846936
-0.1470737 -0.30563402 0.71877724 -0.60419154 -0.021321557 0.79655379 0.29847318
-0.14771403 -0.15736917 0.72537863 -0.60464066 -0.021087408 0.79621917 0.29848337
-0.1445694 -0.24521977 0.72446454 -0.60455108 -0.021078818 0.79628742 0.29847938
-0.141469 -0.1647076 0.73329878 -0.60464066 -0.021087408 0.79621917 0.29848337
-0.12830047 -0.29264721 0.74032819 -0.60409808 -0.021344468 0.79662412 0.29846868
-0.10476455 -0.15956047 0.75921309 -0.6044414 -0.021162244 0.79636848 0.29847798
-0.10328611 -0.17384404 0.76093453 -0.60431367 -0.02120257 0.79646438 0.29847303
-0.067717016 -0.3377825 0.79259169 -0.60413605 -0.021344254 0.79659534 0.2984702
-0.063566841 -0.17036985 0.79068357 -0.60490531 -0.021036301 0.79601949 0.29849264
-0.041748315 -0.29934517 0.81432486 -0.60449982 -0.021161426 0.79632413 0.29848114
-0.038296778 -0.13235471 0.77544892 -0.60492182 -0.021035416 0.79600704 0.29849273
-0.0082389982 -0.24004345 0.83638269 -0.60489011 -0.021042161 0.79603094 0.29849204
0.011737925 -0.13028345 0.81455147 -0.60485953 -0.021056294 0.79605371 0.29849002
-0.057198923 -0.26656827 0.80129254 -0.60468525 -0.021129116 0.79618418 0.29848412
-0.14916874 -0.38885656 0.71352625 -0.60412633 -0.021343756 0.79660267 0.29846928
-0.096540689 -0.40584898 0.76807439 -0.60422283 -0.021334376 0.79652971 0.29847533
-0.097534083 -0.28596997 0.76382816 -0.6042887 -0.021213079 0.79648298 0.29847386
-0.10003426 -0.33787608 0.76509243 -0.60404569 -0.021389369 0.79666257 0.29846728
-0.15302993 -0.14786385 0.71537119 -0.60450768 -0.021107694 0.7963196 0.29847658
-0.13924251 -0.24969301 0.72891581 -0.60452676 -0.021087125 0.7963056 0.29847792
-0.12427765 -0.32402584 0.7426675 -0.6040979 -0.021344831 0.79662418 0.29846868
-0.11825383 -0.28197429 0.74770457 -0.60447747 -0.021103574 0.79634261 0.29847553
-0.14208905 -0.21437767 0.72657716 -0.60452878 -0.02108662 0.79630411 0.29847792
-0.084657975 -0.25496525 0.77564961 -0.60456747 -0.021081766 0.79627496 0.29847974
-0.088755757 -0.3819313 0.77615541 -0.60413516 -0.021368956 0.79659522 0.29847404
-0.13332506 -0.24534056 0.7344532 -0.60463119 -0.021047078 0.79622746 0.29848206
-0.082012966 -0.40358409 0.78230655 -0.60416156 -0.021360597 0.79657543 0.2984755
-0.077272177 -0.30099899 0.78252655 -0.60407698 -0.021392658 0.79663885 0.29847226
-0.067688033 -0.39974436 0.79431039 -0.60417449 -0.021319285 0.79656678 0.29847077
-0.12160406 -0.40268916 0.74384922 -0.60412163 -0.021373564 0.79660541 0.29847059
-0.12383832 -0.30229163 0.74390757 -0.60404587 -0.021389006 0.79666245 0.29846728
-0.11077905 -0.23957953 0.75569218 -0.60446775 -0.021105312 0.79635 0.29847607
-0.046436761 -0.41028631 0.81454009 -0.60445166 -0.02117072 0.79636049 0.29847875
-0.047075637 -0.15297692 0.80201733 -0.60507029 -0.02098245 0.79589552 0.29849893
-0.038401444 -0.33251527 0.81732333 -0.6043241 -0.02121024 0.79645622 0.29847282
-0.0060444628 -0.41669568 0.83996272 -0.60450542 -0.021148298 0.7963202 0.29848075
-0.059544213 -0.18195038 0.7962116 -0.60490531 -0.021036301 0.79601949 0.29849264
-0.047250446 -0.23269507 0.80899853 -0.60478461 -0.021083741 0.79610997 0.2984885
-0.027511129 -0.18901707 0.82115644 -0.60491848 -0.021032244 0.7960096 0.29849264
-0.13048998 -0.19622092 0.73796499 -0.60442638 -0.021167524 0.79637975 0.29847568
0.011959969 -0.36064908 0.84278196 -0.60462672 -0.021106791 0.7962293 0.29848614
-0.061437279 -0.13210863 0.74663436 -0.60490704 -0.021040434 0.79601806 0.29849276
0.0093441764 -0.27476189 0.84467983 -0.60483509 -0.021066377 0.79607213 0.29849029
-0.10450783 -0.19216967 0.76028687 -0.60431367 -0.02120257 0.79646438 0.29847303
0.00081270817 -0.31396359 0.84393167 -0.60436302 -0.021198053 0.79642701 0.29847637
-0.14964603 -0.14038555 0.71095788 -0.60450453 -0.021109078 0.79632199 0.29847658
-0.11958236 -0.32779852 0.74703246 -0.60412902 -0.021362815 0.7966001 0.29847109
-0.12711751 -0.31619793 0.74058568 -0.60409808 -0.021344468 0.79662412 0.29846868
-0.012895912 -0.13844241 0.826042 -0.60498863 -0.021008385 0.79595691 0.29849508
-0.055562399 -0.21841198 0.80020541 -0.60485822 -0.021059962 0.79605466 0.29849178
-0.09220881 -0.18534414 0.7691533 -0.604321 -0.021200782 0.79645884 0.2984727
-0.096752718 -0.28206563 0.76493973 -0.6044504 -0.021119101 0.79636288 0.29847467
-0.059347577 -0.37806341 0.79966587 -0.60460275 -0.021115836 0.79624718 0.29848546
-0.064278401 -0.37942165 0.79555565 -0.60460275 -0.021115836 0.79624718 0.29848546
-0.062241968 -0.34677491 0.79717982 -0.60435063 -0.021201873 0.79643637 0.29847428
-0.059206739 -0.25296637 0.80046684 -0.60477066 -0.021102129 0.79612005 0.29848796
-0.084872492 -0.40267846 0.77931064 -0.6040594 -0.021400148 0.79665196 0.29847082
-0.096714258 -0.37569752 0.76873064 -0.60405272 -0.021388426 0.79665732 0.29846787
-0.080107391 -0.24617536 0.78049636 -0.60458934 -0.021066774 0.79625869 0.29848057
-0.079518795 -0.24793857 0.77991009 -0.60452902 -0.021093838 0.79630381 0.29847771
-0.096399345 -0.27037659 0.76545632 -0.6044504 -0.021119101 0.79636288 0.29847467
-0.15076625 -0.21096018 0.71462965 -0.60460037 -0.021042258 0.79625106 0.29848075
-0.13235265 -0.35706565 0.73384219 -0.60422713 -0.02129662 0.7965275 0.29847452
-0.082031526 -0.2032218 0.77628589 -0.60440326 -0.021174528 0.79639703 0.29847655
-0.013691171 -0.27035835 0.82415557 -0.60489613 -0.021040171 0.79602635 0.29849207
-0.15456718 -0.21996301 0.70770305 -0.60457152 -0.021052206 0.79627264 0.29847929
-0.14813092 -0.23902172 0.71901613 -0.60460037 -0.021042258 0.79625106 0.29848075
-0.13621318 -0.31200337 0.73134106 -0.60416406 -0.021330243 0.79657441 0.29847169
-0.11822637 -0.3883189 0.74755019 -0.60413903 -0.021360982 0.79659259 0.29847145
-0.037256952 -0.30665478 0.81833559 -0.60449982 -0.021161426 0.79632413 0.29848114
-0.062079955 -0.33401683 0.79681623 -0.60435063 -0.021201873 0.79643637 0.29847428
-0.060578257 -0.32336831 0.79763293 -0.6044234 -0.021179045 0.79638159 0.29847726
-0.036431037 -0.27463162 0.81686735 -0.60482407 -0.02107098 0.79608029 0.29848912
0.013569568 -0.30426934 0.84585851 -0.60436302 -0.021198053 0.79642701 0.29847637
-0.075478524 -0.17928898 0.78209573 -0.60440326 -0.021174528 0.79639703 0.29847655
-0.076331861 -0.24179117 0.78268391 -0.60459125 -0.021066455 0.7962572 0.29848057
-0.12533858 -0.13469405 0.71361172 -0.60450768 -0.021107694 0.7963196 0.29847658
-0.10028096 -0.1334646 0.71075636 -0.60437685 -0.021155206 0.79641765 0.29847354
-0.10953605 -0.33382732 0.75608182 -0.604155 -0.021354605 0.79658061 0.29847291
-0.056857873 -0.19388157 0.7983703 -0.60493886 -0.021025894 0.79599428 0.29849413
-0.052929722 -0.15727495 0.79595834 -0.60491401 -0.021038588 0.79601282 0.29849276
-0.037003502 -0.19737761 0.8150745 -0.60493714 -0.021032991 0.79599541 0.29849473
-0.0080740247 -0.1585086 0.83268803 -0.60498863 -0.021008385 0.79595691 0.29849508
-0.084101699 -0.32011941 0.77704132 -0.60407698 -0.021392658 0.79663885 0.29847226
-0.060350891 -0.28717089 0.79888314 -0.6044234 -0.021179045 0.79638159 0.29847726
-0.084378578 -0.37972787 0.77901667 -0.60413516 -0.021368956 0.79659522 0.29847404
-0.020342194 -0.37514248 0.83114254 -0.60448331 -0.021148205 0.79633707 0.29847926
-0.047649495 -0.30103439 0.80972189 -0.60449982 -0.021161426 0.79632413 0.29848114
-0.027717175 -0.34068215 0.82536417 -0.6043241 -0.02121024 0.79645622 0.29847282
-0.0047803978 -0.35459992 0.84027123 -0.60462672 -0.021106791 0.7962293 0.29848614
-0.087364651 -0.27602932 0.77306396 -0.60454643 -0.021088477 0.79629064 0.29847831
-0.020751053 -0.43506449 0.82979077 -0.60445166 -0.021158397 0.79636079 0.29847783
-0.12308598 -0.22444612 0.74443823 -0.60461825 -0.021051139 0.79623717 0.29848224
-0.14270164 -0.43225858 0.65217012 -0.60408556 -0.021411238 0.79663181 0.2984688
-0.07728985 -0.31419051 0.78264439 -0.60407698 -0.021392658 0.79663885 0.29847226
-0.070273578 -0.22295897 0.78649688 -0.60460371 -0.021069421 0.79624772 0.29848149
-0.024978271 -0.1289434 0.68097275 0.60413748 0.021350292 -0.79659396 0.29846519
-0.030788833 -0.12974699 0.71187162 -0.6048668 -0.021025531 0.796049 0.29848933
-0.059081495 -0.14541312 0.78882909 -0.60491008 -0.021039419 0.79601574 0.29849276
-0.12710351 -0.2679266 0.74057239 -0.60456181 -0.021076627 0.79627937 0.29847935
-0.10777223 -0.40764502 0.7562868 -0.60422307 -0.021333827 0.79652953 0.29847533
-0.13309953 -0.42047086 0.73107076 -0.60421073 -0.02131664 0.79653943 0.29847315
-0.14481889 -0.15033686 0.72548175 -0.60455275 -0.021114439 0.79628521 0.29847956
-0.11336004 -0.36305153 0.75223678 -0.60407722 -0.021379262 0.79663891 0.29846904
-0.041442852 -0.12822974 0.61301333 0.60438895 0.02127032 -0.79640543 0.29847556
-0.10133855 -0.19754198 0.76251394 -0.60431367 -0.02120257 0.79646438 0.29847303
-0.098011032 -0.13206726 0.68260372 -0.60470098 -0.021059424 0.79617411 0.29848078
-0.11201257 -0.33289924 0.75419301 -0.60412902 -0.021362815 0.7966001 0.29847145
-0.13930266 -0.21718442 0.72902131 -0.60452878 -0.02108662 0.79630411 0.29847792
0.0023957386 -0.13058811 0.80237293 -0.60485953 -0.021056294 0.79605371 0.29849002
-0.030346619 -0.14028735 0.81529516 -0.60492808 -0.021026978 0.79600239 0.29849273
0.00056498009 -0.13056822 0.78567684 -0.60488474 -0.021047834 0.79603481 0.29849148
0.019970566 -0.22966024 0.83995867 -0.60407931 -0.021278597 0.7966401 0.29846749
-0.066499218 -0.18374659 0.79012865 -0.60482007 -0.021022249 0.79608458 0.29848856
-0.049504258 -0.14895841 0.7963478 -0.6049155 -0.021038001 0.79601169 0.29849273
-0.043084621 -0.22478805 0.8113811 -0.60474545 -0.021095825 0.79613936 0.29848528
-0.032590307 -0.20483735 0.81844068 -0.60484797 -0.021061752 0.79606241 0.29849032
-0.041819848 -0.35630628 0.8153668 -0.6043241 -0.02121024 0.79645622 0.29847282
0.012585326 -0.30002469 0.84479409 -0.60436302 -0.021198053 0.79642701 0.29847637
0.019305093 -0.26916674 0.84279221 -0.60418761 -0.021243641 0.79655886 0.29847279
-0.086259432 -0.14280297 0.76574558 -0.60440552 -0.021173133 0.79639548 0.29847655
-0.06110679 -0.15817007 0.79010433 -0.60491401 -0.021038588 0.79601282 0.29849276
-0.069017768 -0.24937922 0.79082096 -0.60487789 -0.020982862 0.79604179 0.29848963
-0.019097783 -0.13929385 0.82287019 -0.60498863 -0.021008385 0.79595691 0.29849508
-0.13123542 -0.1457742 0.73325562 -0.60455275 -0.021114439 0.79628521 0.29847956
-0.067133278 -0.14004761 0.78230703 -0.60471117 -0.021056546 0.79616648 0.29848242
-0.088488191 -0.39815763 0.77513975 -0.6040594 -0.021400148 0.79665196 0.29847082
-0.12768401 -0.33597791 0.73927867 -0.60418755 -0.021316279 0.79655701 0.29847336
-0.094234504 -0.32345784 0.76942956 -0.60414368 -0.021364609 0.79658896 0.29847318
-0.14027923 -0.15402983 0.73073548 -0.60464066 -0.021087408 0.79621917 0.29848337
-0.14812657 -0.1371447 0.69830364 -0.60458368 -0.021077635 0.79626274 0.29847857
-0.1266164 -0.39854744 0.73921824 -0.60405743 -0.021359079 0.79665452 0.29846659
-0.032214049 -0.13177253 0.57361937 0.60434741 0.021290231 -0.79643631 0.29847437
-0.021648997 -0.18963923 0.82648671 -0.60498083 -0.021018371 0.79596263 0.29849529
0.010955844 -0.14877681 0.84632194 -0.60485953 -0.021056294 0.79605371 0.29849002
0.011203622 -0.36696908 0.84297496 -0.60441631 -0.021176621 0.79638714 0.29847637
-0.0547911 -0.35465392 0.80371988 -0.60435063 -0.021201873 0.79643637 0.29847428
-0.062832788 -0.26534867 0.79708624 -0.60474062 -0.021111105 0.7961427 0.2984871
-0.020345915 -0.35089615 0.83104765 -0.60462672 -0.021106791 0.7962293 0.29848614
-0.061088052 -0.21962251 0.79552966 -0.60472417 -0.021102464 0.79615533 0.29848558
-0.024200788 -0.32729128 0.82790941 -0.60433221 -0.021200918 0.79645044 0.29847249
-0.09037362 -0.16697602 0.76988912 -0.6045109 -0.02113357 0.7963165 0.29848069
-0.0033839648 -0.40059888 0.84045303 -0.60448331 -0.021148205 0.79633707 0.29847926
-0.13527742 -0.33802029 0.73196459 -0.60418582 -0.021323645 0.79655814 0.29847312
-0.098626152 -0.14557195 0.75623286 -0.60440552 -0.021173133 0.79639548 0.29847655
0.048598502 -0.12726595 0.73145831 0.60398751 0.021301555 -0.79670912 0.29846478
-0.1569269 -0.42101562 0.69957876 -0.60443062 -0.021245698 0.79637444 0.29848045
-0.11093093 -0.38835785 0.75447643 -0.60413903 -0.021360982 0.79659259 0.29847145
0.015551739 -0.19335328 0.84218752 -0.60498083 -0.021018371 0.79596263 0.29849529
0.01504371 -0.22374977 0.84106028 -0.60480964 -0.021060655 0.7960915 0.29848874
-0.036887195 -0.18398573 0.8148191 -0.60493714 -0.021032991 0.79599541 0.29849473
-0.025734428 -0.221285 0.82467967 -0.60484022 -0.0210451 0.79606873 0.29848877
-0.088287607 -0.41127589 0.77451223 -0.60405272 -0.02138824 0.79665726 0.29846787
-0.019776244 -0.31190139 0.83098722 -0.60443461 -0.021168534 0.79637355 0.29847899
-0.03031932 -0.38931176 0.8239038 -0.60460281 -0.021115649 0.79624712 0.29848546
-0.085646011 -0.31036079 0.77586114 -0.60407698 -0.021392658 0.79663885 0.29847226
-0.06479492 -0.24982855 0.79460758 -0.60471708 -0.021118818 0.79616034 0.29848561
-0.058741853 -0.13019975 0.61206061 0.60443479 0.021262422 -0.7963708 0.29847795
-0.12020645 -0.26102877 0.7472592 -0.60447747 -0.021103574 0.79634261 0.29847553
-0.09552779 -0.13432015 0.64766139 -0.60469687 -0.021060785 0.79617715 0.29848078
-0.084809348 -0.13365999 0.73941648 -0.60440552 -0.021173133 0.79639548 0.29847655
-0.086582795 -0.16492835 0.77252853 -0.60439545 -0.021170139 0.79640317 0.29847479
0.00017956359 -0.42394271 0.84139925 -0.60450542 -0.021148298 0.7963202 0.29848075
-0.059753451 -0.13098541 0.60430878 0.60428363 0.021317283 -0.79648417 0.29847145
0.054435555 -0.12696576 0.66580194 0.60407436 0.02137832 -0.79664117 0.29847032
-0.11257499 -0.16037172 0.75281554 -0.60456043 -0.021125063 0.79627919 0.29848105
-0.14990379 -0.39433008 0.71182883 -0.60412633 -0.021343756 0.79660267 0.29846928
-0.13667423 -0.29460388 0.73165572 -0.60416406 -0.021330243 0.79657441 0.29847169
-0.13771532 -0.20044163 0.72854042 -0.60460371 -0.021099117 0.79624695 0.29848197
-0.10919037 -0.42578208 0.75507271 -0.60422307 -0.021333827 0.79652953 0.29847533
-0.14628415 -0.27208412 0.72170824 -0.60447574 -0.021103363 0.79634398 0.29847553
-0.034537327 -0.39955637 0.5485521 0.60409802 0.021329945 -0.79662448 0.29846817
-0.16273871 -0.44440031 0.69434118 -0.60443062 -0.021245698 0.79637444 0.29848045
-0.15846503 -0.24599847 0.70857322 -0.60460007 -0.021042977 0.79625118 0.29848075
-0.13246906 -0.13445376 0.68283677 -0.604599 -0.021085097 0.79625082 0.29847491
-0.14771345 -0.23472875 0.71982694 -0.60452396 -0.021087419 0.79630774 0.29847792
-0.15680374 -0.42030108 0.70012158 -0.60443062 -0.021245698 0.79637444 0.29848045
0.032253277 -0.13172765 0.82909566 -0.60397065 -0.021306243 0.7967217 0.29846501
-0.079774097 -0.16445439 0.77720493 -0.60439545 -0.021170139 0.79640317 0.29847479
0.013655972 -0.24215314 0.84179026 -0.60478789 -0.021081463 0.79610759 0.29848793
0.012599313 -0.32846051 0.84515548 -0.60452163 -0.021140549 0.79630816 0.29848161
-0.030183801 -0.21211046 0.82000339 -0.60474545 -0.021095825 0.79613936 0.29848528
-0.086760662 -0.26282221 0.77389127 -0.60454643 -0.021088477 0.79629064 0.29847831
-0.14424182 -0.1670976 0.73006099 -0.60457706 -0.021107849 0.79626691 0.29848051
-0.005374976 -0.18139145 0.83619571 -0.60498083 -0.021018371 0.79596263 0.29849529
-0.010169553 -0.2244157 0.83483833 -0.60492057 -0.021018604 0.79600835 0.29849291
-0.15395349 -0.36088833 0.7123844 -0.60422599 -0.021310734 0.79652792 0.29847461
-0.0064819884 -0.32684159 0.84068131 -0.60433221 -0.021200918 0.79645044 0.29847249
-0.024954107 -0.17999162 0.82374948 -0.60487652 -0.021052195 0.79604101 0.29848981
-0.073731713 -0.13016582 0.6318413 0.60471666 0.021061325 -0.79616219 0.298482
-0.050396968 -0.21973604 0.80469 -0.60480487 -0.021077026 0.79609472 0.29848939
-0.14986524 -0.13707507 0.71425182 -0.60450768 -0.021107694 0.7963196 0.29847658
-0.081944764 -0.13074324 0.66213793 -0.60469687 -0.021060785 0.79617715 0.29848078
-0.15539707 -0.37291726 0.70958513 -0.60421628 -0.021301175 0.79653555 0.29847306
-0.15520795 -0.38553393 0.70578229 -0.60425609 -0.021302942 0.79650539 0.29847497
-0.15395966 -0.20621438 0.70679832 -0.60449332 -0.02111317 0.79633033 0.29847652
-0.033170976 -0.13193476 0.75754577 -0.60491878 -0.021036437 0.79600924 0.29849273
0.070754722 -0.13200155 0.76684546 -0.60401583 -0.021292718 0.79668784 0.29846624
-0.073173918 -0.13490835 0.77462089 -0.60439879 -0.021168699 0.79640061 0.29847506
-0.030976566 -0.22614746 0.82136637 -0.60474545 -0.021095825 0.79613936 0.29848528
-0.01738641 -0.38413391 0.83162236 -0.60448331 -0.021148205 0.79633707 0.29847926
-0.063843518 -0.32707825 0.7949205 -0.60451949 -0.02114792 0.79630965 0.2984823
-0.006638085 -0.22494794 0.83659625 -0.60492057 -0.021018604 0.79600835 0.29849291
0.0098586408 -0.12701826 0.70236123 0.60487986 0.021022689 -0.79603916 0.29848823
-0.12314683 -0.37777543 0.74298388 -0.60408652 -0.021342687 0.79663295 0.29846743
-0.15125914 -0.14692362 0.71726799 -0.60450768 -0.021107694 0.7963196 0.29847658
-0.054289803 -0.39381483 0.80499578 -0.60460275 -0.021115836 0.79624718 0.29848546
-0.094477452 -0.33943018 0.76756823 -0.60404569 -0.021389369 0.79666257 0.29846728
-0.014959925 -0.15042631 0.82920086 -0.60498863 -0.021008385 0.79595691 0.29849508
-0.15095492 -0.29074195 0.71541268 -0.60419154 -0.021321557 0.79655379 0.29847318
-0.14660017 -0.30016908 0.71932918 -0.60419154 -0.021321557 0.79655379 0.29847318
-0.043896332 -0.38079706 0.81151062 -0.60460281 -0.021115649 0.79624712 0.29848546
-0.15702845 -0.43987343 0.68287885 -0.60410357 -0.021412574 0.7966181 0.29847026
-0.059857603 -0.43096256 0.57542807 0.60404205 0.021347076 -0.7966665 0.29846582
-0.14345545 -0.28692016 0.7244274 -0.60427338 -0.021201443 0.7964949 0.29847401
-0.022302132 -0.22579461 0.82783866 -0.60494697 -0.021010216 0.79598856 0.2984944
-0.1135958 -0.14585938 0.74384409 -0.6044572 -0.021157539 0.79635656 0.29847628
-0.13866247 -0.27873641 0.72967112 -0.60450566 -0.021094149 0.79632145 0.29847699
0.018254841 -0.44509485 0.8452819 -0.60483515 -0.020966602 0.79607469 0.29848662
0.013756765 -0.12818614 0.75080395 -0.60496908 -0.021020973 0.79597133 0.29849502
-0.096151464 -0.13246728 0.69904774 -0.60452437 -0.021101989 0.79630709 0.29847881
-0.15543783 -0.21962611 0.70407975 -0.60463691 -0.021031508 0.79622352 0.29847938
-0.15277115 -0.34277618 0.7074874 -0.60416394 -0.021330608 0.79657453 0.29847169
-0.01609792 -0.12902091 0.69946367 -0.60487986 -0.021022689 0.79603916 0.29848823
-0.13405262 -0.15144768 0.73434085 -0.60455275 -0.021114439 0.79628521 0.29847956
0.004458643 -0.1285539 0.67820203 0.60423678 0.021318698 -0.79651958 0.29846963
-0.12573633 -0.28329208 0.74228179 -0.60447747 -0.021103574 0.79634261 0.29847553
-0.016406318 -0.20955981 0.83062398 -0.60494697 -0.021010216 0.79598856 0.2984944
-0.00060313486 -0.2276831 0.83944106 -0.60480964 -0.021060655 0.7960915 0.29848874
-0.14833595 -0.1673906 0.7261886 -0.60457104 -0.021108972 0.79627144 0.29848135
-0.14985518 -0.27203149 0.71789807 -0.60455298 -0.021057919 0.79628652 0.29847842
-0.029750139 -0.29910392 0.82368112 -0.60449982 -0.021161426 0.79632413 0.29848114
-0.15422504 -0.33041123 0.70882905 -0.60418582 -0.021323645 0.79655814 0.29847312
-0.1474169 -0.29766721 0.7181918 -0.60419154 -0.021321557 0.79655379 0.29847318
-0.081773646 -0.17101432 0.77627736 -0.60440326 -0.021174528 0.79639703 0.29847655
-0.10408296 -0.43702114 0.61844575 0.60402757 0.021450698 -0.79667473 0.29846701
-0.0035116482 -0.26564321 0.83722699 -0.60483509 -0.021066377 0.79607213 0.29849029
0.0030583027 -0.30326012 0.84391379 -0.60436302 -0.021198053 0.79642701 0.29847637
-0.14202693 -0.39231464 0.72384089 -0.60412633 -0.021343756 0.79660267 0.29846928
-0.12899671 -0.23391958 0.73856562 -0.6045934 -0.021058852 0.79625583 0.29848078
0.070457682 -0.13147584 0.7703144 -0.60391104 -0.021325704 0.7967664 0.29846263
0.058661096 -0.1300166 0.78246003 -0.60395098 -0.021312665 0.79673642 0.29846412
0.1109406 -0.1310149 0.71956158 0.60409391 0.02127363 -0.79662913 0.29847121
0.059058096 -0.20746133 0.79679269 -0.60406977 -0.021282146 0.79664725 0.29846916
0.081212021 -0.42475113 0.77010494 -0.6048435 -0.020977573 0.79606801 0.2984882
0.14180391 -0.27519807 0.70121843 0.6043281 0.021181397 -0.79645395 0.29847577
0.071782231 -0.12879588 0.7622292 0.60401583 0.021292718 -0.79668784 0.29846624
0.11305442 -0.30244738 0.73957747 0.60455847 0.021110948 -0.79628092 0.29847822
0.1320965 -0.14064261 0.70552957 0.60414344 0.021258349 -0.796592 0.29847303
0.14399262 -0.41800559 0.70575154 0.60470808 0.021034114 -0.7961694 0.2984823
0.062516704 -0.36218831 0.79760265 -0.60458481 -0.021080043 0.79626173 0.29848012
0.12018834 -0.40464151 0.73190635 0.6046226 0.021076964 -0.79623318 0.29847935
0.14411776 -0.3423664 0.69757909 0.60451955 0.021136841 -0.79630983 0.29847679
0.093608007 -0.38882193 0.76239198 0.60485262 0.020970548 -0.79606128 0.29848617
0.044328339 -0.30121747 0.81410331 -0.60453933 -0.021101046 0.7962957 0.29847869
0.081189133 -0.43115172 0.76971126 -0.6048435 -0.020977573 0.79606801 0.2984882
0.080765225 -0.42255428 0.7699073 -0.6048435 -0.020977573 0.79606801 0.2984882
0.081340596 -0.19508925 0.76951849 0.60402662 0.021288799 -0.79667974 0.29846743
0.12178192 -0.16434421 0.72259849 0.6040659 0.021282502 -0.79665011 0.29846975
0.13668735 -0.19465908 0.70577568 0.6040433 0.021290382 -0.79666704 0.29846749
0.059329472 -0.29936668 0.79637897 -0.60453933 -0.021101046 0.7962957 0.29847869
0.14933354 -0.37975919 0.67811942 0.60454011 0.021191167 -0.79629284 0.29848331
0.049937546 -0.14711566 0.79560018 -0.60396761 -0.021307087 0.79672396 0.29846501
0.14499509 -0.24520974 0.68838829 0.60421604 0.021217635 -0.796538 0.2984705
0.091821052 -0.18635279 0.75990486 0.60403889 0.0212845 -0.79667056 0.29846686
0.023824938 -0.22611284 0.83619398 -0.60407931 -0.021278597 0.7966401 0.29846749
0.12326118 -0.32603627 0.72800332 0.60438746 0.021194238 -0.79640859 0.29847342
0.061758377 -0.16919203 0.79060006 -0.60424572 -0.02121284 0.79651558 0.29847655
0.062258363 -0.14686295 0.78680098 -0.60392112 -0.021321852 0.79675883 0.29846266
0.1439777 -0.19505529 0.68715996 0.60415047 0.021272166 -0.79658622 0.29847279
0.14836964 -0.32881063 0.68686146 0.60453874 0.021137416 -0.79629529 0.29847881
0.095109195 -0.35318086 0.7598145 0.60454679 0.021115921 -0.79628974 0.29847726
0.076910369 -0.37134427 0.781214 -0.60477817 -0.020991519 0.79611731 0.29848433
0.084517904 -0.28485802 0.76857466 0.60415816 0.021253012 -0.79658103 0.29847133
0.10778408 -0.3269245 0.74863404 0.60454607 0.021115543 -0.79629028 0.29847726
0.054850355 -0.40517613 0.81177288 -0.60467786 -0.021010082 0.79619306 0.29847899
0.07946606 -0.15839784 0.76844466 0.6038841 0.021334231 -0.79678661 0.2984612
0.043676801 -0.27252808 0.81568855 -0.60418761 -0.021243641 0.79655886 0.29847279
0.13578169 -0.16763546 0.70754611 0.6040659 0.021275897 -0.79665029 0.29846862
0.1470267 -0.26074755 0.68968427 0.6043281 0.021181397 -0.79645395 0.29847577
0.11531955 -0.29963502 0.73532176 0.60428935 0.021224033 -0.79648215 0.29846931
0.069534183 -0.31017312 0.78895491 -0.60453933 -0.021101046 0.7962957 0.29847869
0.14078242 -0.36138991 0.70559978 0.6045056 0.02114707 -0.79632014 0.29847735
0.12502193 -0.40498191 0.72687137 0.60462272 0.021076599 -0.79623306 0.29847935
0.09860345 -0.40944129 0.75193608 0.60489821 0.020963708 -0.79602689 0.29848853
0.060681082 -0.13781899 0.78613025 -0.60395098 -0.021312665 0.79673642 0.29846412
0.085019276 -0.12572841 0.71767926 0.60411924 0.021259535 -0.7966103 0.29847094
0.11010789 -0.40473956 0.74065286 0.60478932 0.02100439 -0.79610842 0.29848295
0.045469295 -0.31651837 0.81482989 -0.60453933 -0.021101046 0.7962957 0.29847869
0.11600984 -0.25291833 0.73281145 0.60421389 0.021220643 -0.7965396 0.29847157
0.076625936 -0.12577836 0.73346871 0.60411924 0.021259535 -0.7966103 0.29847094
0.14757028 -0.36721048 0.68384928 0.60454011 0.021191167 -0.79629284 0.29848331
0.005992732 -0.18945174 0.84408152 -0.60498083 -0.021018371 0.79596263 0.29849529
0.15444234 -0.39684626 0.68526971 0.60446596 0.021208333 -0.79634863 0.2984795
0.1478705 -0.29713252 0.67868048 0.60441345 0.021219213 -0.79638827 0.29847851
0.073460735 -0.34050038 0.78103387 -0.60458481 -0.021080043 0.79626173 0.29848012
0.038477208 -0.12602727 0.68716764 0.60412043 0.021280626 -0.79660887 0.2984713
0.050858688 -0.43237036 0.81539184 -0.60483515 -0.020966602 0.79607469 0.29848662
0.039850514 -0.30828267 0.82068348 -0.60453933 -0.021101046 0.7962957 0.29847869
0.011033231 -0.44268516 0.84794021 -0.60450542 -0.021148298 0.7963202 0.29848075
0.076169215 -0.28540531 0.77948219 -0.60415488 -0.021280972 0.7965827 0.29847169
0.13738029 -0.23666354 0.70557845 0.60426515 0.021199165 -0.79650128 0.29847363
0.083632499 -0.18301117 0.76582468 0.60401112 0.021294579 -0.79669136 0.29846501
-0.046165902 -0.12829176 0.59743363 0.60434741 0.021290231 -0.79643631 0.29847437
0.14623417 -0.31651235 0.69309765 0.60462123 0.021096691 -0.79623371 0.29848236
0.0041210549 -0.22485131 0.83933848 -0.60480964 -0.021060655 0.7960915 0.29848874
0.084943295 -0.12543489 0.70911759 0.60406703 0.021276312 -0.79664946 0.29846862
0.056717671 -0.18182574 0.79825485 -0.60419035 -0.021230251 0.79655719 0.29847363
0.13148084 -0.27716422 0.71645099 0.60421681 0.021219986 -0.7965374 0.29847157
0.10466507 -0.12946336 0.73244905 0.60406399 0.021282829 -0.7966516 0.29846975
-0.033438835 -0.12947042 0.68935645 -0.60489303 -0.021017894 0.79602933 0.29848996
0.14366709 -0.19946077 0.68138099 0.60416788 0.021356318 -0.79657078 0.29847476
0.1454282 -0.30420366 0.69458795 0.60461301 0.021099314 -0.79623985 0.2984823
0.10154008 -0.30074641 0.75081533 0.60456669 0.021095715 -0.79627514 0.29847816
-0.085938759 -0.13121277 0.65474212 -0.60469687 -0.021060785 0.79617715 0.29848078
0.035008103 -0.28831068 0.82442975 -0.60453933 -0.021101046 0.7962957 0.29847869
0.13824446 -0.31503475 0.7060101 0.60430938 0.021204228 -0.7964676 0.29846981
0.086297788 -0.25763538 0.76660836 0.60417575 0.021239936 -0.79656798 0.29846901
0.13243377 -0.29838008 0.71331674 0.60436904 0.021186333 -0.79642272 0.29847306
-0.13509007 -0.13893257 0.72553146 -0.60455275 -0.021114439 0.79628521 0.29847956
0.14645761 -0.33356634 0.6745829 0.6044659 0.021223309 -0.79634827 0.29848188
0.14784554 -0.3529377 0.69082582 0.60453874 0.021137416 -0.79629529 0.29847881
0.084739991 -0.2673102 0.76782948 0.60426265 0.02121309 -0.79650277 0.29847285
0.013001072 -0.26428977 0.84355211 -0.60483509 -0.021066377 0.79607213 0.29849029
0.012279242 -0.37044597 0.84295321 -0.60448331 -0.021148205 0.79633707 0.29847926
0.060602523 -0.19813217 0.79437035 -0.60421807 -0.021220829 0.79653639 0.29847509
0.013871673 -0.23893403 0.84128624 -0.60479885 -0.021077966 0.79609931 0.29848883
0.044282671 -0.12717426 0.74078256 0.60401368 0.021293761 -0.79668939 0.29846624
-0.051271379 -0.13803504 0.79110318 -0.60491008 -0.021039419 0.79601574 0.29849276
0.14450204 -0.14720485 0.68822557 0.6040414 0.021300355 -0.79666829 0.29846752
0.070775524 -0.12959108 0.63733131 0.60404754 0.021373335 -0.79666167 0.29846761
-0.075481169 -0.13358882 0.61760664 0.60471666 0.021061325 -0.79616219 0.298482
0.052023977 -0.12649316 0.72530967 0.60411626 0.021260535 -0.79661256 0.29847094
0.077856392 -0.14514622 0.76621926 0.60401601 0.021292364 -0.79668772 0.29846624
0.13433626 -0.141085 0.70552075 0.60414344 0.021258349 -0.796592 0.29847303
0.013872791 -0.29712939 0.84304595 -0.60436302 -0.021198053 0.79642701 0.29847637
0.080894805 -0.32652971 0.77451074 -0.60461378 -0.021077786 0.79623979 0.29848081
0.010473284 -0.39965904 0.84051526 -0.60448331 -0.021148205 0.79633707 0.29847926
-0.02907552 -0.12934405 0.6916554 -0.60489303 -0.021017894 0.79602933 0.29848996
0.01426899 -0.43727875 0.84399766 -0.60450542 -0.021148298 0.7963202 0.29848075
-0.084685788 -0.13136911 0.6480912 -0.60469687 -0.021060785 0.79617715 0.29848078
0.079379633 -0.12784936 0.66685224 0.60410058 0.021369601 -0.79662156 0.29847175
0.1276418 -0.18446539 0.71839309 0.60415471 0.021247726 -0.79658377 0.29847217
-0.014907649 -0.13376677 0.81851572 -0.60498863 -0.021008385 0.79595691 0.29849508
0.14351735 -0.20065355 0.68829411 0.60415047 0.021272166 -0.79658622 0.29847279
0.14807872 -0.36424565 0.68619055 0.60454512 0.021121025 -0.79629081 0.29847765
0.090089567 -0.12960805 0.7505722 0.60401368 0.021293761 -0.79668939 0.29846624
0.1444321 -0.13593513 0.6891005 0.6040414 0.021300355 -0.79666829 0.29846752
-0.04491837 -0.1331757 0.77738833 -0.60492182 -0.021035416 0.79600704 0.29849273
0.055439927 -0.12731981 0.69168437 0.60417229 0.021264106 -0.79656994 0.29847455
0.021002783 -0.12934346 0.7958321 -0.60396755 -0.021307254 0.79672402 0.29846501
0.057489511 -0.34915051 0.80144149 -0.60458481 -0.021080043 0.79626173 0.29848012
0.097164616 -0.13214023 0.64592779 0.60406655 0.021366857 -0.79664743 0.29846936
0.13812904 -0.13118689 0.69309074 0.6040414 0.021300355 -0.79666829 0.29846752
0.14194816 -0.31351513 0.70139295 0.60462123 0.021096691 -0.79623371 0.29848236
0.14075202 -0.24056828 0.70117283 0.60421216 0.021218631 -0.79654098 0.2984705
0.1444506 -0.25902447 0.69493604 0.6043281 0.021181397 -0.79645395 0.29847577
0.033855155 -0.1261842 0.70110685 0.60412043 0.021280626 -0.79660887 0.2984713
0.13101389 -0.12714958 0.68498945 0.6041528 0.021348035 -0.79658258 0.29847237
0.032141473 -0.13024598 0.59653568 0.6041432 0.021343213 -0.79658985 0.29847348
0.12584072 -0.37295303 0.72809309 0.60462177 0.021076752 -0.79623383 0.29847935
0.076416202 -0.22967653 0.77483934 -0.6042071 -0.021238087 0.79654425 0.29847372
0.12138138 -0.14015958 0.71342266 0.60406685 0.021282183 -0.7966494 0.29846975
0.12759559 -0.15469146 0.71719855 0.60397172 0.021312241 -0.79672074 0.29846495
-0.11566463 -0.13242002 0.69674355 -0.60462958 -0.021069745 0.79622811 0.29848093
0.12976281 -0.21562907 0.71744752 0.60428482 0.02119804 -0.79648632 0.29847488
0.066398062 -0.34342363 0.79069561 -0.60458481 -0.021080043 0.79626173 0.29848012
0.1471899 -0.29076958 0.69199073 0.60461301 0.021099314 -0.79623985 0.2984823
-0.15439874 -0.13796125 0.70926762 -0.60450453 -0.021109078 0.79632199 0.29847658
-0.02546927 -0.22310656 0.53922063 0.60426021 0.021323292 -0.79650164 0.29846999
0.016610462 -0.12714683 0.70208168 0.60487986 0.021022689 -0.79603916 0.29848823
0.073711604 -0.15978858 0.77568889 -0.60392112 -0.021321852 0.79675883 0.29846266
0.066245779 -0.21954495 0.78370798 -0.60411698 -0.021266604 0.79661179 0.29846865
0.058100432 -0.29568174 0.80239284 -0.60453933 -0.021101046 0.7962957 0.29847869
0.064890213 -0.25617403 0.60847116 0.60417527 0.021381225 -0.79656452 0.29847568
0.03020734 -0.24092901 0.82912356 -0.60415894 -0.021253211 0.79658031 0.29847133
0.08223968 -0.20308501 0.76696575 0.60401124 0.021294214 -0.79669124 0.29846501
0.066233821 -0.35688144 0.6019699 0.60433644 0.021255206 -0.79644561 0.29847559
-0.046398867 -0.1288795 0.65568936 0.60420489 0.021342726 -0.79654306 0.29846907
0.06224566 -0.19194855 0.7920453 -0.60421807 -0.021220829 0.79653639 0.29847509
0.14230536 -0.14879662 0.68712872 0.6040414 0.021300355 -0.79666829 0.29846752
0.14957111 -0.3808496 0.67755419 0.60454011 0.021191167 -0.79629284 0.29848331
0.055021193 -0.40462434 0.81189001 -0.60467786 -0.021010082 0.79619306 0.29847899
0.039102815 -0.35608944 0.82495505 -0.60458481 -0.021080043 0.79626173 0.29848012
0.042850558 -0.25719219 0.81588715 -0.60418773 -0.021243278 0.7965588 0.29847279
0.048676923 -0.15505172 0.80288392 -0.60394061 -0.021315614 0.79674417 0.29846358
0.031543694 -0.13161731 0.8226012 -0.60397065 -0.021306243 0.7967217 0.29846501
0.017332567 -0.12977399 0.80907583 -0.60485953 -0.021056294 0.79605371 0.29849002
0.021289591 -0.18535331 0.57241488 0.60420483 0.021344345 -0.79654312 0.29847676
0.075576559 -0.29890746 0.60657328 0.60452765 0.021174561 -0.79630262 0.29848155
0.06768541 -0.43338987 0.59406233 0.6045571 0.021184321 -0.79627997 0.29848391
0.045686178 -0.12718402 0.76062113 -0.6040138 -0.021293398 0.79668933 0.29846624
0.10595693 -0.16225946 0.73463058 0.60401016 0.0212935 -0.79669201 0.29846624
0.040351484 -0.25058746 0.58522415 0.60397297 0.021452375 -0.79671609 0.29846719
0.14429726 -0.21053173 0.67753553 0.60424203 0.02137522 -0.79651409 0.29847956
0.10699762 -0.27398619 0.64076829 0.60422522 0.021379236 -0.79652673 0.29847813
0.1442996 -0.17389449 0.67724437 0.60416788 0.021356318 -0.79657078 0.29847476
0.14262071 -0.19192062 0.67390656 0.60416889 0.021356158 -0.79657012 0.29847476
0.081349961 -0.30062252 0.7746312 -0.60457659 -0.021102838 0.79626745 0.29848021
-0.021093354 -0.13102245 0.74273759 -0.60498875 -0.021007998 0.79595679 0.29849482
-0.0080844723 -0.13196117 0.80808395 -0.60498863 -0.021008385 0.79595691 0.29849508
0.0048848828 -0.28153998 0.84377849 -0.60483509 -0.021066377 0.79607213 0.29849029
0.079794966 -0.12801856 0.65545344 0.60409403 0.021357812 -0.79662675 0.29847085
-0.0061666239 -0.12892261 0.58490944 0.60430163 0.021298107 -0.79647094 0.29847199
0.0032259354 -0.18467022 0.55806863 0.60428745 0.021289961 -0.79648191 0.2984705
0.11584502 -0.15302576 0.72691327 0.60406685 0.021282183 -0.7966494 0.29846975
0.13728993 -0.35725799 0.664451 0.6044659 0.021223309 -0.79634827 0.29848188
0.065594919 -0.21989051 0.60764968 0.60412264 0.021404611 -0.7966038 0.29847312
0.036902867 -0.40969798 0.57725626 0.60437816 0.021241378 -0.79641438 0.29847562
0.10855254 -0.23589015 0.63896912 0.60415924 0.021400241 -0.7965762 0.29847565
0.13276596 -0.2967872 0.71368241 0.60436904 0.021186333 -0.79642272 0.29847306
0.11679361 -0.21015348 0.65235341 0.60428542 0.02136126 -0.79648155 0.29848135
0.047955479 -0.37517205 0.58484894 0.60445535 0.021216504 -0.7963565 0.2984795
0.056182586 -0.16217084 0.79757398 -0.60397363 -0.021305408 0.79671943 0.29846501
0.15339532 -0.31428006 0.67780101 0.60444391 0.02119611 -0.79636568 0.29847768
0.033709895 -0.43417731 0.83027124 -0.60483515 -0.020966602 0.79607469 0.29848662
0.1141281 -0.34174266 0.64321613 0.60446388 0.02122399 -0.79634976 0.29848188
-0.033517294 -0.42419308 0.519683 0.6040982 0.021329582 -0.79662442 0.29846817
0.14572711 -0.23534471 0.67922115 0.60424203 0.02137522 -0.79651409 0.29847956
0.047018692 -0.12711194 0.66241765 0.60396647 0.021398854 -0.79672241 0.29846379
0.044729657 -0.1267809 0.64355034 0.60396647 0.021398854 -0.79672241 0.29846379
0.074739039 -0.14380206 0.61918801 0.6040712 0.02136589 -0.79664385 0.2984702
0.031740565 -0.12754259 0.728679 0.60398751 0.021301555 -0.79670912 0.29846478
0.088818766 -0.22636402 0.766298 0.60428631 0.021205017 -0.79648501 0.29847431
0.095490754 -0.26737937 0.75664234 0.60417575 0.021239936 -0.79656798 0.29846901
0.094962247 -0.18666577 0.75634283 0.60403889 0.0212845 -0.79667056 0.29846686
0.076273955 -0.24004382 0.77438116 -0.6042071 -0.021238087 0.79654425 0.29847372
0.068198159 -0.26443121 0.80326647 -0.60424894 -0.02122408 0.79651284 0.29847491
0.056252699 -0.12676066 0.67354411 0.60407436 0.02137832 -0.79664117 0.29847032
0.053773098 -0.14076655 0.60412151 0.6041432 0.021343213 -0.79658985 0.29847348
0.11973269 -0.36908868 0.73517567 0.60462582 0.021075588 -0.79623085 0.29847935
0.055944011 -0.17987274 0.60191697 0.60417664 0.021353601 -0.79656422 0.29847533
0.11480461 -0.4074215 0.63490152 0.60429949 0.021275535 -0.79647315 0.29847267
0.14578685 -0.34595022 0.67308402 0.6044659 0.021223309 -0.79634827 0.29848188
0.14065631 -0.37031475 0.70064783 0.60473186 0.021033686 -0.7961514 0.29848292
0.087661877 -0.22909079 0.62553829 0.60406387 0.021416405 -0.79664814 0.29846951
0.12948588 -0.1829998 0.71640229 0.60415471 0.021247726 -0.79658377 0.29847217
0.095699847 -0.2157533 0.75768977 0.60428631 0.021205017 -0.79648501 0.29847431
0.13729247 -0.20023903 0.66938317 0.6041556 0.021353636 -0.79658026 0.29847383
0.072606258 -0.21146512 0.77733874 -0.60411698 -0.021266604 0.79661179 0.29846865
0.017294582 -0.29777518 0.56554985 0.6040917 0.021318831 -0.79662961 0.29846618
0.14495304 -0.18374431 0.68473166 0.60416788 0.021356318 -0.79657078 0.29847476
0.020470627 -0.39737883 0.56195003 0.60445535 0.021216504 -0.7963565 0.2984795
0.11206135 -0.16897914 0.6463474 0.60420918 0.021316374 -0.79654056 0.298475
0.15413469 -0.3101269 0.67735004 0.60441345 0.021219213 -0.79638827 0.29847851
0.064607561 -0.29205874 0.59877425 0.60452765 0.021174561 -0.79630262 0.29848155
0.046258274 -0.32491219 0.58531654 0.60441893 0.021202318 -0.79638451 0.29847679
0.046348721 -0.13490394 0.60361528 0.6041432 0.021343213 -0.79658985 0.29847348
-0.028585313 -0.12769897 0.59862095 0.60434741 0.021290231 -0.79643631 0.29847437
