# .PCD v0.7 - Point Cloud Data file format
VERSION 0.7
FIELDS x y z normal_x normal_y normal_z curvature
SIZE 4 4 4 4 4 4 4
TYPE F F F F F F F
COUNT 1 1 1 1 1 1 1
WIDTH 582
HEIGHT 1
VIEWPOINT 0 0 0 1 0 0 0
POINTS 582
DATA ascii
0.017098133 -0.14995755 0.62249762 0.19743733 0.92971885 -0.31087184 0.041835546
-0.044402841 -0.14332049 0.61827892 0.14837529 0.93638229 -0.31807718 0.046743754
-0.18686005 -0.36095378 0.67453682 -0.87845814 0.075373322 -0.47183692 0.0054677068
-0.022980323 -0.14379655 0.62221301 0.13468523 0.93569613 -0.32608667 0.04113888
-0.10283471 -0.14219253 0.74698436 -0.11394502 0.98068732 0.15896158 0.027547879
-0.21220271 -0.30196413 0.72431624 -0.9957813 0.090770885 -0.01342481 0.064256467
-0.1491622 -0.20087637 0.62720793 -0.83047301 0.20113678 -0.51947916 0.019725248
-0.16569172 -0.31375816 0.64541537 -0.84502757 0.058703605 -0.53149062 0.00022795066
-0.21347 -0.37034252 0.7401017 -0.99576283 0.069555476 0.060153641 0.077288732
-0.19147567 -0.21958226 0.69387561 -0.91846192 0.052288454 -0.39203778 0.018636869
-0.11073848 -0.15718541 0.57434988 -0.39022946 0.57142955 -0.72193438 0.11597526
-0.1226159 -0.41315532 0.57206613 -0.46233627 -0.033279568 -0.88607991 0.079462871
-0.17677416 -0.19921267 0.67225462 -0.83367574 0.22961788 -0.50225526 0.02511269
0.0024571712 -0.14469114 0.63177222 0.169834 0.95276964 -0.25176665 0.038278583
-0.19316263 -0.17036738 0.69865894 -0.85261577 0.3811931 -0.3574048 0.064476013
-0.066831425 -0.14097361 0.63947314 0.0064510587 0.98926133 -0.14601511 0.018053602
-0.1060911 -0.21725038 0.56082195 -0.46588016 0.090429045 -0.88021493 0.05601142
-0.20937292 -0.26629665 0.71341765 -0.98229289 0.014154946 -0.18681608 0.055127274
-0.10887938 -0.31921408 0.56020492 -0.34268999 0.019564869 -0.93924481 0.068363674
-0.12958084 -0.23800617 0.59242803 -0.73708761 0.048093453 -0.67408365 0.033860944
-0.19838306 -0.4289456 0.68184173 -0.88797349 -0.012932085 -0.45971277 0.0065363855
-0.10685775 -0.14154528 0.72298193 -0.053461436 0.99685287 0.058533758 0.004841601
-0.18091352 -0.24462709 0.67556202 -0.87115532 0.021805638 -0.4905231 0.0037107556
-0.17823571 -0.17018951 0.67762601 -0.78024203 0.42357293 -0.46022642 0.05212076
0.0056905742 -0.14197448 0.68798715 0.12093113 0.99165243 -0.044733655 0.010388863
-0.089939371 -0.14142337 0.6284641 -0.14146926 0.96325147 -0.22832678 0.049162801
-0.10304075 -0.30206624 0.55446696 -0.26075846 0.025570329 -0.96506542 0.063021347
-0.1773206 -0.39755607 0.65386486 -0.84591955 0.057107653 -0.53024411 0.00076470413
-0.10786146 -0.2566081 0.56221056 -0.36261901 0.048078615 -0.93069643 0.085634738
-0.051235344 -0.15129943 0.59006959 0.1935574 0.79740709 -0.57155699 0.074167475
-0.025053985 -0.14208773 0.67592907 0.043350384 0.99806529 -0.044568118 0.0021037527
-0.0193702 -0.37816179 0.60352975 0.50512511 0.0073701846 -0.8630147 0.0015698472
-0.15444013 -0.14320749 0.68799752 -0.33750194 0.91683137 -0.21333708 0.052675225
-0.10619681 -0.16459228 0.56463885 -0.33537224 0.46924868 -0.81690335 0.1085619
-0.10856959 -0.28033066 0.55995119 -0.42566693 0.021525649 -0.90462387 0.068299316
-0.12841085 -0.17203139 0.59721375 -0.66814429 0.4609805 -0.58402061 0.079511687
-0.13643026 -0.35691935 0.59532595 -0.72881961 0.027759314 -0.68414289 0.030070825
-0.2221119 -0.41452828 0.73572063 -0.99650955 0.0052828141 0.083311848 0.099856883
-0.19385964 -0.24928632 0.69556451 -0.93380189 -0.013446441 -0.35753781 0.033217926
0.015329373 -0.40176049 0.62362021 0.51578039 9.2267321e-05 -0.85672086 0.0021210052
-0.080401793 -0.15338022 0.57732475 -0.059387449 0.68759108 -0.72366542 0.10775096
-0.050839324 -0.42777896 0.58066869 0.39314187 -0.01516187 -0.91935283 0.017054552
-0.2196006 -0.42144349 0.72796416 -0.99979311 -0.010329962 0.017526027 0.10311431
-0.21883793 -0.38428977 0.72915977 -0.9949311 0.044320527 -0.090265356 0.063014477
-0.17380452 -0.23999287 0.66573447 -0.85407692 0.031806827 -0.51917332 0.00074800145
-0.11153496 -0.156372 0.57182831 -0.39006549 0.56423265 -0.72766095 0.11642879
-0.20977777 -0.17353991 0.73219687 -0.91638047 0.38364437 0.1142971 0.12083288
0.041199151 -0.15213072 0.64146936 0.36062565 0.8667205 -0.34459341 0.078657083
-0.053994313 -0.14251693 0.7756139 -0.039035607 0.98302019 0.17929722 0.024196485
0.020762049 -0.23923744 0.62469977 0.5326125 -0.0063632391 -0.84633535 0.0011997727
0.037432127 -0.29522705 0.63975829 0.61433768 0.013227846 -0.78893226 0.0066242353
-0.067527793 -0.17781468 0.57282728 0.11885606 0.44907114 -0.88555539 0.088694796
-0.080462642 -0.17430186 0.56644005 0.0088208634 0.43268213 -0.90150338 0.10036448
-0.17864464 -0.15683395 0.68441862 -0.7077058 0.58100474 -0.40197778 0.062581576
-0.11749426 -0.24031329 0.57340521 -0.60993332 0.051628403 -0.79076922 0.054706667
-0.15201937 -0.19242258 0.63270062 -0.81156141 0.26522812 -0.52059776 0.029110428
-0.15457945 -0.27162531 0.63360959 -0.84923691 0.044211045 -0.52615786 0.00023378292
-0.11882015 -0.38666686 0.57002181 -0.47830811 -0.01312883 -0.87809396 0.069273166
-0.14381218 -0.41702619 0.60073161 -0.75429797 -0.015255995 -0.65635496 0.016305061
-0.18536367 -0.235947 0.68413651 -0.90108925 0.013752551 -0.43341556 0.013381515
-0.10750166 -0.33688617 0.55986935 -0.35203397 -0.015886448 -0.93585235 0.070866041
-0.17680937 -0.39774296 0.65184152 -0.84538472 0.056700006 -0.53114015 0.00073761883
-0.11151288 -0.38162264 0.56130141 -0.34321168 -0.029545048 -0.93879324 0.072976664
-0.10845845 -0.34541798 0.55936825 -0.37417778 -0.023849856 -0.92705023 0.077812217
-0.13873634 -0.26849455 0.60810697 -0.79221857 0.045401901 -0.6085462 0.015556877
-0.10788436 -0.22897395 0.55761176 -0.4011628 0.0773132 -0.9127382 0.059899315
-0.13894142 -0.37899494 0.59776384 -0.73735636 0.026979851 -0.67496502 0.02308563
-0.15527335 -0.34998372 0.62471122 -0.83274615 0.051275875 -0.55127543 0.00057587726
-0.028735517 -0.31703871 0.59868002 0.51721483 0.0036172976 -0.85584795 0.00025414728
-0.11250956 -0.2551626 0.56452507 -0.51976401 0.030324057 -0.85377151 0.068560764
-0.21386676 -0.35215509 0.73005217 -0.98469365 0.15619296 -0.077345096 0.068163961
-0.20484024 -0.2223863 0.71652532 -0.96807098 0.027649326 -0.24914666 0.045669131
-0.19910811 -0.42378116 0.68194664 -0.89218217 0.0090338727 -0.45158547 0.0068412079
-0.13069107 -0.32368016 0.58930445 -0.71390766 0.024332089 -0.699817 0.035032697
-0.14202508 -0.15564293 0.62679225 -0.64768881 0.6434738 -0.40797138 0.065393262
-0.095641367 -0.33961788 0.56022114 -0.072271295 -0.016883014 -0.99724209 0.074767962
-0.1042376 -0.21318653 0.55819809 -0.41288942 0.10814695 -0.90433764 0.05593453
-0.1301325 -0.2796613 0.59202701 -0.70234919 0.044576105 -0.71043551 0.043566138
-0.14103293 -0.25409499 0.61195922 -0.81107891 0.039676663 -0.58358967 0.0097178454
0.064430997 -0.15060303 0.6610899 0.58458036 0.76254725 -0.27710545 0.10577509
-0.11994225 -0.30223092 0.57280391 -0.56043446 0.029789142 -0.82766283 0.059456553
-0.17401865 -0.41377503 0.64784938 -0.83824408 0.048202805 -0.54316056 0.00056354993
-0.14436665 -0.36130381 0.60766566 -0.77685273 0.034783501 -0.62872088 0.012123956
-0.06874074 -0.15050022 0.58598578 0.097915128 0.7533952 -0.65023708 0.10285724
-0.061093725 -0.28824139 0.57720536 0.33005095 0.032763716 -0.9433943 0.039056595
-0.17139086 -0.35797116 0.64864391 -0.84484321 0.061460841 -0.53147203 0.00059080502
0.055305649 -0.14681846 0.66574961 0.43465668 0.88341361 -0.17508292 0.08296676
-0.15925668 -0.23286195 0.64304793 -0.84990376 0.040068489 -0.52541232 0.00037560443
-0.18120252 -0.31752813 0.67019087 -0.87087387 0.060531363 -0.48776489 0.00249927
-0.0417093 -0.225364 0.58982509 0.45403525 0.025304398 -0.89062428 0.0079974355
0.0067426562 -0.33085084 0.61884975 0.52024686 0.0099166855 -0.85395831 0.0002880652
-0.1848698 -0.18220468 0.68337291 -0.83915687 0.31641191 -0.44237918 0.040257841
-0.20837469 -0.19799981 0.72190493 -0.97919571 0.15113531 -0.13540238 0.072661832
-0.1403334 -0.31502903 0.60630357 -0.80333883 0.030920839 -0.59471887 0.0053657577
-0.134994 -0.21860185 0.60284406 -0.78859258 0.076446973 -0.61014563 0.017349826
-0.18672734 -0.36482444 0.67262965 -0.8772586 0.076650336 -0.47385868 0.0052953525
-0.172113 -0.33446535 0.649674 -0.84731925 0.065221772 -0.52706391 0.00042762642
-0.11436253 -0.27236268 0.56603074 -0.52940053 0.021584913 -0.84809744 0.060375184
-0.21176255 -0.38616699 0.71219218 -0.95301563 0.084954388 -0.29076448 0.03895979
-0.23455761 -0.44814155 0.75521952 -0.8172273 0.097486317 0.56801051 0.079564542
0.06059302 -0.14543463 0.67699069 0.48146963 0.86583853 -0.13605405 0.086976118
-0.18000457 -0.42438579 0.65606225 -0.84533775 0.04500654 -0.53233302 0.00092234812
-0.18687579 -0.14328083 0.71179366 -0.5478605 0.81988138 -0.16626275 0.074718855
-0.21022257 -0.26169607 0.72947258 -0.99523681 0.0081481291 -0.097146101 0.062757477
-0.20877941 -0.24488652 0.73065728 -0.99664658 0.027974723 -0.076896101 0.062233575
-0.20349494 -0.24097347 0.71194196 -0.96095437 -0.0051931785 -0.27665806 0.0433922
-0.087071791 -0.36150324 0.56536847 0.016247783 -0.017829074 -0.99970901 0.073457144
-0.085776374 -0.1525045 0.56803739 -0.075013205 0.64131242 -0.76360422 0.1071737
-0.065255143 -0.31793818 0.57553852 0.29635489 0.0042068395 -0.95506871 0.035963554
-0.14857039 -0.143842 0.64660251 -0.52617437 0.78841758 -0.3186506 0.061379634
-0.050800242 -0.14138845 0.75122577 -0.0025806357 0.99836767 0.057055362 0.0026041083
-0.086480305 -0.14166054 0.7479924 -0.073599048 0.99055189 0.11571597 0.015753279
-0.071442552 -0.14093429 0.72320724 -0.0065540271 0.99979401 0.019210098 0.00035165643
-0.17827207 -0.1466174 0.69181961 -0.57165635 0.7664752 -0.29278782 0.070662171
-0.1145912 -0.28988329 0.56580168 -0.47007483 0.018449942 -0.88243371 0.064840689
-0.19966519 -0.24874687 0.70296329 -0.9476046 -0.0041139778 -0.319419 0.037413586
-0.14774622 -0.37995589 0.6095978 -0.78749436 0.036075659 -0.61526507 0.0073971315
-0.21245445 -0.28023151 0.7296958 -0.99941337 0.022131916 -0.026135202 0.061434224
-0.2407963 -0.3614004 0.76654673 -0.92391199 0.079451524 0.37426487 0.051442262
-0.1662108 -0.36658692 0.63778377 -0.84012419 0.058096696 -0.53927368 0.00047387948
-0.16718443 -0.40051898 0.63726109 -0.83342278 0.048826497 -0.55047476 0.00045954535
-0.13332359 -0.42865407 0.58500987 -0.6637916 -0.055695444 -0.74584091 0.054689266
-0.12034138 -0.16312212 0.58643514 -0.54456323 0.52514917 -0.65396428 0.10024431
-0.18627155 -0.38335082 0.66641122 -0.86191612 0.063385218 -0.50307345 0.0022191342
-0.13117343 -0.14571823 0.61694646 -0.56211239 0.74202245 -0.36528391 0.073430799
-0.15354456 -0.15696858 0.64230812 -0.67883509 0.57947749 -0.45098639 0.062007319
0.035116903 -0.14106798 0.7042833 0.23029386 0.97307861 -0.0090927025 0.028945785
-0.03974317 -0.14262821 0.63409418 0.099373139 0.96877718 -0.22714683 0.034899063
-0.080354698 -0.14058663 0.67963904 -0.0098319668 0.99986219 -0.013372825 0.00056312559
-0.076227508 -0.13934326 0.66317433 -0.0087622739 0.9991883 -0.039319858 0.0020140598
0.064124472 -0.14857392 0.70817381 0.56713229 0.81806099 0.095589079 0.086573869
-0.099241704 -0.1364156 0.5728628 -0.16877769 0.78645951 -0.59413427 0.10291908
-0.12102973 -0.23304318 0.57944083 -0.68072695 0.059604611 -0.73010832 0.04377231
-0.11397914 -0.14543791 0.59683865 -0.36313269 0.79439199 -0.48690444 0.098535858
-0.092685275 -0.14079562 0.64366138 -0.13402177 0.98141277 -0.13735791 0.0294427
-0.013410622 -0.23671021 0.60792029 0.51907742 -0.0024478934 -0.85472369 0.00069367624
-0.10052127 -0.14235018 0.76352286 -0.15298925 0.95989501 0.23493811 0.047548637
-0.09484262 -0.14240877 0.77225304 -0.16854881 0.94705564 0.27327091 0.052038316
-0.18484731 -0.14678001 0.69589108 -0.64507467 0.70587027 -0.29261896 0.072748944
-0.17295896 -0.21175191 0.66469902 -0.84807813 0.13112603 -0.51339018 0.0091960952
-0.20277478 -0.40198049 0.69049734 -0.91535026 0.055902638 -0.39875913 0.022877235
-0.17037332 -0.15317632 0.66674018 -0.67787093 0.61618209 -0.40101206 0.067136653
-0.16016692 -0.14657675 0.66809636 -0.53220111 0.7745676 -0.34177026 0.074590772
-0.1932677 -0.35515898 0.68586248 -0.90764356 0.074200608 -0.41313118 0.015038782
-0.13118669 -0.14212312 0.60072881 -0.55341023 0.71222717 -0.43182129 0.08140073
-0.13323039 -0.38193724 0.58845562 -0.68384176 0.011638302 -0.72953755 0.040683087
-0.19622925 -0.38672328 0.6819188 -0.89070553 0.06579046 -0.44979465 0.0087487521
-0.1841104 -0.16320056 0.68446922 -0.77107394 0.47796804 -0.42070356 0.058148928
-0.16755295 -0.14673054 0.67991829 -0.54167163 0.767802 -0.34215778 0.069518313
-0.18275516 -0.21072586 0.68105322 -0.87661707 0.1248908 -0.46469864 0.013958129
-0.1625846 -0.3120577 0.64177418 -0.84492809 0.057677321 -0.53176111 0.00021772446
-0.11259222 -0.10973726 0.55332989 -0.22894014 0.88231885 -0.41121754 0.10716419
-0.20731175 -0.37612376 0.70573205 -0.93896288 0.088492781 -0.33244199 0.035812985
-0.14341548 -0.1740192 0.61974317 -0.75811464 0.43171069 -0.4887619 0.052069258
-0.0065980256 -0.27213189 0.61334205 0.5212478 0.00038721313 -0.8534053 0.00056492945
-0.20864397 -0.20955221 0.7221604 -0.98404157 0.079987012 -0.15894736 0.063010141
-0.097715206 -0.28062287 0.55885983 -0.14093795 0.024323398 -0.98971957 0.074852057
-0.1977181 -0.39954686 0.6821574 -0.89959365 0.04629102 -0.43426776 0.013538677
-0.2039447 -0.18206894 0.71678877 -0.93047357 0.30601913 -0.20142305 0.087309226
-0.087969162 -0.14999118 0.57211059 -0.11519972 0.67735463 -0.72658086 0.10867055
-0.16908558 -0.26538351 0.65693259 -0.8467418 0.043230921 -0.53024465 0.00031740716
0.014725443 -0.44738123 0.60109794 0.50285643 -0.00017308007 -0.86436987 0.0049253018
-0.11758306 -0.4263998 0.56719929 -0.40163237 -0.016524877 -0.91565198 0.088086925
0.011464199 -0.14447129 0.78336746 0.35964525 0.88631713 0.29171419 0.074997179
0.020817135 -0.14468904 0.65538543 0.20722793 0.96545762 -0.15795021 0.031056307
-0.11585974 -0.14884242 0.60553116 -0.38227457 0.8022269 -0.4585827 0.092554115
-0.12537815 -0.14175589 0.66915214 -0.29728147 0.94220364 -0.15451844 0.045144092
-0.030828029 -0.14207506 0.65694648 0.062644228 0.99245346 -0.10541239 0.015937569
-0.087314047 -0.14505552 0.79808801 -0.24328704 0.89476502 0.37444204 0.057768226
-0.19165386 -0.44601572 0.77177864 -0.65818918 0.15954494 0.73575294 0.029971832
-0.076744884 -0.14763454 0.81726301 -0.29130951 0.77053887 0.56692916 0.067995183
-0.036449149 -0.30974594 0.84756118 0.015609208 0.011794746 0.99980861 0.054845143
-0.20298895 -0.16801299 0.74773824 -0.8217867 0.46272287 0.33249691 0.12989861
-0.040738925 -0.32516646 0.84852171 -0.0090914937 0.053770799 0.99851191 0.056647044
-0.20575289 -0.21517344 0.74614149 -0.94860274 0.037295569 0.31426397 0.071566701
-0.050184574 -0.37422737 0.84810907 -0.16346766 0.054173604 0.98506016 0.049423251
-0.15371403 -0.3012765 0.78248668 -0.57217872 0.032453433 0.81948662 0.0015064401
-0.15131527 -0.19185685 0.78011042 -0.46965936 0.28788063 0.83459264 0.045620453
-0.11619294 -0.24715891 0.80444157 -0.52171743 0.035476994 0.85238034 0.00032154899
-0.10908709 -0.17213452 0.80127704 -0.43259543 0.5221464 0.73499966 0.075923063
-0.054447051 -0.2861315 0.84098905 -0.20453775 0.00071561453 0.97885847 0.048100855
-0.2002333 -0.22216973 0.7505185 -0.91873252 0.031567205 0.39361671 0.068422653
-0.20102304 -0.1548399 0.7426247 -0.71610624 0.64518291 0.2663286 0.126831
-0.043151166 -0.17547645 0.8432681 -0.16264534 0.36628252 0.91617882 0.088191241
-0.073761232 -0.14116377 0.65286553 -0.005384027 0.99759519 -0.069100276 0.0056967083
-0.1616901 -0.21796273 0.77574772 -0.59169173 0.059590742 0.80395889 0.012218876
-0.15239193 -0.18352291 0.77931064 -0.44380569 0.4214296 0.79084361 0.060104974
-0.083667561 -0.32086533 0.82580256 -0.41046837 0.065426305 0.90952468 0.0095745008
-0.073465466 -0.24452236 0.8300941 -0.39619303 -0.0017447799 0.91816556 0.020322241
-0.1380278 -0.34482041 0.7959851 -0.53084129 0.04518944 0.84626555 0.00026336606
-0.14490564 -0.42108485 0.79681271 -0.52595496 0.085523061 0.8462016 0.0043667029
0.0030298191 -0.14330128 0.65586621 0.12154157 0.98364198 -0.13295166 0.020289453
-0.18474022 -0.43882892 0.77063245 -0.65912795 0.15224613 0.73645872 0.030034129
-0.041805658 -0.20240763 0.8461954 -0.18929584 0.18236923 0.96483606 0.062173508
-0.123192 -0.17486481 0.79486054 -0.39317241 0.55142266 0.73576397 0.079031765
-0.20280303 -0.18384534 0.74847835 -0.87873495 0.2740168 0.39081922 0.10543024
0.014316391 -0.1458841 0.7788319 0.34577531 0.89735383 0.27421793 0.075850755
-0.19116619 -0.25387689 0.75899911 -0.74480927 0.069727503 0.66362435 0.04576271
-0.12709717 -0.32888913 0.80204284 -0.52267998 0.04214849 0.85148644 0.00027595408
-0.20825922 -0.17313431 0.73680031 -0.89853716 0.40503678 0.1690447 0.12409566
-0.10264748 -0.41627848 0.82039088 -0.49625009 0.052369654 0.86659867 0.00097623275
-0.14812425 -0.38866329 0.78936857 -0.54162002 0.07858818 0.83694184 0.0031330399
-0.16641784 -0.17390501 0.77098787 -0.49172568 0.5508455 0.67437011 0.075733453
-0.061675001 -0.32486343 0.83850986 -0.2864579 0.075633325 0.95510286 0.038018402
-0.046432886 -0.24094646 0.84487092 -0.2019165 -0.00098484033 0.9794023 0.055472434
-0.048807424 -0.25741395 0.84287 -0.23501943 -0.03705937 0.97128385 0.051114544
-0.17834352 -0.31354243 0.76754683 -0.65740442 0.022987986 0.75318724 0.027823308
-0.15377092 -0.15055901 0.7723965 -0.2811076 0.82418674 0.4916245 0.066743962
-0.029337971 -0.21097626 0.85210687 0.082148634 0.085460164 0.99294925 0.072861813
-0.11698344 -0.36403582 0.81069875 -0.51225215 0.04875676 0.85745007 0.00031449061
-0.14092019 -0.39792553 0.79525656 -0.53139776 0.077814274 0.84354085 0.0032919461
-0.10784079 -0.16822393 0.80282164 -0.42566624 0.54638153 0.72130126 0.07669016
-0.20148428 -0.25844905 0.74725676 -0.9205938 0.059347291 0.38598555 0.077057518
-0.20646951 -0.32236069 0.74246395 -0.96832097 0.078544207 0.23703454 0.077744976
-0.11136694 -0.18280035 0.80419266 -0.46411225 0.37598929 0.80201733 0.063378468
-0.11193179 -0.15350613 0.7967782 -0.33737105 0.7626546 0.55185026 0.077780411
-0.15142989 -0.29805985 0.78351575 -0.56017315 0.033113874 0.82771343 0.0010048578
-0.19735873 -0.17330092 0.75379932 -0.81047714 0.40085217 0.42713517 0.11866196
-0.13723126 -0.39599922 0.79759187 -0.52960056 0.076921321 0.84475225 0.0031485355
-0.16257651 -0.42916986 0.78713816 -0.57855266 0.10887089 0.80834639 0.0085146027
-0.12719196 -0.26183686 0.79708719 -0.52453369 0.033082437 0.85074675 0.00019389368
-0.11698826 -0.35068399 0.8098588 -0.51242316 0.048111849 0.85738432 0.00018534304
-0.18323582 -0.32048669 0.76458853 -0.7025615 0.0012966876 0.71162194 0.044376679
-0.025137363 -0.16350323 0.84861976 0.25650725 0.46297035 0.84844714 0.1004842
-0.18558641 -0.37897536 0.76483637 -0.76433384 0.044959683 0.64325136 0.048857633
-0.031844605 -0.25707275 0.8502866 0.020120185 -0.018843686 0.99962002 0.062140469
-0.18570226 -0.29159215 0.76288843 -0.68730229 0.033152048 0.72561461 0.031330351
-0.084918387 -0.22544867 0.82234365 -0.44936696 0.024511697 0.89301091 0.0082954383
-0.19088267 -0.16153349 0.75602454 -0.65974367 0.61757112 0.42818707 0.11969998
-0.15569161 -0.41232607 0.78784388 -0.54519498 0.086864725 0.83379668 0.0041540279
-0.07987795 -0.42973033 0.83467895 -0.38522974 -0.046932567 0.92162651 0.030435063
-0.18904887 -0.30879584 0.76028609 -0.7219947 0.016149634 0.69171011 0.045394666
-0.13655919 -0.28834829 0.79244816 -0.53119183 0.035245832 0.84651816 0.00017822797
-0.10382342 -0.37093171 0.81889671 -0.49914792 0.051465631 0.86498713 0.00056330825
-0.079928808 -0.44001791 0.83572388 -0.35315287 -0.077423476 0.93235654 0.038935244
-0.15258068 -0.1451225 0.7552101 -0.27885431 0.89939994 0.33663037 0.065164775
-0.10613748 -0.19624785 0.8075794 -0.48553801 0.26041734 0.83452719 0.037996337
-0.11311546 -0.33974829 0.81059289 -0.51036423 0.044872116 0.85878682 0.0002750445
-0.14102469 -0.17591199 0.78442472 -0.34403807 0.57261968 0.74414015 0.078606866
-0.075719111 -0.40419632 0.83590859 -0.37529731 0.035769951 0.92621398 0.027194394
-0.20200667 -0.17879665 0.74858963 -0.86077774 0.34548825 0.3737641 0.11379625
-0.15456769 -0.20111822 0.77874386 -0.53447706 0.159714 0.82995534 0.025358872
-0.13269047 -0.26675195 0.7925638 -0.52660149 0.033547547 0.84945011 0.00017697125
-0.022162804 -0.14419167 0.61980289 0.14264713 0.92670912 -0.34765202 0.041287191
-0.10226468 -0.20497166 0.81097436 -0.50564909 0.18399553 0.84289062 0.020788794
-0.18516217 -0.33307514 0.76323408 -0.72123724 -0.022517171 0.69232196 0.047640592
-0.062474415 -0.402165 0.84309584 -0.25452834 0.0085441014 0.9670276 0.040748727
-0.046485022 -0.31939942 0.84562778 -0.095798522 0.044871744 0.99438882 0.053878695
-0.12690069 -0.31499487 0.80067414 -0.52385581 0.040778399 0.85083026 0.00028895508
-0.096262895 -0.1598085 0.80936456 -0.38943553 0.67621005 0.62536389 0.072998784
-0.061497241 -0.14107996 0.74063057 -0.015621306 0.99912429 0.038815934 0.0014004472
-0.033044819 -0.34889162 0.85207987 0.049348567 0.065559916 0.99662763 0.068677321
-0.10572089 -0.26642996 0.81211507 -0.51118749 0.029337047 0.85896838 0.00042129043
-0.091741227 -0.31956661 0.82061762 -0.45799044 0.053783655 0.88732862 0.0026951323
-0.17084095 -0.4303025 0.78007805 -0.59758425 0.10465049 0.7949475 0.013250565
-0.083090849 -0.15208028 0.82293427 -0.36998534 0.63769752 0.67561293 0.059448864
-0.1484865 -0.14591277 0.76119912 -0.25963041 0.87152064 0.41598541 0.065230191
-0.1777609 -0.3428731 0.76890725 -0.6793493 -0.020683561 0.73352355 0.030636273
-0.038717493 -0.440732 0.85453081 0.089653261 -0.18318295 0.97898221 0.097763434
-0.063548863 -0.19822986 0.83450538 -0.34844306 0.23038289 0.90857643 0.04733767
-0.11361761 -0.39180496 0.81251925 -0.5075773 0.057427887 0.85969025 0.00057864486
-0.16314872 -0.3459996 0.778633 -0.62162596 0.026394319 0.78286934 0.0069939676
-0.18389195 -0.43496972 0.77052861 -0.65878862 0.13480011 0.74015296 0.028526472
-0.064456061 -0.31440955 0.83632964 -0.2942954 0.032712746 0.95515448 0.035235416
-0.035985701 -0.21300262 0.85011387 -0.075539239 0.077131398 0.99415529 0.066764429
-0.104578 -0.29864344 0.81286848 -0.50442398 0.035832044 0.86271232 0.00039172822
-0.050171841 -0.37496716 0.84816241 -0.16346766 0.054173604 0.98506016 0.049423251
-0.057595953 -0.15778668 0.8348645 -0.27404717 0.57699889 0.76939613 0.078781441
-0.19881335 -0.15918703 0.7496357 -0.7120496 0.60745418 0.35211489 0.12511902
-0.1506608 -0.20739478 0.78117561 -0.52615708 0.12316646 0.84142065 0.012213017
-0.085329838 -0.23877913 0.82334179 -0.44304097 0.020914182 0.8962574 0.0088985935
-0.10655922 -0.44108495 0.81933641 -0.47944698 0.10231838 0.87158567 0.0029004824
-0.11663207 -0.41590366 0.81184417 -0.49839687 0.077199511 0.86350501 0.0027484074
-0.11101732 -0.20532963 0.80496782 -0.5255667 0.18108343 0.83125716 0.024144832
-0.15785246 -0.39307392 0.78506619 -0.57384127 0.087594181 0.81426865 0.0041618696
-0.17055482 -0.44063321 0.78606308 -0.59894836 0.13007268 0.79015303 0.013737346
-0.18577969 -0.15458947 0.75648957 -0.59027457 0.70470488 0.39365849 0.11446892
-0.198072 -0.22220366 0.75303298 -0.8939324 0.027871696 0.44733441 0.063525274
-0.11658549 -0.1467299 0.78366816 -0.26419798 0.85270017 0.45066831 0.078571215
-0.079073235 -0.1979492 0.82508826 -0.44197598 0.23020159 0.8669858 0.033404112
-0.050267413 -0.21667817 0.84220672 -0.25015661 0.084278218 0.96453041 0.052900463
-0.19536394 -0.2611298 0.75520891 -0.8054387 0.083526589 0.58676386 0.05694741
-0.19323844 -0.32396737 0.75613171 -0.7810275 -0.012236777 0.62437671 0.064559877
-0.14208765 -0.19317336 0.78533405 -0.43482447 0.31331918 0.84425044 0.053133305
-0.11048418 -0.19627573 0.80493242 -0.4845525 0.25873899 0.8356213 0.040654562
-0.20137699 -0.29859507 0.74960428 -0.83160806 0.039968677 0.55392283 0.059773151
-0.16385971 -0.20177579 0.77359724 -0.57401127 0.13048002 0.80838478 0.025509769
-0.20606637 -0.32855687 0.7436009 -0.95970231 0.064375803 0.27354568 0.082228996
-0.090042159 -0.2439971 0.82122654 -0.46408674 0.021536866 0.88552791 0.004088847
-0.13294029 -0.21089296 0.79120809 -0.50752038 0.12605396 0.85236931 0.0095560104
-0.1250547 -0.25505272 0.79760706 -0.52487934 0.034024362 0.85049629 0.00013357076
-0.042533021 -0.34394675 0.84811044 -0.014444855 0.054257628 0.9984225 0.066258304
-0.14724891 -0.28422019 0.78595847 -0.54540265 0.037940901 0.83731508 0.00036705739
-0.13239941 -0.14630227 0.62587947 -0.5166375 0.79771423 -0.3110269 0.066298023
-0.16641362 -0.42212752 0.78155535 -0.59525621 0.086835355 0.79883021 0.011577287
-0.18219095 -0.28065276 0.76463598 -0.66503787 0.054039411 0.74485195 0.021941599
-0.053670403 -0.16604035 0.83573914 -0.27039522 0.46361691 0.84376878 0.086490795
-0.10956421 -0.26264518 0.80946845 -0.51483113 0.03035951 0.85675389 0.00040193062
-0.14258453 -0.18094139 0.78404021 -0.37622309 0.48054555 0.79216933 0.071064435
-0.13725558 -0.2751281 0.79207408 -0.52960151 0.035368305 0.84750891 0.00019405877
-0.034030359 -0.2609584 0.8491677 -0.0096120303 -0.027511824 0.99957526 0.065021344
-0.14222369 -0.14436707 0.64660984 -0.49404278 0.82203251 -0.28316855 0.061838299
-0.093103364 -0.14283058 0.773826 -0.17572419 0.94131523 0.28817835 0.052393261
-0.085944988 -0.37011442 0.82795382 -0.44133803 0.058486108 0.89543289 0.0087068342
-0.070293605 -0.15071112 0.82554483 -0.28829983 0.68929923 0.66464263 0.071049832
-0.11927895 -0.17782502 0.79749882 -0.43855307 0.46184179 0.7709561 0.074964106
-0.11801332 -0.2615371 0.80497891 -0.52013922 0.032419797 0.85346597 0.00024787005
-0.13530529 -0.32529113 0.79596782 -0.53004861 0.0393425 0.84705412 0.00028998888
-0.11652055 -0.45320719 0.81511444 -0.48321167 0.14736822 0.8630116 0.0033306743
-0.12404847 -0.27945581 0.80063558 -0.5247339 0.036273144 0.85049313 0.00016257944
-0.039644215 -0.23615406 0.84688729 -0.096136793 0.00096968102 0.99536771 0.064579882
-0.11294886 -0.15375325 0.79647452 -0.34333351 0.75892895 0.55330735 0.077008478
-0.050851293 -0.1832554 0.84137207 -0.29751536 0.2929655 0.90865612 0.063372299
-0.21763545 -0.39276192 0.73747444 -0.99824047 0.039695013 0.044047546 0.08220724
-0.16261408 -0.3281166 0.77815306 -0.60892427 0.024199339 0.79285908 0.0054159733
-0.18913685 -0.37222651 0.76169747 -0.77521276 0.037471525 0.63058782 0.054548033
-0.20344527 -0.15160425 0.73561531 -0.75759292 0.6384033 0.13599339 0.11994059
-0.13829245 -0.16133453 0.78286517 -0.28010124 0.75709438 0.590213 0.075421199
-0.18555547 -0.19819006 0.76073092 -0.75722796 0.16135061 0.63290745 0.074300326
-0.19276695 -0.30490699 0.75658089 -0.7382766 0.036294531 0.67352086 0.046319038
-0.075520791 -0.35011768 0.83282608 -0.37507981 0.095525958 0.92205739 0.021516431
-0.069055147 -0.31554753 0.83359522 -0.3310571 0.035188448 0.94295436 0.029142074
-0.074787058 -0.21837595 0.82812625 -0.4207975 0.065971248 0.90475255 0.018912494
-0.12788981 -0.21452653 0.79495311 -0.51423001 0.11470616 0.84994709 0.0084481044
-0.029503521 -0.15626916 0.84373862 0.17687224 0.60699421 0.77477372 0.10375948
-0.039571665 -0.40740949 0.85468853 0.11135193 -0.0092403041 0.99373811 0.072084144
-0.095072627 -0.23169331 0.81729424 -0.50034255 0.034801163 0.86512792 0.0010423248
-0.035679273 -0.2470578 0.84791392 -0.057293348 -0.0074314196 0.99832976 0.059656091
-0.089674957 -0.39846268 0.82795215 -0.4688305 0.058776665 0.88133043 0.0026692352
-0.031843934 -0.14511003 0.82134014 0.10966791 0.8446402 0.5239808 0.086013429
-0.20727552 -0.24901061 0.7360422 -0.99911803 0.028258441 -0.031058211 0.067494214
-0.20398013 -0.1588017 0.74126768 -0.77538484 0.58247524 0.24392831 0.13107373
-0.21345939 -0.3704688 0.73981959 -0.99616075 0.06720724 0.056097772 0.076561533
-0.21938583 -0.4506298 0.73910791 -0.94547695 -0.015570231 0.32531658 0.11744951
0.0093220519 -0.14101395 0.74221826 0.16286547 0.98098582 0.10555439 0.038016241
-0.039678384 -0.4037025 0.8566668 0.063070431 0.0021583647 0.99800676 0.064350687
-0.12794639 -0.14689833 0.78579968 -0.29316407 0.81829572 0.49441576 0.077559389
-0.21146087 -0.37162298 0.73231316 -0.99592048 0.089247882 0.01331633 0.075083956
-0.10416301 -0.29694036 0.81257486 -0.50467575 0.035069894 0.86259633 0.00040407476
-0.10209384 -0.22607079 0.81223607 -0.51465398 0.042967904 0.85632068 0.00072237692
-0.025922904 -0.38461089 0.84896868 0.27606443 0.026522452 0.96077311 0.059058387
-0.087180823 -0.20914242 0.82027203 -0.47312209 0.15318424 0.86757714 0.017104181
-0.2217319 -0.40937996 0.73598969 -0.99793559 0.014030027 0.062671207 0.093709245
-0.061258145 -0.24019775 0.83772916 -0.34483525 -0.012393841 0.93858141 0.028440524
-0.1818496 -0.33486852 0.76593155 -0.69725704 -0.017852528 0.71659893 0.040159363
0.055737205 -0.14924411 0.65967375 0.47721034 0.84602189 -0.23773322 0.097865403
-0.064835891 -0.39595333 0.84177852 -0.28520894 0.025239289 0.95813298 0.035552088
-0.050462957 -0.44319716 0.85433626 -0.092062242 -0.22875935 0.96912003 0.086698383
-0.1280683 -0.19366087 0.79368347 -0.46955708 0.29483256 0.83221978 0.054007914
-0.17500329 -0.23518531 0.76649213 -0.67705929 0.016232483 0.73574942 0.028180031
-0.17430252 -0.27233639 0.7682575 -0.65163314 0.057696845 0.75633675 0.017949633
-0.065120883 -0.35478044 0.83851969 -0.30594155 0.084020682 0.94833559 0.033200588
-0.21681841 -0.3811456 0.73588169 -0.99731469 0.068215758 0.0266441 0.077863783
-0.20806932 -0.24093176 0.73638892 -0.99944776 0.032503694 -0.0069100983 0.072570376
-0.14273943 -0.14226061 0.72515517 -0.1970485 0.97667509 0.085309282 0.037218761
-0.10606338 -0.37613824 0.81775254 -0.5026052 0.052057292 0.86294734 0.0003869861
-0.14323279 -0.27782506 0.78858531 -0.54010373 0.036671076 0.84079909 0.00025895133
-0.2096857 -0.18522909 0.73400998 -0.96660256 0.23295072 0.10683343 0.10308003
-0.061837401 -0.15809511 0.82799631 -0.25885502 0.63739836 0.72575289 0.08111205
-0.13138239 -0.35015136 0.79952121 -0.52863693 0.045333233 0.84763664 0.00023923034
-0.042472735 -0.28301233 0.84660369 -0.078468129 -0.015529566 0.99679565 0.059025198
-0.05079516 -0.23752336 0.84198105 -0.27176327 -0.00055679737 0.96236396 0.049216744
-0.061175406 -0.3718946 0.84213918 -0.27206293 0.075995676 0.95927393 0.044481855
-0.066171378 -0.1890454 0.83229786 -0.35735229 0.28522247 0.88935232 0.051391155
-0.068993695 -0.43081486 0.84159005 -0.30368662 -0.059058618 0.95093977 0.043897219
-0.18504731 -0.28929418 0.76343554 -0.6750043 0.037883401 0.73684061 0.026759861
-0.21389186 -0.29558292 0.73838234 -0.97309065 0.04424566 0.22613512 0.071319863
-0.067022875 -0.23401125 0.83386356 -0.36946526 -0.015200088 0.92912024 0.028285569
-0.12538436 -0.28260145 0.79994321 -0.52550662 0.036045022 0.85002565 0.0001341498
-0.14840916 -0.35423362 0.78925401 -0.54874879 0.04433139 0.83481097 0.0005874692
-0.15967226 -0.18716688 0.77481556 -0.50298274 0.35247421 0.78915787 0.057333253
-0.031169113 -0.17075166 0.84910065 0.11072544 0.39909738 0.91019839 0.10247564
-0.18002421 -0.35123286 0.76794136 -0.70142281 -0.0073888516 0.71270704 0.03472212
-0.039238706 -0.15866591 0.84065384 0.011068887 0.59289676 0.80520236 0.10885309
-0.072429821 -0.28192377 0.83063716 -0.36185452 0.0068600448 0.93220931 0.024836747
-0.20657006 -0.28595802 0.74360484 -0.93426585 0.040543947 0.35426462 0.080338009
-0.22455743 -0.40844002 0.73858261 -0.99528778 0.0066136406 0.096739486 0.0933569
-0.13276006 -0.33093211 0.79808247 -0.52931279 0.039051674 0.8475275 0.00032288049
-0.098861076 -0.34184107 0.81923378 -0.48565289 0.050977975 0.87266403 0.0011843372
-0.049329374 -0.14212537 0.76031947 -0.0023640185 0.99593508 0.090042844 0.0068843598
-0.00072346418 -0.14140198 0.70637864 0.087515846 0.99614257 0.0063981651 0.0082231788
-0.054360192 -0.31819099 0.84224981 -0.18314831 0.043103594 0.98213989 0.049537417
-0.0057390532 -0.43401137 0.83346951 0.62032509 -0.043991581 0.7831102 0.067041226
-0.03881738 -0.38618946 0.8538689 -0.02568014 0.031073535 0.99918717 0.047035564
-0.010590448 -0.44596899 0.84028262 0.58170378 -0.061036445 0.8111074 0.083728462
-0.056152269 -0.19033761 0.83843619 -0.31142688 0.26561955 0.9123922 0.057241645
0.011783947 -0.14112017 0.72522062 0.14996585 0.98535472 0.08115574 0.028328249
-0.13470025 -0.31524774 0.79482132 -0.52832663 0.040657777 0.8480671 0.00037116747
-0.037070069 -0.20174091 0.84810913 -0.10689507 0.19106172 0.97574013 0.071178198
-0.041142531 -0.15090583 0.83567315 0.015159656 0.71923167 0.69460493 0.10214873
-0.05193755 -0.35460708 0.84628719 -0.20518839 0.06070165 0.97683823 0.056956798
-0.05428718 -0.40908131 0.84869742 -0.18831751 0.011204725 0.98204434 0.05282443
-0.034892455 -0.35389322 0.84960479 0.025741471 0.067640401 0.99737769 0.069767304
-0.11405239 -0.22239272 0.80462837 -0.52340013 0.083427764 0.84799308 0.0029931441
-0.055399902 -0.34143031 0.84269184 -0.2363057 0.088881254 0.96760517 0.050327022
-0.18981093 -0.14860028 0.71339035 -0.67595166 0.71646053 -0.17255072 0.09079916
-0.139237 -0.15591596 0.78099245 -0.27563989 0.77813685 0.56438082 0.070948094
-0.1995289 -0.38182461 0.75267488 -0.88285601 0.060536932 0.46572587 0.083128154
-0.13469242 -0.29635057 0.79381961 -0.5290066 0.035457455 0.84787667 0.00040862605
-0.073643714 -0.29223081 0.8295306 -0.36425832 0.022086924 0.931036 0.023583155
-0.050898332 -0.26698601 0.84064186 -0.25467095 -0.027258432 0.96664351 0.045556553
-0.069324404 -0.14247698 0.78344512 -0.16168401 0.94839901 0.27275926 0.044652257
-0.10781386 -0.14163488 0.73798829 -0.096974798 0.98275638 0.15743496 0.025208831
-0.01558614 -0.14506122 0.82321048 0.26538965 0.79154772 0.55047297 0.088313214
-0.021172799 -0.14377284 0.8177678 0.16398604 0.85874814 0.48544845 0.084649131
0.00090247463 -0.14175244 0.68957877 0.091187157 0.99497801 -0.041275896 0.0066755703
0.045783229 -0.1444227 0.73655087 0.38628569 0.90590096 0.17357074 0.05960143
0.012768851 -0.15015797 0.78562051 0.40016544 0.85376984 0.33308375 0.078044154
-0.070373349 -0.24519032 0.83188599 -0.38650575 -0.0069461926 0.92226082 0.021128489
-0.068342663 -0.22079031 0.83258075 -0.39616701 0.041462086 0.91724187 0.021097874
-0.089458771 -0.16511126 0.81276083 -0.41795364 0.58175302 0.69776654 0.070667461
-0.11704196 -0.2571027 0.80499732 -0.51922578 0.031837247 0.85404378 0.00034943662
-0.10045329 -0.14633588 0.78308207 -0.22766902 0.89998257 0.37175006 0.06599775
-0.21257584 -0.45346397 0.75233775 -0.86742365 0.036680922 0.49621639 0.10848513
-0.090904832 -0.14111722 0.64495003 -0.12021584 0.98413795 -0.13046283 0.026557721
-0.15474154 -0.14921632 0.65289021 -0.57848698 0.73621064 -0.35120744 0.068403356
-0.13732646 -0.14203653 0.67812008 -0.31023109 0.93671209 -0.16225642 0.049880661
-0.092676826 -0.14213493 0.75027549 -0.098705582 0.98318791 0.15361854 0.027572708
-0.085954487 -0.14096187 0.64107507 -0.093006857 0.98349774 -0.15518378 0.030452348
-0.10893255 -0.14245605 0.62180334 -0.31199685 0.89505404 -0.31864765 0.07957682
-0.13236316 -0.30784971 0.79573506 -0.52793181 0.039588682 0.84836364 0.00041294604
-0.14219937 -0.41249764 0.79588282 -0.52834266 0.082340941 0.845029 0.0037077114
-0.076037198 -0.14229752 0.76709741 -0.11493622 0.9801029 0.16182686 0.027092019
0.031165624 -0.14644451 0.64530307 0.27560556 0.92863041 -0.24836878 0.049420748
-0.036071371 -0.14201537 0.76021034 0.041427273 0.99544919 0.085817352 0.01015416
-0.071016818 -0.35711065 0.83592284 -0.3427183 0.077051252 0.93627304 0.029681288
-0.084215641 -0.31591353 0.82494086 -0.41705707 0.05222233 0.90737873 0.0091877552
-0.077287219 -0.14443094 0.80202776 -0.22601223 0.89639288 0.38131109 0.05367865
-0.039154068 -0.39983523 0.8537575 0.0075243367 0.014946127 0.99985999 0.066138916
-0.028634312 -0.30567458 0.85047078 0.21124662 -0.011317741 0.97736728 0.059988208
-0.080444686 -0.33585021 0.82916325 -0.37374744 0.095267154 0.92262506 0.019803323
-0.024186099 -0.2794717 0.84685755 0.24577774 -0.03145548 0.96881568 0.066821218
-0.071641847 -0.22552454 0.83078432 -0.4042705 0.020190062 0.91441661 0.019817453
-0.056387771 -0.23859879 0.84038895 -0.31700867 -0.00061115006 0.94842249 0.034876656
0.029712487 -0.14578308 0.76399273 0.34726158 0.90357071 0.25093713 0.081417635
-0.02992373 -0.32642499 0.84809816 0.1931306 0.011926038 0.98110056 0.06851311
-0.11076022 -0.14890487 0.79196697 -0.29385376 0.83005303 0.4739852 0.075539514
-0.023406407 -0.19808622 0.84643841 0.24468654 0.19604501 0.9495762 0.089884996
-0.028801512 -0.36370933 0.85078943 0.18868151 0.052204214 0.98064977 0.06732621
-0.031933058 -0.23792724 0.85178274 -0.019297643 0.0071601318 0.99978817 0.064152762
-0.077977486 -0.2516022 0.82778227 -0.40453726 0.0015670819 0.91452014 0.018231526
-0.12335064 -0.34564111 0.80536151 -0.52001119 0.047890775 0.85281587 0.00022476827
-0.16775373 -0.29259944 0.77327508 -0.61657399 0.027315451 0.78682292 0.0094805053
0.020065537 -0.39467245 0.79381609 0.83258611 0.00094280404 0.55389482 0.0016927909
-0.038685981 -0.14359577 0.81275976 0.049953297 0.87749934 0.47696906 0.075811677
-0.05150532 -0.24817134 0.84147918 -0.26176253 -0.021524344 0.96489227 0.048100829
0.027448779 -0.42815512 0.78042972 0.85028672 -0.020190865 0.52593231 0.00069242751
-0.032671969 -0.28036222 0.85118949 0.033473026 -0.027842829 0.99905169 0.057638202
-0.12999736 -0.20314364 0.79272366 -0.48447278 0.20035662 0.8515535 0.028380599
-0.21752024 -0.4541004 0.75546163 -0.83146685 0.037804548 0.55428666 0.094467595
-0.047676396 -0.17093942 0.83926618 -0.19628128 0.39588618 0.89707738 0.087824941
0.050938163 -0.14437044 0.71601909 0.41330472 0.90712124 0.079437658 0.06578175
-0.042889904 -0.14296253 0.62195957 0.1340435 0.94695812 -0.29206628 0.043519184
-0.019323789 -0.14217778 0.68849385 0.035705131 0.99882913 -0.032642379 0.0014724737
-0.0024349571 -0.2250957 0.82253563 0.64569551 0.0023118774 0.76359153 0.052761
-0.025189932 -0.38417637 0.84865403 0.36259395 0.018830419 0.93175697 0.060170997
-0.0034336911 -0.18211959 0.82221913 0.54904878 0.38506037 0.74180442 0.085922085
0.019747511 -0.14266315 0.66897005 0.19863094 0.97438383 -0.10546076 0.025884483
0.040664032 -0.14443795 0.66282243 0.30855814 0.93909597 -0.15129621 0.051668387
0.063756458 -0.15070912 0.71469194 0.57749951 0.80508298 0.13540913 0.079982348
-0.011671173 -0.14371036 0.80340105 0.25794074 0.88244659 0.39338851 0.068499789
-0.098561443 -0.14652294 0.80238664 -0.28618217 0.83002526 0.47870433 0.068260714
-0.19704725 -0.15450516 0.74914849 -0.66745597 0.6683647 0.32831556 0.12266302
0.0023303533 -0.14573804 0.62328327 0.18094052 0.93349075 -0.30960542 0.042411804
-0.022147873 -0.14434007 0.61889368 0.14359602 0.92658615 -0.34758946 0.041678235
-0.17752814 -0.14719532 0.69769281 -0.54590464 0.80615282 -0.22826694 0.076126784
-0.18656546 -0.14746758 0.71328002 -0.62789237 0.7571004 -0.1804169 0.086274549
-0.058738373 -0.1429399 0.61588633 0.088992268 0.94791001 -0.30585453 0.046224292
-0.057831597 -0.14089836 0.65223658 0.026541235 0.99701005 -0.072571032 0.0042712786
-0.088740729 -0.1410782 0.6464529 -0.10484326 0.98664129 -0.12468696 0.023873869
-0.0084237438 -0.15517335 0.82418942 0.42710993 0.64287049 0.63584173 0.098553292
-0.068146802 -0.14163624 0.61941141 0.012877056 0.9704659 -0.2408945 0.03951481
0.06141955 -0.383028 0.7300927 0.92275387 -0.026642162 0.38446781 0.017112469
-0.12261058 -0.15198791 0.60304838 -0.52460742 0.6942721 -0.49272028 0.091025718
-0.13947277 -0.14259887 0.65565008 -0.43421355 0.86699855 -0.24448341 0.058969993
-0.15442447 -0.14531705 0.75605154 -0.28793323 0.89139342 0.3500174 0.066234522
-0.038640097 -0.44087934 0.85451365 0.089653261 -0.18318295 0.97898221 0.097763434
-0.10359702 -0.14545733 0.5867573 -0.25471026 0.78305274 -0.56740731 0.10500626
-0.09025085 -0.1412624 0.62189472 -0.15251504 0.95506287 -0.25415373 0.058287941
0.045527641 -0.14290839 0.7257002 0.35153419 0.9278729 0.12440101 0.055625658
-0.14351186 -0.14111672 0.70481473 -0.22465798 0.97099179 -0.081876867 0.03409493
-0.053140894 -0.14241058 0.77991986 -0.041337196 0.97709101 0.20876859 0.03154368
-0.1065871 -0.14131579 0.72130913 -0.048041008 0.99765265 0.048797876 0.0031680097
-0.12496609 -0.14819361 0.61714792 -0.49942085 0.78287375 -0.37106276 0.080511585
-0.016434861 -0.14240074 0.68842977 0.042552151 0.99842083 -0.036675882 0.0021704263
-0.11929109 -0.14660898 0.59901255 -0.40688103 0.77881855 -0.47737768 0.094358869
0.027826631 -0.14131722 0.72852302 0.19062598 0.97722208 0.093266435 0.031182645
-0.071524821 -0.1411916 0.65936357 0.005727164 0.99830198 -0.057968836 0.0033930149
-0.030647842 -0.21588439 0.85228175 0.034259375 0.052175298 0.99805015 0.070472375
-0.040803932 -0.39989656 0.85539979 -0.045125242 0.038494114 0.9982394 0.059239976
-0.032253534 -0.35067624 0.85304391 0.04507282 0.061555315 0.99708545 0.069531992
-0.12573136 -0.14832658 0.78735828 -0.30113238 0.794581 0.52721936 0.077685215
-0.20225176 -0.26081127 0.74630141 -0.9398858 0.047309905 0.33819598 0.080007069
-0.1934631 -0.1712655 0.75582027 -0.7612226 0.45791534 0.45918813 0.11617851
-0.19654657 -0.14952412 0.73914146 -0.62804753 0.73922503 0.24311045 0.11959381
-0.18555738 -0.14761449 0.74736661 -0.56398696 0.76194811 0.31836119 0.1146263
-0.077882007 -0.14059226 0.70220733 -0.0015927323 0.99999267 0.0034738644 0.00013139039
-0.1881405 -0.15972041 0.75825566 -0.63348377 0.63615328 0.44046262 0.11746813
-0.11586014 -0.26043743 0.80651635 -0.51891273 0.032196447 0.85422069 0.00030558297
-0.053407252 -0.33827317 0.84429741 -0.21007122 0.090321928 0.97350502 0.053806428
-0.063421369 -0.39346349 0.84173554 -0.26595935 0.039588626 0.96317101 0.039676387
-0.051419232 -0.37281507 0.8472268 -0.20179233 0.061377764 0.97750324 0.048784249
-0.029827453 -0.25912902 0.85178912 0.073998526 -0.03113452 0.99677223 0.063611932
0.070036232 -0.3835586 0.71464849 0.97003633 -0.082265772 0.22860834 0.047311913
-0.10845175 -0.14540574 0.79258293 -0.28098306 0.84513152 0.45475397 0.074611127
-0.050485767 -0.28964591 0.84334856 -0.11301947 -0.0049543227 0.99358046 0.054140836
-0.029967111 -0.17230222 0.8504687 0.12460371 0.35952327 0.92477942 0.09819328
-0.18632321 -0.29210776 0.76259112 -0.68881476 0.034269992 0.72412694 0.03177242
-0.0057304082 -0.42782643 0.83330059 0.62314129 -0.023874581 0.78174484 0.065075547
-0.13919386 -0.39303049 0.79649836 -0.53099227 0.076179951 0.84394544 0.0030110111
-0.14622617 -0.14562492 0.76037025 -0.24613793 0.87365723 0.41968948 0.062878899
-0.20392489 -0.15196604 0.73674786 -0.75602907 0.6367631 0.15150183 0.12164015
-0.13812444 -0.17687692 0.78722167 -0.37863243 0.52864772 0.75971639 0.077672675
-0.14915687 -0.1504488 0.7755599 -0.26405329 0.81348425 0.51818836 0.065787882
-0.21964754 -0.40513238 0.73892128 -0.99289823 0.012227044 0.11833711 0.096042529
-0.16815065 -0.1441085 0.7035836 -0.41119644 0.89966935 -0.14667211 0.06369254
-0.183155 -0.28102195 0.76474959 -0.66503787 0.054039411 0.74485195 0.021941599
-0.19877438 -0.15947856 0.75009286 -0.71204931 0.6074757 0.35207832 0.12512164
-0.14315797 -0.14208066 0.71623987 -0.2063221 0.97848231 -0.0018719289 0.035126008
-0.052780591 -0.17937717 0.83939922 -0.30238062 0.31176805 0.90075886 0.065112889
-0.19678383 -0.22029057 0.75431883 -0.85997415 0.035699032 0.50908744 0.061362799
-0.15679593 -0.19966288 0.77733821 -0.54230148 0.16645235 0.82353061 0.028276008
-0.035867002 -0.1419664 0.75594652 0.046599299 0.99628079 0.072478414 0.0095472494
-0.12114478 -0.14115426 0.66819215 -0.26701626 0.95439774 -0.13351925 0.039901949
-0.16486293 -0.17521624 0.77165443 -0.48728767 0.54723066 0.68050665 0.073494948
-0.16287933 -0.14645921 0.76113266 -0.34373677 0.84958869 0.40005496 0.073749498
-0.20051023 -0.14901422 0.72841871 -0.7629956 0.64631325 0.010812568 0.11670167
-0.083385542 -0.14094463 0.65495318 -0.048362125 0.99487042 -0.088847622 0.012155544
-0.10168964 -0.19425964 0.81012952 -0.48022306 0.2938759 0.82645196 0.043423198
-0.11370888 -0.39037728 0.8124761 -0.50886482 0.056373734 0.8589986 0.0005281113
-0.075452127 -0.15222976 0.82678109 -0.33344713 0.62152845 0.70888323 0.061375223
-0.07815183 -0.19882728 0.82583684 -0.44019434 0.22586431 0.86903065 0.033708069
-0.033874784 -0.31419587 0.84959793 0.077308722 0.00089330808 0.99700683 0.057867527
-0.11538302 -0.24805613 0.80517405 -0.52146351 0.034807708 0.85256338 0.00033201397
-0.074219339 -0.34922531 0.83345151 -0.36455172 0.10609562 0.92511934 0.023016546
-0.11131487 -0.33694524 0.81134295 -0.50799811 0.044607908 0.86020231 0.00036558264
-0.06959071 -0.24313027 0.83237106 -0.38544822 -0.013234333 0.9226346 0.021656673
-0.087208688 -0.36939093 0.82813126 -0.44217381 0.059403934 0.89496005 0.0085914684
-0.040287215 -0.2005824 0.84700286 -0.16046731 0.19206731 0.9681738 0.067917846
-0.15068555 -0.29961053 0.78425175 -0.55589634 0.034311771 0.83054316 0.00089012965
-0.065310761 -0.19882491 0.83375007 -0.36274531 0.22264932 0.90489948 0.04383079
-0.072461508 -0.1990075 0.82926732 -0.41677803 0.20754105 0.8849988 0.03694094
-0.05674218 -0.15921482 0.8337993 -0.27782306 0.55008513 0.78754091 0.079154715
-0.16533405 -0.34673661 0.7773211 -0.61486346 0.031723749 0.78799528 0.010252083
-0.10354249 -0.22768134 0.81131792 -0.51547062 0.042682923 0.85584354 0.00069720892
-0.1418718 -0.41942692 0.79702514 -0.52547193 0.084089078 0.8466453 0.0041621574
0.024369828 -0.14819758 0.76932019 0.37435803 0.88213843 0.28581089 0.077712968
0.011688887 -0.14348419 0.77927589 0.34171259 0.89909416 0.27360952 0.074372463
0.014965373 -0.14688337 0.78021294 0.37607008 0.87839329 0.29495206 0.078957871
0.017297979 -0.1586933 0.78724861 0.48424491 0.7886228 0.37892085 0.08236403
0.017207704 -0.21089879 0.78861415 0.83045083 0.097264677 0.54853529 0.010252488
0.010481943 -0.21781391 0.79931116 0.80659878 0.046339717 0.58928025 0.01113635
-0.050797053 -0.21552892 0.84187531 -0.24907872 0.085930035 0.96466362 0.052315634
-0.078499511 -0.43229261 0.83617485 -0.36184031 -0.072461583 0.92941964 0.035419013
-0.10489067 -0.14163709 0.73789871 -0.090203919 0.98463112 0.1495485 0.022334835
-0.20591357 -0.15958084 0.74005061 -0.80132747 0.56032032 0.2095603 0.13208021
-0.042456988 -0.14133377 0.67611098 0.021241548 0.99936038 -0.028766809 0.00063006161
-0.1379855 -0.14234874 0.65237564 -0.43732381 0.86560148 -0.24388914 0.060624491
-0.19721851 -0.26515421 0.75345296 -0.82496238 0.088827699 0.5581637 0.064073652
-0.10762496 -0.1815757 0.80673718 -0.46888217 0.36534438 0.80415982 0.056063563
0.032573946 -0.28319901 0.76912165 0.8180747 0.036807146 0.57393289 0.00042783286
-0.033015456 -0.15889034 0.84447777 0.10050096 0.56671447 0.81776178 0.10443313
-0.16843218 -0.14426713 0.74819988 -0.35348359 0.8966561 0.2665655 0.081823587
-0.097221009 -0.16174209 0.81146193 -0.42673597 0.60134888 0.67548198 0.066286318
-0.060852118 -0.16704996 0.83296931 -0.33865136 0.42814666 0.83785778 0.069642156
-0.18334264 -0.43757397 0.77324998 -0.65223789 0.1448745 0.74404109 0.02935376
-0.1682497 -0.40433592 0.7772631 -0.62766439 0.09273982 0.77294034 0.011370646
-0.092755273 -0.24427706 0.81998098 -0.47798002 0.026180707 0.87798035 0.0025265391
0.070179589 -0.14977829 0.67760623 0.63388449 0.75652683 -0.16080332 0.10099325
0.0098453006 -0.14797293 0.61890739 0.19857858 0.9218508 -0.33280268 0.044860329
0.078303866 -0.20947155 0.69472045 0.99326897 0.10686485 0.0446853 0.053052209
0.044669438 -0.42857537 0.75062639 0.86662608 -0.074035883 0.49343488 0.0049497481
-0.11444195 -0.25485015 0.8066774 -0.51931202 0.031855501 0.85399091 0.00032372723
0.067311727 -0.21382615 0.71498871 0.93510222 0.089380279 0.34292141 0.030894827
-0.097884946 -0.23362054 0.81558996 -0.50600767 0.03716119 0.86172813 0.00072194106
-0.21044967 -0.1889286 0.73264015 -0.97284496 0.20771486 0.10211375 0.09508042
-0.052755531 -0.315586 0.84274578 -0.16468434 0.040911868 0.98549747 0.049878843
-0.03273958 -0.25963581 0.85086328 0.035850987 -0.021486063 0.99912614 0.065350808
-0.039309423 -0.36538866 0.85160726 -0.03941571 0.066725947 0.99699253 0.054409213
-0.1261595 -0.25918499 0.79716957 -0.52457821 0.033305157 0.85071057 0.00016967517
-0.18167093 -0.15069 0.75857407 -0.53362525 0.72573894 0.43422002 0.10600606
-0.073740266 -0.14743961 0.81836438 -0.28842169 0.76293737 0.57856673 0.070663653
