# .PCD v0.7 - Point Cloud Data file format
VERSION 0.7
FIELDS x y z
SIZE 4 4 4
TYPE F F F
COUNT 1 1 1
WIDTH 1405
HEIGHT 1
VIEWPOINT 0 0 0 1 0 0 0
POINTS 1405
DATA ascii
-0.1358563 -0.226593 0.60019749
-0.164382 -0.1921459 0.65102291
-0.1040739 -0.1553631 0.54921389
-0.1037092 -0.1370054 0.57876068
-0.2050225 -0.41780409 0.69278133
-0.15430491 -0.35018381 0.62041718
-0.1212949 -0.30449879 0.56870508
-0.1113879 -0.44465369 0.54953277
-0.21917839 -0.44939461 0.7277782
-0.20237879 -0.26271379 0.70698369
-0.2068262 -0.22557791 0.71302432
-0.2265729 -0.4157418 0.72788548
-0.1837084 -0.2207114 0.6818108
-0.1239709 -0.2397631 0.58178961
-0.17088071 -0.42554751 0.64263117
-0.13695189 -0.4421984 0.5811817
-0.18332709 -0.2413107 0.66794658
-0.13427649 -0.1836362 0.60005617
-0.1894519 -0.40411109 0.66820818
-0.1120599 -0.1993923 0.56282932
-0.1822484 -0.1636996 0.66913652
-0.1019938 -0.1390937 0.55016571
-0.18591671 -0.16674501 0.68710291
-0.18454731 -0.2150376 0.68801498
-0.21259519 -0.21651959 0.72255719
-0.127142 -0.1981459 0.59031868
0.0046837931 -0.1388918 0.68404782
-0.14841039 -0.38731709 0.60492122
-0.027515011 -0.1353249 0.75223398
-0.16665681 -0.3781465 0.63559109
0.038820621 -0.13885459 0.70794421
0.01159501 -0.1396039 0.77327412
-0.02034333 -0.13614599 0.74112773
-0.21755829 -0.36241391 0.71389741
-0.1702859 -0.3950972 0.64243948
-0.1662731 -0.1797491 0.65355158
-0.14824089 -0.31969091 0.60870808
-0.1060687 -0.22574119 0.55099827
-0.1880056 -0.17340089 0.69291061
-0.1850321 -0.3556982 0.66698992
-0.16773839 -0.34534499 0.64889419
-0.2032235 -0.1981463 0.71423858
-0.01260576 -0.1363478 0.80053401
-0.038676199 -0.1406775 0.74025887
-0.08662951 -0.1344201 0.72305667
-0.20169809 -0.3807393 0.6948185
-0.1474369 -0.39258781 0.603809
0.01683378 -0.1374156 0.77367139
-0.050411791 -0.14109971 0.60510212
-0.20943651 -0.1946135 0.71858871
-0.1119517 -0.25375599 0.55742741
-0.1418152 -0.1366393 0.69495422
-0.20183741 -0.36148101 0.69657302
-0.1678551 -0.42563841 0.62538028
-0.1233202 -0.3881084 0.5656532
-0.09676192 -0.1396677 0.79739583
-0.042481061 -0.139658 0.83181101
-0.170553 -0.34703231 0.65348029
-0.1246679 -0.2232938 0.58298212
-0.15879171 -0.14142799 0.73016042
-0.20366 -0.13930181 0.73868883
-0.1239065 -0.2492208 0.57361561
-0.2176878 -0.44755521 0.72651392
0.016588749 -0.1388294 0.74140757
0.045724571 -0.13883489 0.64672267
0.095157273 -0.1440921 0.6661284
-0.14005689 -0.32313561 0.60341311
-0.111064 -0.36800429 0.54826868
-0.1958283 -0.136645 0.70846862
-0.2118801 -0.2967734 0.73186111
-0.055378322 -0.1327887 0.80528152
-0.2015426 -0.30538619 0.69831032
-0.01759875 -0.1429754 0.68313271
-0.09326309 -0.1372665 0.60687077
-0.00087928772 -0.14394499 0.66808051
-0.1076226 -0.1444798 0.61137581
0.034307301 -0.1363973 0.73925382
-0.1739123 -0.1369306 0.74122578
-0.2131698 -0.29214641 0.73446429
-0.18118221 -0.44338509 0.76454812
-0.0034067631 -0.1380568 0.64557672
-0.01042765 -0.13720229 0.7049765
-0.080911733 -0.13101751 0.60803938
-0.005517364 -0.1409032 0.83064961
-0.13109849 -0.1498255 0.78532201
-0.13590389 -0.1396376 0.64407182
-0.1094218 -0.1398509 0.65014547
5.602837e-05 -0.1391799 0.66798389
-0.1944944 -0.1847723 0.67774272
-0.1528769 -0.1406081 0.74005002
-0.04068771 -0.141412 0.74740481
-0.068266027 -0.1333759 0.72224098
-0.07087785 -0.1412054 0.82891512
-0.2159546 -0.2730628 0.73603988
-0.063875914 -0.4455044 0.84880978
-0.02801794 -0.13104241 0.7120297
-0.071594119 -0.1376036 0.69816339
-0.088154793 -0.1388389 0.59982091
-0.092215903 -0.13640299 0.64524633
-0.1829652 -0.28591779 0.76012373
-0.1995962 -0.2442655 0.71640903
-0.1501299 -0.1896065 0.78192949
-0.040381908 -0.211889 0.84319788
-0.094015658 -0.1394899 0.80122977
-0.1072404 -0.28783679 0.54994822
-0.044054091 -0.3155694 0.84526223
-0.1332234 -0.3725771 0.58095747
0.020748969 -0.142474 0.62432438
-0.20719279 -0.2219546 0.73732311
-0.061805431 -0.13427509 0.60540611
0.02413833 -0.1379628 0.6992026
-0.13824721 -0.35780901 0.59148997
-0.1688877 -0.157251 0.66277272
-0.099121332 -0.1392279 0.72174519
-0.20982189 -0.35034329 0.71333051
-0.1562656 -0.2075903 0.77449971
-0.1041588 -0.2769511 0.81557328
-0.024160679 -0.30877849 0.84568858
-0.050774131 -0.37044489 0.84548932
-0.091662049 -0.4526647 0.82374781
-0.020511691 -0.1389866 0.65185112
-0.1201345 -0.1373975 0.79074359
-0.1969519 -0.2163673 0.74233598
-0.099055894 -0.1420687 0.60898179
-0.14363439 -0.1846063 0.61877662
-0.058907691 -0.14201459 0.78270972
-0.068336733 -0.1407201 0.76105618
-0.14674149 -0.29498011 0.77697092
-0.1851518 -0.25197089 0.75651008
-0.1438833 -0.1856326 0.7793048
-0.21474621 -0.30065069 0.71831501
-0.082875907 -0.2211446 0.81989849
-0.20723499 -0.3943927 0.70515567
-0.1432379 -0.38509399 0.78591973
-0.1848193 -0.1621846 0.75432181
-0.097688504 -0.19887701 0.80533469
-0.1618526 -0.14714751 0.76291877
-0.1224666 -0.1389311 0.58599001
-0.03519839 -0.13694189 0.62745678
-0.08184278 -0.1371907 0.57059228
-0.05363762 -0.44831771 0.84583491
-0.14525311 -0.33219531 0.58627278
-0.12712809 -0.20973501 0.59704489
-0.03116608 -0.39844009 0.8580907
-0.019514499 -0.1385003 0.60432899
-0.1713306 -0.41712189 0.6479153
-0.1580046 -0.1427736 0.73240161
-0.040422771 -0.20062651 0.84408879
-0.197107 -0.2163493 0.75178373
-0.067980528 -0.1936817 0.82631987
-0.06891863 -0.23815671 0.83368272
-0.213001 -0.31998569 0.73434639
-0.072895497 -0.34582779 0.83255821
-0.2089407 -0.2914913 0.73834771
-0.10909 -0.1627856 0.79373789
-0.051244441 -0.2854763 0.83250761
-0.046931211 -0.16038691 0.83843178
-0.1947234 -0.1687597 0.75494659
-0.02593815 -0.15277959 0.85594761
-0.1214144 -0.25783211 0.7924459
-0.1938774 -0.3800275 0.67699552
-0.1079848 -0.40211451 0.54701179
-0.1091619 -0.1526863 0.56380749
0.05414933 -0.1390436 0.7118789
-0.04874998 -0.1401758 0.58827072
0.44422349 -0.26947889 0.2989808
-0.202039 -0.37335849 0.70027149
-0.02013969 -0.1854399 0.85925192
-0.15805051 -0.2114815 0.77413362
-0.1328975 -0.30759659 0.80195743
-0.221754 -0.3758615 0.74561298
-0.18554761 -0.40135691 0.75510597
-0.1180427 -0.32689801 0.80168557
-0.086196423 -0.30920011 0.82729191
-0.197409 -0.1663724 0.7444635
-0.1178319 -0.2583831 0.80129421
-0.1606839 -0.3401266 0.777134
-0.1103933 -0.2444714 0.80187303
-0.1209474 -0.1722178 0.79110891
-0.18663999 -0.36772439 0.7582227
-0.1125057 -0.35801581 0.80788881
-0.1209037 -0.1363671 0.59164143
-0.088551164 -0.20724919 0.81466758
-0.1239408 -0.14277489 0.72835362
-0.12705719 -0.2067467 0.79086339
-0.2048216 -0.31846929 0.74118692
-0.02502054 -0.3171241 0.8502425
0.45604971 -0.273296 0.3095715
-0.1168711 -0.44588229 0.81346458
-0.15932751 -0.1688083 0.77141643
-0.135574 -0.1542452 0.78343982
-0.066241167 -0.13769621 0.64799172
-0.1047105 -0.13459881 0.70995438
-0.1835935 -0.1471771 0.67496479
-0.177635 -0.2811344 0.66478842
-0.1743072 -0.23146281 0.66598427
-0.186058 -0.1381049 0.73848188
-0.15374739 -0.1361261 0.66960788
-0.029836001 -0.1386652 0.82298237
-0.023256 -0.15051951 0.84147608
0.059376121 -0.13839079 0.74466377
0.024068469 -0.13031051 0.77016968
-0.015773769 -0.1682626 0.85951573
-0.121453 -0.27269921 0.796094
-0.20865621 -0.1669246 0.74004042
-0.046818409 -0.25317851 0.84079587
-0.056471411 -0.31965011 0.83377868
-0.022922341 -0.2101943 0.85135043
-0.084604472 -0.34339789 0.82585222
-0.1992351 -0.2536054 0.74800521
-0.02715683 -0.36343041 0.84441721
-0.031386908 -0.3480067 0.85008651
-0.066242993 -0.34531981 0.83313131
-0.1746444 -0.25936899 0.76681179
-0.1335934 -0.1387509 0.78530037
-0.026707049 -0.41532761 0.8678636
-0.040714439 -0.2313868 0.84644538
-0.18535811 -0.3073518 0.75837952
-0.1558121 -0.14632 0.76187408
-0.1400726 -0.391381 0.79511172
-0.1739506 -0.32016769 0.76154548
-0.1063218 -0.17632189 0.8064599
-0.0534507 -0.240125 0.83626997
-0.042485122 -0.2653707 0.84464502
-0.077764332 -0.24041151 0.81894588
-0.1132228 -0.34790331 0.80261111
0.32926491 -0.4552907 0.2178982
-0.038778991 -0.39670661 0.84892368
-0.1013407 -0.20339569 0.54781318
-0.03093487 -0.2444195 0.85164618
-0.1182876 -0.13693281 0.68424439
-0.1774711 -0.31160519 0.76948881
-0.1453421 -0.28854471 0.78237629
-0.1819665 -0.286659 0.76064217
-0.056850731 -0.39426729 0.84080023
-0.13713451 -0.30300811 0.79137999
-0.1791639 -0.43236589 0.76785928
-0.1479719 -0.2088595 0.78323859
-0.075846732 -0.43964529 0.83158821
-0.1847804 -0.1881301 0.69997412
-0.19880579 -0.41521391 0.6809262
-0.17198101 -0.1426896 0.71402979
-0.1069856 -0.4267768 0.81131762
-0.0262028 -0.26608199 0.85033083
-0.078312583 -0.33445421 0.81341457
-0.022629799 -0.1905397 0.85056782
-0.109503 -0.20020629 0.80058652
-0.1316594 -0.41110301 0.79996991
-0.089464553 -0.42394319 0.82376868
-0.058672789 -0.13723169 0.68955427
-0.23015711 -0.4473893 0.81939542
-0.19954529 -0.151269 0.74604338
-0.22294369 -0.44717821 0.93385351
-0.2075894 -0.38367519 0.70349699
-0.2616199 -0.44928831 0.95024598
-0.23130199 -0.44388971 0.89884949
-0.01828027 -0.14742979 0.60806322
-0.084570348 -0.14259709 0.8176074
-0.03045309 -0.44383451 0.8563689
-0.03809965 -0.43537551 0.84984028
-0.01938826 -0.30664939 0.85250348
0.081556194 -0.29157609 0.67656028
0.01249041 -0.3746275 0.78751612
0.083016902 -0.2137749 0.6819939
0.01389828 -0.2189187 0.78364801
0.082671992 -0.33393869 0.68360221
0.085420147 -0.25493839 0.68322033
0.04737293 -0.1494153 0.73620278
-0.01176015 -0.36484709 0.82887697
0.076715752 -0.1717038 0.69354808
0.0048909108 -0.31273949 0.80666608
0.01309159 -0.3175334 0.78397572
0.030668121 -0.1395126 0.71831667
-0.057729281 -0.1444589 0.63557857
0.038668219 -0.4110758 0.74553728
0.085259274 -0.37427711 0.6874581
0.08822073 -0.32266951 0.6720832
-0.017733799 -0.2126984 0.83648431
-0.020555301 -0.27515161 0.83854139
-0.01616025 -0.27296451 0.82811201
0.00036522749 -0.28550801 0.80313349
-0.01358554 -0.23849291 0.82911479
0.069467902 -0.18205971 0.69802839
0.0055935532 -0.28709659 0.79116488
0.088797361 -0.2214002 0.65410531
0.081258863 -0.29524431 0.67390281
0.074141137 -0.2386343 0.69161773
0.0085855573 -0.44797909 0.78799641
-0.01523653 -0.19778471 0.82859498
-0.031211911 -0.13974699 0.82084852
0.08676967 -0.3514671 0.65465361
0.01666322 -0.39564791 0.78181541
0.082695901 -0.2798188 0.66911888
0.05977954 -0.43059099 0.70630032
0.087210476 -0.38866881 0.65831971
0.072174698 -0.4390735 0.69729322
-0.0050306618 -0.20304219 0.81316912
0.023301739 -0.4207612 0.77380782
0.02175553 -0.4470036 0.76541072
0.064583391 -0.34934941 0.70516288
0.01955767 -0.4493902 0.78723693
-0.02374823 -0.1992902 0.84292322
0.091484122 -0.16942839 0.65816271
0.001572728 -0.13758069 0.70199102
0.007688656 -0.2045252 0.78477818
0.050591491 -0.4415752 0.73212862
-0.019024249 -0.30624709 0.83918732
0.062855572 -0.2397579 0.71099943
-0.01561555 -0.2259011 0.82808721
0.0089604557 -0.14248919 0.61008018
0.029213071 -0.1395248 0.64355057
-0.1123096 -0.1420581 0.77874923
0.04866555 -0.1362531 0.65515018
0.0783244 -0.1973913 0.69971359
0.083490767 -0.42995891 0.6900202
-0.0097886324 -0.1429372 0.65221637
0.01343728 -0.29285079 0.78382868
-0.02120569 -0.1527403 0.85076863
0.088262588 -0.2709026 0.65547782
-0.065921716 -0.1392678 0.81327158
-0.019340521 -0.25882521 0.83635938
-0.06551981 -0.14227 0.67275387
0.04817434 -0.43237579 0.7412771
0.02155738 -0.36831731 0.77716333
0.033055071 -0.44769719 0.75118703
-0.02164386 -0.1675103 0.84690827
-0.03079805 -0.139148 0.59497672
0.049898129 -0.1341182 0.68405598
-0.039482959 -0.13744479 0.80818969
-0.035355389 -0.3792108 0.84516323
-0.079858668 -0.1375069 0.60259771
-0.047212541 -0.1412365 0.73096949
-0.043928899 -0.1379099 0.75330192
0.024932589 -0.1394002 0.73680371
-0.03123156 -0.14009009 0.74624968
-0.06079476 -0.13463999 0.73273683
-0.063814253 -0.1361018 0.72789049
0.02837445 -0.38684949 0.77321088
0.04436269 -0.37026751 0.74985647
0.011567 -0.15711141 0.78975278
0.01517628 -0.25339821 0.77519888
0.01084781 -0.1771279 0.78805703
-0.055531889 -0.14186969 0.78069192
-0.01311174 -0.1368577 0.8143732
-0.004708074 -0.1408796 0.82070792
-0.026595291 -0.1407522 0.78542888
-0.02987772 -0.2161551 0.85542911
-0.029138301 -0.17932449 0.84966117
-0.03200746 -0.3121832 0.8555786
-0.036157731 -0.235223 0.85302532
-0.1278239 -0.1487861 0.7969023
-0.099610478 -0.1413206 0.74027961
-0.1058266 -0.141387 0.79294473
-0.1221586 -0.13713069 0.72535241
-0.1189034 -0.1410417 0.60002071
0.03063548 -0.1404767 0.76385778
0.0304223 -0.13991959 0.74719352
0.001735508 -0.1350532 0.72542292
-0.04151139 -0.1493825 0.60634238
0.0611719 -0.31319371 0.72435081
0.018900661 -0.2043567 0.78187507
0.067356966 -0.16875421 0.71170938
-0.01285169 -0.13999701 0.67985851
0.087553978 -0.3352946 0.67624247
0.01810384 -0.14682969 0.78902948
0.0146856 -0.2159158 0.78270513
0.062631518 -0.2210836 0.72259772
-0.025208769 -0.1558381 0.83918422
0.040679011 -0.1608838 0.74267489
-0.027595039 -0.34110069 0.84617227
0.032989319 -0.1542422 0.76414818
0.04176319 -0.15916041 0.7587176
0.0304722 -0.43285671 0.76248378
0.086974412 -0.37576139 0.67630678
0.019468989 -0.1802 0.77881062
0.051862031 -0.3933244 0.73840761
0.006160289 -0.1817394 0.80903769
-0.034180399 -0.32796201 0.85055631
0.01288079 -0.1631189 0.79341698
-0.16292121 -0.1390319 0.66579598
0.063083321 -0.38403699 0.72099459
-0.1411394 -0.29105511 0.79271442
-0.060922619 -0.1427089 0.79027623
-0.036790729 -0.1399883 0.83366692
-0.07197246 -0.19315881 0.8243522
-0.05340296 -0.32973409 0.84144872
-0.1567501 -0.195924 0.76912421
-0.1034609 -0.2189163 0.80384642
-0.04978836 -0.350458 0.84299862
-0.023723811 -0.28429601 0.85033977
-0.12850881 -0.18919571 0.788517
-0.094281912 -0.13504639 0.58413541
0.01601452 -0.13650911 0.77252573
0.01881678 -0.1369983 0.75559068
0.031665619 -0.1458658 0.76467162
-0.1083822 -0.1354703 0.70867282
0.019663321 -0.1458064 0.79685688
0.07106173 -0.14717139 0.70767361
0.02971692 -0.1392791 0.70042408
-0.098975241 -0.13501839 0.69923609
0.077077247 -0.15314551 0.70965409
0.06057049 -0.33017161 0.74269438
0.04230547 -0.1979959 0.74496281
0.020278141 -0.153053 0.77530402
-0.2178994 -0.37425941 0.74330378
0.04371332 -0.2008792 0.74201322
-0.095833004 -0.44496471 0.82548022
0.02674675 -0.27195749 0.77139169
0.05058755 -0.2198074 0.73562348
0.032187819 -0.30940461 0.76139152
0.030031029 -0.22063731 0.76993263
0.03391299 -0.17053699 0.75910318
0.030235291 -0.41199929 0.74338382
-0.054864589 -0.1443392 0.69403392
0.02266432 -0.3737568 0.78256518
0.053035039 -0.2348645 0.7233454
-0.17513721 -0.434055 0.77014607
-0.1187647 -0.27577469 0.80114478
-0.047688808 -0.14091749 0.81502187
-0.084145673 -0.32132351 0.82001197
-0.1943839 -0.22162969 0.75924939
-0.1192508 -0.33510539 0.81063539
-0.029449221 -0.2519162 0.85761458
-0.13345879 -0.29125679 0.80547678
-0.1491376 -0.41114181 0.78641319
-0.1104869 -0.1403966 0.6587857
0.01289555 -0.1383975 0.64457148
0.02683687 -0.13768131 0.66469169
-0.1691611 -0.4447701 0.79923159
-0.0082576266 -0.34856221 0.8186217
0.03344065 -0.33914331 0.76893139
-0.096497603 -0.33733961 0.81626779
0.03644976 -0.30885789 0.768094
-0.032709509 -0.2416369 0.84887958
-0.0296908 -0.35176569 0.85660911
-0.20390379 -0.3459309 0.74744987
0.01073211 -0.1356212 0.81464028
0.075173751 -0.2431438 0.69491571
-0.01454857 -0.31136611 0.83280778
-0.051862601 -0.4157736 0.8428458
-0.2116555 -0.32896009 0.73943979
0.02159393 -0.3811048 0.78671288
0.038041562 -0.2959241 0.76399457
0.073508158 -0.41660029 0.70303708
0.01029637 -0.2511543 0.79783672
0.0120073 -0.26913971 0.80047232
0.032789409 -0.45339119 0.75913018
-0.17365719 -0.13776261 0.69196439
-0.18360651 -0.13927381 0.70947611
-0.023045661 -0.1446849 0.60066819
0.02012399 -0.13483091 0.67104667
-0.079922616 -0.13932189 0.6223194
0.00924059 -0.14194611 0.63264591
-0.20758159 -0.20121381 0.72655481
-0.1316352 -0.20382041 0.59277427
-0.1120288 -0.20418289 0.57289922
-0.13470121 -0.1868345 0.61079937
0.042505171 -0.1393802 0.72126621
-0.1773635 -0.1717139 0.68126059
-0.2178275 -0.3972995 0.71782237
-0.16403981 -0.2280788 0.65147382
-0.2154431 -0.32663521 0.73045951
0.04236789 -0.13873219 0.65833843
-0.17483801 -0.157323 0.6752938
-0.1130329 -0.2557418 0.56079549
-0.097481847 -0.1399461 0.77756262
0.0033325551 -0.1434897 0.77328169
-0.041440342 -0.14136291 0.76671928
-0.02217472 -0.1424702 0.76659888
-0.070325613 -0.142664 0.73748839
0.06093064 -0.1370344 0.66645068
-0.1185913 -0.34867221 0.55608392
-0.1902051 -0.169671 0.69846672
-0.1225769 -0.24919081 0.57844901
-0.1021669 -0.13832539 0.58871871
-0.1278324 -0.1722744 0.59945118
-0.20328771 -0.38225999 0.70610058
-0.16791929 -0.2217755 0.65290493
-0.1767877 -0.14004961 0.70298928
-0.211945 -0.36276951 0.74160069
-0.1268789 -0.2549113 0.58382142
-0.1209751 -0.27817261 0.57307398
-0.045624651 -0.1407382 0.62312108
-0.1142167 -0.1640428 0.55893731
-0.2123246 -0.18750229 0.73747271
-0.1574934 -0.2124484 0.64306372
0.03118271 -0.14600369 0.65866703
-0.082945019 -0.1418473 0.6202566
-0.1230125 -0.34233761 0.58214933
-0.1112078 -0.1415775 0.61720479
-0.13878579 -0.2777687 0.61622238
-0.1174308 -0.4110446 0.56855172
-0.12649129 -0.21014769 0.59545708
-0.103091 -0.14160991 0.5985105
-0.2120309 -0.2026365 0.72973323
-0.1098247 -0.1513934 0.57489491
-0.17966311 -0.154401 0.68649149
-0.2059782 -0.2284565 0.72347277
-0.1259343 -0.2392465 0.58585358
-0.1067605 -0.1434138 0.72058523
-0.1083227 -0.3051275 0.55481088
-0.1840467 -0.18877199 0.69098258
-0.1186473 -0.16927449 0.56013691
0.02739531 -0.13859341 0.74645352
0.02849615 -0.1419151 0.69422722
-0.2125684 -0.26605561 0.71620828
-0.2092845 -0.33238021 0.72680748
-0.1865112 -0.2392703 0.69072688
-0.1455306 -0.2596294 0.63064492
-0.1891479 -0.2261288 0.7092495
-0.106304 -0.1938611 0.5572769
-0.19111709 -0.22048789 0.69873822
-0.1375003 -0.2491301 0.59621137
-0.1156546 -0.263798 0.56999159
-0.1094499 -0.2852937 0.55762088
-0.1806494 -0.2472934 0.68006241
-0.1030419 -0.1419515 0.59567642
-0.1778917 -0.2417659 0.69275367
0.01472098 -0.1435581 0.78716618
-0.02313873 -0.1400353 0.72520173
-0.1132958 -0.44956559 1.234441
-0.21605819 -0.1974604 0.74389589
-0.056757659 -0.14300971 0.62492841
-0.1061888 -0.36993521 0.55087203
0.067374408 -0.1392895 0.6839481
0.055562261 -0.14075661 0.70002508
-0.18294831 -0.147358 0.6974802
-0.1447795 -0.20004749 0.6028164
0.035672192 -0.1393183 0.73597962
-0.2215278 -0.31038079 0.74100733
-0.2071612 -0.1503958 0.72058922
-0.2139989 -0.27167809 0.74776173
-0.1068515 -0.25891161 0.55640948
-0.1046304 -0.2410517 0.55821121
-0.1136313 -0.3219907 0.56168813
-0.1038198 -0.2456284 0.55448908
-0.19316331 -0.2233246 0.6922518
-0.026980041 -0.14489651 0.7146396
0.0049703121 -0.1400774 0.68854082
-0.14949919 -0.1432419 0.65222961
-0.0072885752 -0.1474563 0.70374823
-0.14918201 -0.2907539 0.62152088
-0.075674333 -0.14275651 0.60176778
-0.2191671 -0.37134019 0.7414006
-0.2139495 -0.2184343 0.73250443
-0.088992737 -0.13561811 0.63069439
-0.147103 -0.1395788 0.6603303
-0.1872282 -0.3154107 0.68868732
-0.081125677 -0.1416928 0.66134608
-0.2037103 -0.2474163 0.71958458
-0.1471632 -0.3645612 0.61510968
-0.1024911 -0.14075691 0.75620621
-0.1269049 -0.24809369 0.58945858
-0.1328821 -0.16452339 0.60437793
-0.1413326 -0.16989879 0.60661268
-0.130614 -0.2805098 0.59692907
-0.1129352 -0.38378209 0.55943769
-0.12925351 -0.2013917 0.59962249
-0.1098047 -0.1934426 0.56634271
-0.14145429 -0.38401121 0.60567862
-0.1493715 -0.3415581 0.62182432
-0.1114229 -0.27368721 0.55537701
-0.1006109 -0.1436367 0.55956459
-0.1317331 -0.30403581 0.5938437
-0.1102403 -0.35147461 0.5552631
-0.1078038 -0.2049866 0.55497497
-0.1235978 -0.31461 0.58298451
-0.14302769 -0.322258 0.61090511
-0.1527658 -0.27036929 0.63590658
-0.1556484 -0.1862089 0.62933171
-0.1490119 -0.3819209 0.61364073
-0.14571381 -0.36801261 0.60813838
-0.1216755 -0.1350777 0.61658621
-0.15395559 -0.13924509 0.70289838
-0.089575984 -0.14033151 0.74074358
-0.1870739 -0.34456119 0.68390119
-0.023128239 -0.1356409 0.61676782
-0.1683725 -0.2239539 0.67873943
-0.1639066 -0.17920171 0.661982
-0.1334437 -0.1346699 0.72094828
-0.1306868 -0.4534317 1.228083
-0.1102793 -0.21905909 0.55696511
-0.023296621 -0.141119 0.64523977
-0.14115471 -0.16632549 0.60994899
-0.1491808 -0.2295547 0.62652928
-0.2111669 -0.35368991 0.72037071
-0.1133473 -0.39708439 0.5608803
-0.1054339 -0.31823671 0.55464262
-0.1025645 -0.43724769 0.55586642
-0.1036399 -0.18628751 0.55450022
-0.13268439 -0.17925771 0.59786808
-0.2166044 -0.2390414 0.72964978
0.0031937959 -0.1412923 0.71547711
-0.063700318 -0.14061899 0.62135267
-0.01137123 -0.1385352 0.66744101
-0.05883443 -0.13794909 0.6501087
-0.079230733 -0.1417927 0.60344338
-0.1287487 -0.2293445 0.59473091
-0.209784 -0.36269191 0.7071628
-0.18180799 -0.27885291 0.6728918
-0.1068746 -0.14011291 0.66057128
-0.21136349 -0.37137231 0.72723931
-0.20920169 -0.33484149 0.72320372
-0.1494887 -0.1436231 0.69457811
-0.092103183 -0.1409809 0.73885101
-0.1732088 -0.2399729 0.66781747
-0.1649332 -0.1886047 0.65706933
-0.20424721 -0.25214031 0.70797229
-0.1970793 -0.1773715 0.71322292
-0.1960635 -0.33854619 0.69739401
-0.14601921 -0.32477489 0.61863053
-0.1105379 -0.1406818 0.72994888
-0.01631302 -0.14050829 0.68745589
-0.1217996 -0.4258824 0.5753721
-0.17943721 -0.25623089 0.67689931
-0.1744161 -0.33904451 0.653211
-0.1018892 -0.32715249 0.54958189
-0.14153621 -0.1763203 0.62392682
-0.097385697 -0.2127137 0.55034852
-0.17556059 -0.1958331 0.66491759
-0.1786693 -0.3345331 0.66956693
-0.1828531 -0.31891561 0.67196411
-0.1681812 -0.2810308 0.65122741
-0.1656961 -0.1951258 0.65959728
0.023672881 -0.1457383 0.76292372
-0.032399889 -0.1344521 0.60507762
-0.00024962431 -0.1390803 0.73178339
-0.2137327 -0.43498629 0.73582393
-0.21062221 -0.31281531 0.73781198
-0.0027111771 -0.146432 0.76260883
-0.16195349 -0.1373771 0.666825
-0.1347235 -0.1403567 0.73380083
-0.2269823 -0.4147349 0.73558211
-0.1239562 -0.30776751 0.58223522
-0.042991161 -0.15394761 0.60281599
-0.094837278 -0.1595691 0.55067712
-0.082764328 -0.3569144 0.56177533
-0.125098 -0.35913569 0.58609867
-0.2216974 -0.16564371 0.72189581
-0.1625002 -0.2638998 0.64358127
-0.15679421 -0.38708389 0.62913698
-0.01608881 -0.14368591 0.8084299
-0.1018189 -0.4058561 0.55281252
-0.099971987 -0.32506251 0.55102879
0.04664449 -0.22482771 0.63521409
-0.047518458 -0.36831871 0.57774222
0.044363629 -0.301725 0.63843721
-0.04050738 -0.2323496 0.58348262
-0.1033824 -0.2238638 0.5506559
-0.1029646 -0.340994 0.54735231
-0.1007178 -0.27667749 0.55151111
-0.061745211 -0.17804541 0.57091331
-0.063142732 -0.4348599 0.5699864
-0.064254567 -0.2852416 0.57111168
-0.093039081 -0.3009918 0.553855
-0.080305822 -0.1963505 0.56129873
-0.040400948 -0.26650521 0.58528751
0.022578919 -0.2419157 0.61478388
0.017001171 -0.34802079 0.61849833
0.048285529 -0.1941269 0.6391629
0.03100387 -0.24319319 0.62316942
-0.034048799 -0.2491803 0.58871162
-0.04322188 -0.31847689 0.58380783
0.04154731 -0.2275503 0.63330668
0.01923608 -0.27259219 0.62010682
0.044567231 -0.1978121 0.63795698
-0.081120662 -0.34625691 0.56065297
0.04126456 -0.1559609 0.63202697
-0.045481909 -0.1575885 0.57638371
0.069747843 -0.36886829 0.64634109
0.065982252 -0.39104429 0.64850199
0.06224088 -0.41674349 0.64218622
0.04607356 -0.28305879 0.63705027
0.080884583 -0.39229089 0.65861869
0.043239828 -0.33624429 0.63484311
0.078707904 -0.35783279 0.65716177
0.071457237 -0.37214741 0.6462785
-0.078001067 -0.1513949 0.56513131
0.078490213 -0.36419451 0.65761912
-0.07327956 -0.35554761 0.56732827
-0.05101648 -0.4223077 0.57506502
-0.021369509 -0.200441 0.60207868
-0.07691516 -0.1741491 0.56561369
-0.1093934 -0.33215949 0.54580879
-0.083787113 -0.24062701 0.55970109
-0.083397463 -0.24628 0.5590505
0.079242967 -0.45010301 0.6576882
-0.058915172 -0.18772811 0.57466662
0.019827349 -0.35916081 0.62162012
-0.1050732 -0.301146 0.5503636
-0.090946689 -0.40958819 0.55389673
-0.097530313 -0.3062802 0.5484364
0.05807114 -0.36582229 0.63938171
-0.03472453 -0.2124237 0.58674037
-0.084490113 -0.33917481 0.55628091
0.083632171 -0.43216851 0.66151452
0.040678129 -0.33639711 0.63017952
0.031199951 -0.4168399 0.62818378
0.089731023 -0.40858439 0.66579157
-0.083674997 -0.2147394 0.55963123
-0.078603342 -0.1810946 0.56247509
-0.092458293 -0.21359169 0.55640543
-0.040283021 -0.2813513 0.58135998
-0.101841 -0.21120501 0.54542029
0.060977239 -0.45474869 0.64569068
0.040905099 -0.29162261 0.633892
-0.049089331 -0.38701731 0.57426071
-0.095325582 -0.35447901 0.55326068
0.086262763 -0.1933783 0.65822649
-0.082720287 -0.39014861 0.56337571
0.041876089 -0.373133 0.63094401
0.054272339 -0.39827719 0.63980567
-0.1147373 -0.3632575 0.55240631
0.052007928 -0.39887509 0.63556141
-0.086996503 -0.45043001 0.54800123
-0.1040809 -0.1944613 0.55821103
-0.1150415 -0.3429178 0.55122781
-0.098662399 -0.16236719 0.55508
-0.080024771 -0.2573449 0.56045502
-0.096788883 -0.31021911 0.5547086
-0.097874917 -0.29417041 0.55423558
0.0092895478 -0.3824006 0.61252928
0.032414351 -0.25249311 0.61992311
-0.1070868 -0.25302279 0.56033182
-0.138267 -0.44773921 0.57625192
-0.062457848 -0.4128328 0.57169652
-0.05251433 -0.29559091 0.57853848
0.076557167 -0.3044332 0.65296149
-0.1163023 -0.44416651 0.55397677
-0.095772013 -0.27305681 0.56268841
-0.1020058 -0.1790553 0.55307698
-0.040615819 -0.38142961 0.5808683
-0.1816562 -0.3959327 0.65110397
-0.110199 -0.18867829 0.55770469
-0.1184196 -0.33950251 0.54577053
-0.062289961 -0.2192931 0.57673782
-0.075385928 -0.27575731 0.56698573
-0.1892425 -0.37214831 0.67775363
-0.2186054 -0.30803001 0.73129869
0.016461059 -0.33738509 0.61625707
-0.04956818 -0.4230656 0.57727098
-0.1109086 -0.40304509 0.54595041
-0.064929307 -0.2495859 0.57554448
-0.1712158 -0.4604958 0.6216085
-0.1036333 -0.2258351 0.55206668
-0.1119383 -0.28717539 0.55003268
-0.2103073 -0.1722568 0.72764432
-0.1066399 -0.43321469 0.55768353
-0.21090791 -0.3455914 0.71427143
-0.119856 -0.26571959 0.56454158
0.059197862 -0.29216361 0.64787948
-0.07943169 -0.4286314 0.56559181
-0.1872395 -0.1861797 0.68709612
0.07462354 -0.40997699 0.65521067
-0.076519579 -0.2078806 0.5674333
-0.085417069 -0.1536428 0.55945611
-0.0091465861 -0.4497619 0.4462935
0.027881 -0.230884 0.62429732
0.07616277 -0.28466389 0.65506101
-0.21093179 -0.1458333 0.72828138
-0.1564133 -0.38124499 0.61880028
-0.1258627 -0.3116959 0.57531953
-0.2016366 -0.40729681 0.68664771
-0.055009611 -0.45479539 0.48336229
-0.081252947 -0.30675349 0.56106138
0.071104407 -0.2736063 0.64953691
0.01034629 -0.37603819 0.61768591
-0.05083131 -0.18473209 0.58197558
0.087091222 -0.14282539 0.66394448
0.041237239 -0.40531489 0.63884813
-0.21699759 -0.1425654 0.73966289
-0.1090549 -0.2040246 0.5500598
-0.074436389 -0.26026711 0.56496888
-0.055021189 -0.17540701 0.57472068
-0.068574153 -0.17578369 0.57115728
-0.1873423 -0.15973561 0.69210118
-0.1329391 -0.36138031 0.59359628
-0.14875869 -0.4482477 0.6136356
-0.035125941 -0.38239309 0.58761889
-0.01157516 -0.4499757 0.44776869
-0.05461961 -0.26039541 0.57787782
-0.068978809 -0.43600881 0.57318652
-0.02268143 -0.44807401 0.4854818
0.05754042 -0.4575538 0.40825561
-0.081289656 -0.2330922 0.56390631
-0.055860061 -0.38382569 0.57141078
-0.063385777 -0.25660089 0.57058138
-0.15289611 -0.20554221 0.62485552
-0.038013332 -0.45265231 0.48402509
0.04942371 -0.4338744 0.63233161
0.070841938 -0.4366959 0.64991689
0.081854209 -0.3389762 0.65802211
0.04856978 -0.1611716 0.63830888
0.07143034 -0.1518337 0.65584242
-0.073118359 -0.1814023 0.56745929
-0.076073349 -0.27030581 0.56373757
0.023001671 -0.23830681 0.62502652
-0.1186773 -0.4411439 0.55637461
-0.104729 -0.3776069 0.55139887
-0.059160631 -0.41700599 0.57448041
0.05491158 -0.32567629 0.64273632
-0.05032682 -0.2008623 0.58020377
-0.051114518 -0.40767029 0.57695121
-0.03136285 -0.1628776 0.59339148
0.053957641 -0.36531839 0.63827759
-0.023287799 -0.45581511 0.47836229
0.076785609 -0.20592239 0.64339489
0.048662189 -0.4135578 0.63882673
-0.1287283 -0.34014899 0.5819999
-0.1301069 -0.3650035 0.58191198
-0.1263091 -0.39013451 0.5713293
-0.1098875 -0.414152 0.55206722
0.065191388 -0.1747489 0.64871567
0.01388154 -0.36965221 0.61457092
-0.1563832 -0.2413827 0.63075501
-0.094514661 -0.2251513 0.55325252
-0.033791479 -0.2574577 0.5912028
-0.114793 -0.39464599 0.55198812
-0.029693451 -0.3839395 0.59044558
0.091907017 -0.4206886 0.65572429
0.057802681 -0.33257201 0.64254808
-0.029618889 -0.1461141 0.59249038
-0.095408738 -0.14365479 0.55182701
-0.05978471 -0.43295011 0.57250381
-0.1901423 -0.34488639 0.67837149
-0.2112122 -0.3609471 0.70336318
-0.2109001 -0.3337495 0.71962112
-0.1402695 -0.1723868 0.59993851
-0.1063298 -0.1404088 0.58522272
-0.12912831 -0.2092447 0.58699828
-0.100455 -0.134683 0.60484338
-0.107906 -0.43415409 0.55266911
-0.066764772 -0.2135832 0.57025588
-0.1694628 -0.4268246 0.62994528
-0.220961 -0.31426889 0.73340392
-0.16802061 -0.1964023 0.65644932
-0.1523153 -0.14356411 0.62030822
-0.183598 -0.28046751 0.67055309
-0.1574938 -0.1785827 0.61846232
-0.1005308 -0.1563535 0.54589182
-0.0100649 -0.1395373 0.66563398
-0.1067872 -0.37643549 0.55553782
-0.19623271 -0.34456021 0.6950897
-0.14835431 -0.14417151 0.6292116
-0.1689999 -0.2140169 0.64063781
0.054887529 -0.4077704 0.64418
-0.080988623 -0.25505811 0.55773968
-0.1132776 -0.1964999 0.55879718
-0.070524387 -0.1392155 0.61372513
-0.12680539 -0.1356736 0.66413701
-0.083034337 -0.1426447 0.65972322
-0.088894993 -0.2077726 0.5558998
-0.15816849 -0.21395031 0.63476437
-0.1296135 -0.2421207 0.58845621
-0.1671858 -0.18774951 0.65516633
0.043823302 -0.1386555 0.65346968
-0.0332211 -0.13455801 0.75082761
0.00059303641 -0.2697193 0.60626608
-0.1746947 -0.2177711 0.67030078
0.017406231 -0.1488867 0.62223321
-0.044204 -0.1404576 0.61769468
-0.18834589 -0.36079729 0.67361689
-0.02296561 -0.1435533 0.62217438
-0.102883 -0.1398723 0.74710572
-0.21944299 -0.30194449 0.72332138
-0.1505208 -0.20087589 0.62638658
-0.16528609 -0.31380311 0.64571321
-0.2200288 -0.36934391 0.74010122
-0.1901398 -0.2196047 0.69479239
-0.1165293 -0.152179 0.56991857
-0.1278726 -0.4134118 0.56669182
-0.18032929 -0.1991231 0.66978902
0.0028930011 -0.1402564 0.63142103
-0.19509169 -0.16969959 0.69751692
-0.06667304 -0.1328831 0.63960022
-0.1144934 -0.21680281 0.55177587
-0.2063932 -0.26660839 0.7136727
-0.1125724 -0.3194544 0.55666691
-0.137109 -0.23724259 0.58769429
-0.2041133 -0.42982489 0.67927319
-0.1066192 -0.1498225 0.72273779
-0.1840117 -0.2444341 0.67323458
-0.1823829 -0.1695921 0.67472923
0.0057170992 -0.14340159 0.68805063
-0.089984179 -0.1398782 0.62847292
-0.1086992 -0.30191201 0.54849541
-0.1815107 -0.39732039 0.65094483
-0.1151845 -0.25573239 0.55324948
-0.049244821 -0.1414589 0.58551568
-0.02492303 -0.13485929 0.6758458
-0.01557735 -0.3782545 0.59727699
-0.1550038 -0.13917039 0.68777621
-0.1104195 -0.1621504 0.55450141
-0.1129385 -0.27998391 0.55228043
-0.1334696 -0.17141069 0.59412098
-0.14247391 -0.35666659 0.59138411
-0.22956041 -0.4151876 0.73326367
-0.1987157 -0.2488476 0.69218433
0.017734939 -0.40240249 0.61853409
-0.07804656 -0.1468676 0.57291287
-0.044410881 -0.42935631 0.56229812
-0.2275891 -0.4215422 0.72374052
-0.23307911 -0.3817091 0.72324288
-0.17566051 -0.2399949 0.66463238
-0.1185059 -0.1500908 0.56663901
-0.2204693 -0.1727985 0.73460102
0.04339939 -0.1451454 0.63841027
-0.054132789 -0.1407561 0.77561331
0.024809061 -0.240519 0.61842108
0.040732618 -0.29511261 0.63451082
-0.064575613 -0.1773648 0.56906331
-0.078012139 -0.1740226 0.56051582
-0.1842934 -0.15360101 0.68103158
-0.1253338 -0.23949841 0.56836522
-0.1614729 -0.19228069 0.62755001
-0.16052631 -0.27228799 0.62954372
-0.1263154 -0.38645679 0.56423241
-0.15029611 -0.41674069 0.59641469
-0.1883873 -0.23621 0.68196118
-0.1157952 -0.33722219 0.55240607
-0.18423469 -0.3973856 0.64641702
-0.1176798 -0.38273361 0.55059743
-0.1117783 -0.34524739 0.54624557
-0.14664429 -0.26863801 0.60372943
-0.1162065 -0.2299317 0.53877419
-0.1429259 -0.37857291 0.59518272
-0.1598749 -0.34976289 0.62168682
-0.02116132 -0.31673849 0.58678007
-0.1222216 -0.25450209 0.5572803
-0.2204745 -0.35133299 0.72857982
-0.21080139 -0.2220504 0.71371567
-0.205717 -0.42406359 0.67914528
-0.13994309 -0.3234286 0.58291739
-0.1530446 -0.15125661 0.62099928
-0.38929921 -0.70034653 1.490417
-0.091947883 -0.33994821 0.55272287
-0.1013665 -0.21258719 0.54518872
-0.13502181 -0.27950269 0.58933288
-0.1477036 -0.2541939 0.60818028
0.070958443 -0.14204711 0.65145499
-0.1270974 -0.30238259 0.56712788
-0.18126521 -0.41403869 0.64204818
-0.15221091 -0.36064479 0.602359
-0.065448053 -0.1417466 0.57966667
-0.05444685 -0.2880373 0.56749088
-0.17744289 -0.35791001 0.64460009
0.057119191 -0.1382947 0.66298002
-0.1669741 -0.232444 0.63763022
-0.18835101 -0.316998 0.66635358
-0.03949016 -0.22530159 0.58649218
0.01168203 -0.3301684 0.61086601
-0.1910084 -0.1815452 0.67901808
-0.2171286 -0.1983303 0.72001922
-0.1488371 -0.31406769 0.60137641
-0.146431 -0.21767899 0.5954861
-0.19022191 -0.36427301 0.67054302
-0.1799605 -0.33316931 0.64484698
-0.1227465 -0.27175209 0.56015778
-0.2216462 -0.3849614 0.70805562
-0.01161253 -0.43336701 0.50100541
-0.2485584 -0.45023379 0.74542522
0.062257949 -0.13738739 0.67601931
-0.18984459 -0.42580479 0.64850563
-0.1891146 -0.1314079 0.70996588
0.064825423 -0.4630951 0.44822991
0.1481183 -0.44895139 0.39167279
-0.2216998 -0.2607899 0.72969228
-0.2164541 -0.2445997 0.73194402
-0.2079943 -0.2405016 0.70923102
-0.085265309 -0.36165771 0.56145507
-0.083922803 -0.1414097 0.55851781
-0.060174759 -0.3181769 0.56866372
-0.14995261 -0.13431761 0.64603913
-0.050832 -0.1361251 0.75164658
-0.087096483 -0.12954479 0.74848843
-0.071448863 -0.1364366 0.72335052
-0.34182811 -0.3826361 1.4481879
-0.18509901 -0.1321023 0.68675762
-0.1302204 -0.29074189 0.55347818
-0.2123781 -0.2468579 0.69448858
-0.1537213 -0.37929681 0.60577899
-0.2186929 -0.27922469 0.73022062
-0.24177159 -0.3603408 0.76520759
-0.1730586 -0.36591479 0.63256413
-0.17140269 -0.40071061 0.63417077
-0.1463172 -0.42729861 0.57573968
-0.129573 -0.1598485 0.58115238
-0.1895642 -0.38298151 0.6644243
-0.1412455 -0.1385114 0.60958952
-0.047326621 -0.43706459 0.4685992
-0.16439129 -0.15175059 0.63646191
-0.4392738 -0.4305498 0.61250943
0.035236418 -0.132256 0.70429808
-0.039585531 -0.13969851 0.63403249
-0.080290847 -0.13466489 0.67961681
-0.075362377 -0.1121173 0.6626662
0.071820557 -0.1381388 0.71178168
-0.1138645 -0.1261082 0.56445807
-0.12747221 -0.2327728 0.57558382
-0.1167084 -0.134753 0.59578139
-0.092685819 -0.1369992 0.64361662
-0.0086431503 -0.2363921 0.60061067
-0.1005173 -0.1354475 0.76344597
-0.094587363 -0.1316435 0.77222389
-0.20249221 -0.1368646 0.6864776
-0.18577109 -0.21150149 0.65399301
-0.2160285 -0.40083221 0.68448478
-0.1847581 -0.1452121 0.65486062
-0.1636263 -0.1375961 0.66639602
-0.2023184 -0.3539339 0.68033499
-0.1319508 -0.124896 0.60236138
-0.1417062 -0.38119301 0.58255702
-0.20064659 -0.38606381 0.67950809
-0.1995962 -0.1606455 0.6790629
-0.1695859 -0.1405323 0.67850322
-0.1957725 -0.21126559 0.67451102
-0.1636885 -0.3119168 0.64100683
-0.34345099 -0.42623359 1.495571
-0.1082968 -0.1075784 0.55407721
-0.2187424 -0.37455329 0.70019817
-0.1457188 -0.1737365 0.61813188
-0.001311898 -0.27211821 0.60459721
-0.22246391 -0.2102097 0.7167322
-0.36845309 -0.73261482 1.4585119
-0.41970021 -0.45362481 0.60952133
-0.095467001 -0.27832451 0.53957421
-0.20355579 -0.39854991 0.67906451
-0.49388501 -0.42977899 0.69196677
-0.3454856 -0.74432778 1.480505
-0.21031199 -0.18078861 0.71392012
-0.084307611 -0.136106 0.56538302
-0.1820273 -0.26486021 0.64924812
0.01240599 -0.4473438 0.59747171
0.1040125 -0.4458828 0.4122633
-0.0300563 -0.44698289 0.2694422
-0.1225391 -0.4263036 0.56106669
0.01246241 -0.1388918 0.78436297
0.0207191 -0.14616521 0.65555382
-0.115723 -0.14910901 0.60557002
-0.1253567 -0.1409277 0.66914052
-0.03082699 -0.1409547 0.65694088
-0.087865859 -0.1393494 0.79882222
-0.1889693 -0.4495042 0.76906687
-0.076808691 -0.14588299 0.81772608
-0.037396889 -0.30953959 0.8535639
-0.2051581 -0.1676127 0.74898553
-0.043727309 -0.32433039 0.85598689
-0.2077799 -0.2151912 0.74691731
-0.05273119 -0.37389669 0.85330302
-0.1536938 -0.30127621 0.78245533
-0.1537815 -0.19152801 0.78437507
-0.116914 -0.2470604 0.80535948
-0.1093567 -0.1719963 0.80185503
-0.056582689 -0.28604019 0.84459722
-0.2053992 -0.2221002 0.75490659
-0.206762 -0.1512783 0.74526531
-0.045488991 -0.1747815 0.84697902
-0.073762663 -0.1412285 0.65286732
-0.1608372 -0.2180496 0.77435249
-0.15318809 -0.1834854 0.78073603
-0.08520779 -0.3206456 0.82849783
-0.075002447 -0.24461579 0.83285242
-0.1378634 -0.34485391 0.79574019
-0.1460793 -0.4206436 0.79906738
0.0030422511 -0.1425828 0.65581679
-0.1815863 -0.44057161 0.76806778
-0.0438683 -0.2025408 0.85006517
-0.1245231 -0.1744321 0.79724753
-0.20760959 -0.1838154 0.75084168
0.01660594 -0.1435522 0.7801373
-0.1912594 -0.25388059 0.75913298
-0.1279708 -0.328832 0.80334818
-0.20930579 -0.17307609 0.73718739
-0.1030798 -0.41625389 0.82110387
-0.14891151 -0.38854149 0.79048163
-0.1668438 -0.173757 0.7720238
-0.061757479 -0.3248657 0.83866388
-0.048650499 -0.24115349 0.84948492
-0.05052707 -0.25773019 0.84659803
-0.1805132 -0.3133918 0.7707628
-0.1566586 -0.1448772 0.77676052
-0.02982063 -0.21126039 0.85601151
-0.117916 -0.3639496 0.812181
-0.1397977 -0.39808619 0.79370958
-0.1119725 -0.1669955 0.80932182
-0.20732629 -0.2587451 0.75203651
-0.2091908 -0.32267711 0.74477053
-0.1120954 -0.18278261 0.80539221
-0.1145791 -0.1490898 0.80201548
-0.14913259 -0.29804489 0.77995461
-0.2018044 -0.1730597 0.75876218
-0.13743439 -0.3959519 0.79788363
-0.1586788 -0.43110019 0.78282923
-0.1264012 -0.26197931 0.79618621
-0.1181963 -0.35054031 0.81180418
-0.1823701 -0.32050461 0.76349843
-0.02668005 -0.15746219 0.85646731
-0.1871327 -0.37910831 0.76694232
-0.034426268 -0.2573556 0.85964328
-0.18589 -0.29160571 0.76314569
-0.085475609 -0.2253996 0.82323939
-0.19393609 -0.16016901 0.76027298
-0.1545746 -0.41273361 0.7864759
-0.08187671 -0.4294199 0.83778763
-0.1924019 -0.30880731 0.764507
-0.1353568 -0.28836671 0.79055119
-0.1036878 -0.37093711 0.81866258
-0.079939783 -0.44001469 0.83574188
-0.1526123 -0.14369559 0.75545752
-0.1067126 -0.19619711 0.80847007
-0.1133914 -0.33969891 0.81111997
-0.141655 -0.17578781 0.78540081
-0.076317526 -0.40416321 0.83701527
-0.2030475 -0.1788376 0.74914628
-0.1554575 -0.20107099 0.78020328
-0.1344344 -0.26646921 0.7944724
-0.022021091 -0.1421237 0.61946768
-0.1020609 -0.20499571 0.81065249
-0.186037 -0.333033 0.76432133
-0.062035762 -0.4022547 0.84230649
-0.04798235 -0.31907791 0.84963882
-0.1292474 -0.31464419 0.80403209
-0.097157523 -0.1591329 0.81046212
-0.06152973 -0.1380576 0.74079788
-0.03408426 -0.34905371 0.8585
-0.1069657 -0.26644161 0.81419861
-0.094030097 -0.31903949 0.8248958
-0.170302 -0.4305878 0.77966821
-0.084429771 -0.14619491 0.82645577
-0.1484485 -0.1468064 0.76104581
-0.1807874 -0.3427079 0.77323729
-0.037202571 -0.44087169 0.86255318
-0.063158803 -0.1982296 0.83383292
-0.1134433 -0.39180231 0.81223869
-0.16451719 -0.3458986 0.7807135
-0.181609 -0.435891 0.7685262
-0.064339593 -0.3144201 0.83614111
-0.039787561 -0.21342599 0.85899639
-0.1048733 -0.2986103 0.81336617
-0.050769061 -0.37488961 0.84938049
-0.059392869 -0.153275 0.83877927
-0.1987371 -0.1592302 0.74957198
-0.1506367 -0.2073956 0.78113741
-0.085405529 -0.2387625 0.8234731
-0.1066915 -0.44106749 0.81956267
-0.1170755 -0.415833 0.81266153
-0.1112259 -0.2053231 0.80528492
-0.1572662 -0.3932364 0.78392541
-0.16440959 -0.44484061 0.78045481
-0.18638811 -0.15349691 0.75751269
-0.2011859 -0.2221448 0.75566947
-0.1172151 -0.1412809 0.78485519
-0.080029607 -0.1978984 0.82653493
-0.05180569 -0.2165505 0.84510797
-0.19633161 -0.2611666 0.75645268
-0.1931795 -0.32396531 0.75606549
-0.142904 -0.19306339 0.7867282
-0.1092703 -0.1963345 0.80299932
-0.20349909 -0.29872671 0.75199151
-0.1619228 -0.20194779 0.77055669
-0.2129695 -0.32929391 0.74899048
-0.090220712 -0.2439575 0.82153249
-0.1358106 -0.2108534 0.79600519
-0.1268115 -0.25470981 0.79959202
-0.04230186 -0.34396961 0.84741199
-0.1442278 -0.28440711 0.78064728
-0.13632379 -0.1413309 0.62304717
-0.1636477 -0.4234198 0.77912802
-0.1808697 -0.28075221 0.76249999
-0.055330109 -0.1646651 0.83902562
-0.1083452 -0.26267669 0.80733591
-0.1425669 -0.18094429 0.78400892
-0.1382301 -0.2750904 0.7934587
-0.037177552 -0.2616421 0.85860068
-0.1426865 -0.1417744 0.64649278
-0.09310057 -0.1433997 0.77381492
-0.085996978 -0.37010339 0.82804888
-0.070500746 -0.1489321 0.8264181
-0.118651 -0.17800871 0.79637039
-0.1201398 -0.26111731 0.80754119
-0.13288569 -0.3255128 0.79279572
-0.1184518 -0.45282489 0.81917632
-0.1216848 -0.27953789 0.79748893
-0.04058842 -0.23618139 0.84943539
-0.1164378 -0.14855801 0.80334812
-0.05162343 -0.183164 0.84257132
-0.2177213 -0.39274201 0.73746419
-0.16122679 -0.32825449 0.77579081
-0.1895836 -0.3722569 0.76230413
-0.21586969 -0.144226 0.74014968
-0.13852391 -0.1612177 0.78323537
-0.1869985 -0.1982204 0.76314771
-0.1936834 -0.30489719 0.75771189
-0.077834643 -0.34961089 0.83691782
-0.069597937 -0.31548491 0.83441812
-0.075442813 -0.2182852 0.82921642
-0.1288231 -0.21446709 0.79657632
-0.031034291 -0.1474953 0.85079777
-0.038635239 -0.40768611 0.85211939
-0.094894208 -0.2317251 0.81700379
-0.03651746 -0.24725901 0.85067248
-0.088601127 -0.39849761 0.82619518
-0.031976581 -0.14254341 0.82201892
-0.21205731 -0.2486667 0.73709202
-0.2101002 -0.1568079 0.74325252
-0.2187987 -0.3698515 0.73960531
-0.2212088 -0.4586966 0.72505862
0.0093490928 -0.1403745 0.74222338
-0.041170299 -0.40360501 0.85890353
-0.1318377 -0.14197619 0.79387701
-0.2084766 -0.37226591 0.7324847
-0.101945 -0.29707521 0.80884868
-0.1014103 -0.2261965 0.8111521
-0.026228771 -0.3845942 0.8482793
-0.09050706 -0.2087703 0.82559752
-0.22641291 -0.40935969 0.7343483
-0.061339051 -0.2401883 0.83786559
-0.1825797 -0.3348546 0.7669031
0.056639869 -0.1461581 0.65804082
-0.065711722 -0.39583179 0.84372908
-0.04962511 -0.44341651 0.85274351
-0.1278916 -0.1936747 0.79338282
-0.1756767 -0.23517659 0.76773047
-0.1748825 -0.27227229 0.7693345
-0.064543247 -0.35491341 0.83741432
-0.2232573 -0.3796089 0.73487538
-0.2231085 -0.2403644 0.74043351
-0.14273649 -0.1414693 0.72519839
-0.1058294 -0.37616619 0.81730467
-0.14256179 -0.27782729 0.78747749
-0.21717849 -0.185013 0.73615932
-0.061649751 -0.1584039 0.82766211
-0.1324732 -0.35011899 0.80101818
-0.042272929 -0.28301129 0.84566683
-0.05110319 -0.2375516 0.84261352
-0.06030957 -0.3720156 0.83984917
-0.065728262 -0.1890709 0.83159178
-0.06861195 -0.4308736 0.84092063
-0.187391 -0.2893272 0.76690269
-0.2204182 -0.2957857 0.74403268
-0.065718517 -0.23404729 0.83140182
-0.1269504 -0.28258559 0.80205572
-0.1475814 -0.35425529 0.78801101
-0.1598662 -0.187143 0.77513093
-0.034026921 -0.1687713 0.85662568
-0.1797422 -0.35125801 0.76752442
-0.040353332 -0.15525889 0.84437561
-0.071231827 -0.28189239 0.82839811
-0.20898519 -0.28590411 0.74573272
-0.22981539 -0.4082388 0.73653299
-0.1331408 -0.33089471 0.79862702
-0.1008467 -0.34146899 0.822936
-0.049226459 -0.1437678 0.76023108
-0.00073985761 -0.1409179 0.7063663
-0.05671313 -0.31803411 0.84669513
-0.0032946579 -0.43395749 0.83556777
-0.038684011 -0.3862153 0.85355419
-0.0089068105 -0.4458324 0.84186202
-0.055873781 -0.1903547 0.83797288
0.01168539 -0.1357411 0.72514832
-0.13214169 -0.31557149 0.79124022
0.45056701 -0.48236671 0.33478051
0.039358329 -0.1545067 0.57520843
-0.037176639 -0.2017559 0.84831822
-0.042640328 -0.1422694 0.84091371
-0.054268751 -0.35427871 0.85071123
-0.05593333 -0.408696 0.85186738
-0.03537995 -0.35367861 0.85315812
-0.1116568 -0.22283269 0.80104291
-0.052971151 -0.34178039 0.83816338
-0.1922572 -0.14523999 0.71220553
-0.14012121 -0.1554351 0.78259343
-0.20139509 -0.38192651 0.75470662
-0.137087 -0.29618639 0.79775423
-0.073349454 -0.29228339 0.82902169
-0.05026124 -0.26686659 0.83907777
-0.069321543 -0.14686941 0.78359181
-0.1079315 -0.1394238 0.73806918
-0.01554482 -0.1444716 0.82334942
-0.02119172 -0.1380295 0.8185389
0.00086279208 -0.13985661 0.68950319
0.046346229 -0.14191189 0.73691589
0.01169658 -0.1513544 0.78481781
-0.07017608 -0.24517921 0.8315205
-0.067540146 -0.22085389 0.83114612
-0.09035892 -0.16465621 0.81401807
-0.1162292 -0.25725791 0.80402428
-0.1002357 -0.14895231 0.78246111
0.50358713 -0.55095512 0.2026718
-0.2076356 -0.45748091 0.74795628
-0.090978377 -0.1378976 0.64489472
-0.15822279 -0.1436443 0.65125638
-0.1366006 -0.1485742 0.67819679
-0.092540652 -0.1455145 0.75007552
-0.085961893 -0.1406236 0.64107221
-0.108875 -0.143134 0.62179887
-0.12836879 -0.308368 0.78996807
-0.1418291 -0.4125514 0.79536241
0.36036071 -0.44390029 0.2267551
-0.076045103 -0.1467572 0.76694852
0.367134 -0.42561051 0.2405314
0.03191993 -0.1410988 0.64388388
-0.036084801 -0.14089561 0.76026613
-0.070424147 -0.35724851 0.83487183
-0.083403341 -0.31605321 0.82354343
-0.077425733 -0.1418553 0.80225629
-0.037454631 -0.4007138 0.84744579
-0.025014659 -0.3064976 0.86006808
-0.080720998 -0.33580989 0.82966131
-0.019648779 -0.27869141 0.85328692
-0.069763973 -0.2257129 0.82734197
-0.055555999 -0.23861501 0.83903593
0.031929191 -0.1376984 0.76550531
-0.02888404 -0.3266978 0.85163301
-0.112316 -0.1422838 0.79478639
-0.026588921 -0.198276 0.84098858
-0.02858144 -0.36344451 0.85302478
-0.035930078 -0.2391254 0.86438388
-0.076939367 -0.2516425 0.82587123
-0.1260338 -0.3454231 0.80947518
-0.1672394 -0.29261529 0.77241522
0.02076292 -0.39461961 0.79421347
-0.038703982 -0.14340229 0.81279749
-0.052428499 -0.24821401 0.8432278
0.03621057 -0.42864111 0.78633142
-0.0305744 -0.27917159 0.86286223
-0.1331266 -0.20308711 0.79799807
-0.2165699 -0.45559111 0.75442952
-0.047148991 -0.1712887 0.83833951
0.05209158 -0.1412321 0.71645391
-0.042770311 -0.1402902 0.62147498
-0.01922768 -0.1387955 0.68845749
-0.00038650629 -0.2251216 0.82388282
-0.02493793 -0.38419011 0.849222
-4.5150518e-06 -0.1821027 0.82472408
0.01968864 -0.1401587 0.66876853
0.041836679 -0.13631161 0.66044968
0.070590049 -0.14074691 0.71707302
-0.01136775 -0.14007071 0.80352652
-0.099618793 -0.1406991 0.80380422
-0.20021079 -0.1519603 0.75211221
0.002364188 -0.1453111 0.62322801
-0.02206802 -0.1431748 0.6187048
-0.1795477 -0.1420735 0.69598919
-0.18719929 -0.1460554 0.71299231
-0.058649238 -0.14036889 0.61551058
-0.05790722 -0.1434813 0.6523124
-0.088758208 -0.1400145 0.64642292
-0.001275897 -0.14890879 0.82966429
-0.068020329 -0.1376254 0.61934
0.061139569 -0.38302451 0.72988528
-0.12588561 -0.1479146 0.60118192
-0.1395728 -0.141608 0.65555102
-0.154458 -0.14463259 0.75617927
-0.037615702 -0.44097379 0.85993838
-0.1040906 -0.1407599 0.58562332
-0.090290733 -0.1398854 0.62193662
0.046490729 -0.1365633 0.72611099
-0.1435326 -0.1403228 0.70480812
-0.053182319 -0.1418464 0.77991939
-0.1067671 -0.1368392 0.7214632
-0.1266612 -0.1449953 0.61600041
-0.016429739 -0.14216641 0.68842858
-0.1266984 -0.1328879 0.59577101
0.02781862 -0.1415928 0.72850913
-0.0716502 -0.1437269 0.65942508
-0.032284651 -0.2167787 0.86069071
-0.04136733 -0.3998417 0.85628062
-0.034417499 -0.3506228 0.86178511
-0.1295107 -0.1426294 0.79489732
-0.2075534 -0.26058751 0.75103122
-0.1980437 -0.1710694 0.76184893
-0.20074061 -0.1428908 0.74129152
-0.1872915 -0.14045709 0.74893528
-0.077830963 -0.1420628 0.70222151
-0.190694 -0.15761539 0.76247549
-0.1211221 -0.25943261 0.81281602
-0.05544515 -0.33807269 0.84832788
-0.06565205 -0.39338419 0.84622562
-0.053962421 -0.37251681 0.85242891
-0.03295045 -0.25900841 0.86196429
0.072829798 -0.3830969 0.71637392
-0.1095651 -0.1333275 0.79602909
-0.051790521 -0.28961429 0.84598458
-0.033379208 -0.1705422 0.85920572
-0.18817019 -0.29220599 0.76525861
-0.0058067292 -0.4278281 0.83323509
-0.1409837 -0.39277029 0.79899538
-0.1461686 -0.1470959 0.76013267
-0.21545459 -0.14674801 0.74160677
-0.1403192 -0.1766661 0.79075688
-0.1526919 -0.1448558 0.78138351
-0.2293261 -0.40407389 0.74058068
-0.16784211 -0.1454348 0.70378321
-0.1823796 -0.2810685 0.76360911
-0.2016295 -0.1580665 0.75265592
-0.14317819 -0.1445515 0.71615821
-0.052815311 -0.1793713 0.83945388
-0.20186611 -0.2203238 0.75861681
-0.15857451 -0.1995685 0.78025538
-0.035867698 -0.1419107 0.75594842
-0.1211529 -0.1414941 0.66819
-0.1659126 -0.1748734 0.77412832
-0.16382851 -0.1393647 0.76310861
-0.2077468 -0.1400684 0.72859567
