# .PCD v0.7 - Point Cloud Data file format
VERSION 0.7
FIELDS x y z normal_x normal_y normal_z curvature
SIZE 4 4 4 4 4 4 4
TYPE F F F F F F F
COUNT 1 1 1 1 1 1 1
WIDTH 611
HEIGHT 1
VIEWPOINT 0 0 0 1 0 0 0
POINTS 611
DATA ascii
-0.3706992 -1.267308 0.66995722 -0.00010790049 -1 0.00011855944 0
-0.3514083 -1.267308 0.72011 -0.00011484056 -0.99999988 0.00045183743 0
-0.42776421 -1.267308 0.79922748 -0.00019568438 -0.99999994 0.00029036967 0
-0.33301139 -1.267308 0.63550031 -0.00012924866 -1 6.5928671e-06 0
-0.2285054 -1.267308 0.6158554 0.060437039 -0.96788174 -0.24403332 0.067413062
-0.34627989 -1.267308 0.60475218 -0.00021793765 -0.99999988 0.00038861451 0
-0.44944081 -1.267308 0.7540884 -0.00012410153 -1 6.5762964e-05 3.9105031e-05
-0.52909118 -1.267308 0.88465011 0.0006363088 -0.99999982 2.4861661e-06 0.00086932525
-0.44226909 -1.267308 0.68684882 -0.00054524309 -0.99999976 0.00042978063 0
-0.54898453 -1.267308 0.91767031 0.00093259115 -0.9999994 0.0004473041 0.00078356912
-0.46208131 -1.267308 0.82953882 -0.00020170381 -0.99999988 0.0003974241 0
-0.3080191 -1.267308 0.63469338 -3.9677743e-05 -1 0.00010787548 0
-0.54120833 -1.267308 0.82553953 0.00032007173 -0.99999988 -0.000275133 0.0012146292
-0.52596921 -1.267308 0.87333298 0.00010999568 -1 -9.6531214e-05 0.00060174556
-0.50164729 -1.267308 0.66135329 -0.00057623559 -0.9999997 0.00046797801 0
-0.4756045 -1.267308 0.58796322 0.010322014 -0.99984539 -0.014231835 0.0049746516
-0.5328781 -1.267308 0.82904541 0.00019900255 -1 -0.00020460172 0.0009142934
-0.53176212 -1.267308 0.69383568 0.00032247574 -0.9999997 -0.00060812384 0.00070049899
-0.53509349 -1.267308 0.79793268 0.00050122564 -0.9999997 -0.00065249094 0.0014652748
-0.45037189 -1.267308 0.59412771 0.015846698 -0.99947327 -0.028319763 0.012469478
-0.49651399 -1.267308 0.59152359 0.00053199037 -0.99999976 -0.00042169337 0
-0.51449043 -1.267308 0.58867371 -0.00021018987 -1 -1.4031161e-05 0
-0.4756529 -1.267308 0.58131289 0.010151374 -0.99983042 -0.015359641 0.0050448887
-0.51421273 -1.267308 0.58591181 -0.00024214768 -0.99999988 6.448674e-05 0
-0.51295489 -1.267308 0.79274023 0.00013395638 -1 -7.7922348e-05 0.00067151088
-0.32235509 -1.267308 0.80887192 -0.00014336762 -0.99999994 0.00033814189 0
-0.18938529 -1.267308 0.72389328 0.00013519892 -0.99999899 -0.0014203354 0.0014690008
-0.25499031 -1.267308 0.65610331 0.026809979 -0.99585295 -0.086937167 0.031166805
-0.1317282 -1.267308 0.68857211 0.028861625 -0.9994598 -0.015723528 0.017505744
-0.16697749 -1.267308 0.63264668 0.032105692 -0.97904885 -0.20107867 0.067532308
-0.22621129 -1.267308 0.65885568 -0.0016677864 -0.99347562 -0.11403283 0.039260622
-0.20589779 -1.267308 0.68673718 0.00036247287 -0.99999154 -0.0040811403 0.0025639052
-0.2871345 -1.267308 0.71580619 -1.2442725e-06 -0.99999994 -0.00030209162 0
-0.25981939 -1.267308 0.68078703 0.00084051531 -0.99999595 -0.0027207981 0.0011554399
-0.1935544 -1.267308 0.62762082 0.052249119 -0.95119113 -0.30414727 0.087962404
-0.25973621 -1.267308 0.78540051 -0.00035451155 -0.99999988 0.00036831328 0
-0.41452181 -1.267308 0.82792491 -0.00015775501 -0.99999994 0.00022024191 0.00025914246
-0.45849109 -1.267308 0.74854672 -0.00016701054 -1 0.00011917816 3.9495528e-05
-0.54184401 -1.267308 0.79609841 0.00047161285 -0.99999982 -0.00035705985 0.0015835792
-0.33125639 -1.267308 0.60116142 -0.00060226239 -0.99999887 0.0013788504 0
-0.35232329 -1.267308 0.60078251 -0.00045559689 -0.99999928 0.0010979846 0
-0.435491 -1.267308 0.74041212 -0.00020912797 -1 0.00027454065 4.5207515e-05
-0.44845289 -1.267308 0.64719671 -6.7660119e-05 -1 0.00020201536 0
-0.3221772 -1.267308 0.63940972 1.9799418e-05 -1 -0.00019169858 0
-0.40362081 -1.267308 0.67937171 -0.00017278537 -0.99999994 0.00049821712 0
-0.45141369 -1.267308 0.61165673 0.00036135133 -0.99999982 -0.00046033747 0.00079677533
-0.3232654 -1.267308 0.68371862 0.00027273677 -0.99999988 -0.00034746845 0
-0.40262011 -1.267308 0.56811821 0.078754589 -0.95063937 -0.3001377 0.076478317
-0.3038812 -1.267308 0.67501569 0.00020381578 -0.99999994 -0.00031896163 7.8948273e-05
-0.47648951 -1.267308 0.58595568 0.010691149 -0.99983048 -0.01499172 0.0050489027
-0.432942 -1.267308 0.53967208 0.17255291 -0.92064166 -0.35020629 0.088518292
-0.48956171 -1.267308 0.79947197 -0.00013585194 -1 6.6647437e-05 0.00026278823
-0.4031418 -1.267308 0.64278942 -3.7628248e-05 -1 -0.00016301138 0
-0.1356457 -1.267308 0.65925938 0.039893538 -0.99814653 -0.045957625 0.025804566
-0.4041467 -1.267308 0.55151939 0.10835026 -0.82635814 -0.55262321 0.095794283
-0.2515485 -1.267308 0.61107939 0.091294944 -0.85748476 -0.50634485 0.091542788
-0.30750379 -1.267308 0.605959 0.019601183 -0.99957407 -0.021620363 0.016661644
-0.140613 -1.267308 0.67620802 0.027832191 -0.99944931 -0.018064039 0.017020272
-0.40574211 -1.267308 0.55294478 0.093684286 -0.86339998 -0.49574551 0.095131181
-0.40110481 -1.267308 0.64312172 9.332536e-07 -1 -4.0780338e-05 0
-0.3718144 -1.267308 0.6987403 -5.6458261e-06 -1 0.00016736877 0
-0.55983561 -1.267308 0.78884691 0.00040401486 -0.99999952 -0.00084421149 0.0018300415
-0.32815129 -1.267308 0.59452832 -0.00067975273 -0.99999803 0.0018410905 0
-0.13450231 -1.267308 0.64804929 0.06321317 -0.99312472 -0.098525673 0.04582803
-0.46728399 -1.267308 0.84197181 -0.00016184257 -0.99999994 0.00037249323 3.8568669e-05
-0.44748411 -1.267308 0.70001209 -0.00043942343 -0.99999976 0.00045087145 0
-0.1874091 -1.267308 0.67131948 0.00083247077 -0.99986333 -0.016509179 0.0051788744
-0.12550379 -1.267308 0.68453872 0.035329599 -0.99917847 -0.019852867 0.020035639
-0.46012101 -1.267308 0.69198447 -0.00042428105 -0.9999997 0.00056579598 0
-0.228668 -1.267308 0.85491312 -0.00017335339 -0.99999994 0.00040422648 0
-0.2909182 -1.267308 0.91151643 2.5471609e-05 -1 -7.1987008e-05 0.00047173415
-0.13708811 -1.267308 0.69075072 0.026667573 -0.99955153 -0.013623047 0.016246345
-0.1687986 -1.267308 0.67547101 0.001265123 -0.99988383 -0.0151869 0.005341542
-0.32062119 -1.267308 0.68580431 0.00023912362 -0.99999994 -0.00028753511 0
-0.376385 -1.267308 0.64317667 0 -1 0 0
-0.2176117 -1.267308 0.83686697 -6.7067544e-05 -1 0.00021583537 0.00024741303
-0.1380375 -1.267308 0.64677757 0.05379707 -0.99464917 -0.088197514 0.043758057
-0.1049975 -1.267308 0.6697405 0.062082291 -0.99737662 -0.037225589 0.031328615
-0.15389401 -1.267308 0.86924797 -1.5934664e-05 -1 -0.00014226754 0.00051613559
-0.1121388 -1.267308 0.66535991 0.052877374 -0.99784029 -0.038970221 0.026845537
-0.1775483 -1.267308 0.83083647 -1.6210586e-05 -1 0.00018324393 3.5256249e-05
-0.1075706 -1.267308 0.69317693 0.065618239 -0.99752557 -0.025234887 0.042654861
-0.1019241 -1.267308 0.6913445 0.064459592 -0.99749738 -0.029049959 0.044994127
-0.222803 -1.267308 0.96966851 0.00013507347 -1 0.00027050203 0.00049027696
-0.1111239 -1.267308 0.77174437 0.027916819 -0.99914718 0.030424029 0.029531803
-0.1535528 -1.267308 0.8703723 -3.5816563e-05 -1 -1.8452998e-06 0.0004151859
-0.1589386 -1.267308 0.87527651 -6.5466629e-05 -1 -1.4519865e-06 0.00028008688
-0.15122931 -1.267308 0.64502633 0.038662594 -0.99170703 -0.12256585 0.05018894
-0.18961009 -1.267308 0.96553743 0.00024395742 -0.99999982 0.00048158909 0.00016087403
-0.1667725 -1.267308 0.91431361 0.00014441654 -0.99999994 0.00044940421 0.00033886195
-0.1200883 -1.267308 0.74200392 0.016457997 -0.99984622 0.0060546184 0.01496715
-0.2012561 -1.267308 1.0267169 0.00013501375 -1 -0.0001872883 0.0012810921
-0.17405809 -1.267308 0.93008882 -9.2908755e-05 -1 0.00014478985 0.00017055226
-0.1534474 -1.267308 0.89360279 0.049070816 -0.99872154 0.012135519 0.056694273
-0.1992626 -1.267308 1.0080301 7.7486184e-05 -1 -0.00016939602 0.0011810724
-0.1097058 -1.267308 0.76946437 0.021468988 -0.99943793 0.02574503 0.025084702
-0.20282941 -1.267308 1.029552 4.3529311e-05 -1 -0.00033818194 0.0012435061
-0.21256091 -1.267308 0.91861057 -0.00017978987 -1 0.00033008464 0
-0.2193813 -1.267308 1.054175 4.2145737e-05 -1 -0.00031408359 0.00091262773
-0.1739817 -1.267308 0.94403058 -4.0708623e-05 -1 0.00015298753 0.00017158955
-0.1626008 -1.267308 0.89945048 0.04219792 -0.99910778 0.0017219043 0.041191
-0.1129447 -1.267308 0.7498883 0.037029762 -0.99884051 0.030764854 0.036643635
-0.097223103 -1.267308 0.70267558 0.080784321 -0.99650759 -0.021130173 0.060978051
-0.1019328 -1.267308 0.71381217 0.053698383 -0.99855179 -0.0032977676 0.042211238
-0.095718592 -1.267308 0.69483882 0.070545763 -0.99697512 -0.032616366 0.049278613
-0.1643564 -1.267308 0.91150242 0.00017559031 -0.99999994 0.00041753839 0.0006838211
-0.17617071 -1.267308 0.98354048 -0.0001765784 -1 -0.00026506765 0.00063900824
-0.1770343 -1.267308 0.80998838 -4.3302862e-05 -1 0.00011417338 0
-0.15097579 -1.267308 0.74919373 0.00017391072 -0.99999982 -0.00047993488 0.00010409253
-0.1616181 -1.267308 0.76410002 -9.0347836e-05 -1 0.00034131674 0
-0.1290852 -1.267308 0.71173668 0.030071843 -0.99954623 0.0017142246 0.019660974
-0.203769 -1.267308 0.89556652 -0.00034226166 -0.99999988 0.00045502017 0
-0.15792011 -1.267308 0.90198863 0.04540626 -0.99896055 0.0040123817 0.044066481
-0.1103555 -1.267308 0.7769202 0.025722684 -0.99939191 0.023539748 0.034029201
-0.1855112 -1.267308 0.98497832 -6.1476036e-05 -1 -1.0321432e-05 0.00029320631
-0.17416871 -1.267308 0.91291147 -3.7097809e-05 -0.99999994 0.00030784728 0.00016059527
-0.1319223 -1.267308 0.76951349 0.026168138 -0.99945641 0.020054504 0.021561561
-0.1045879 -1.267308 0.6904155 0.041872386 -0.99868768 -0.029488869 0.02486041
-0.1537127 -1.267308 0.9049114 0.12617947 -0.99163753 0.027087241 0.08317858
-0.1780875 -1.267308 0.8318789 -8.1506165e-05 -1 0.00017949805 3.5394343e-05
-0.2165651 -1.267308 1.054897 3.0887513e-05 -1 -0.00030610399 0.0010215362
-0.1774566 -1.267308 0.91935182 -2.5694692e-06 -0.99999994 0.00029733076 0.00015940794
-0.156202 -1.267308 0.87721789 0.040070966 -0.99911416 0.012850377 0.035061557
-0.1124312 -1.267308 0.75098151 0.038812995 -0.99871957 0.032448702 0.038142554
-0.1752204 -1.267308 0.90319258 -0.00012509625 -1 0.00014911492 0.00031248483
-0.1244412 -1.267308 0.74245429 0.016237188 -0.99985439 0.0052499496 0.01396648
-0.1769587 -1.267308 0.8081212 -4.3302862e-05 -1 0.00011417338 0
-0.2021666 -1.267308 0.98488772 2.1471194e-05 -1 6.7861001e-05 0.00029058164
-0.162504 -1.267308 0.91028929 0.062993027 -0.99800289 -0.0046931989 0.043552395
-0.1616897 -1.267308 0.91395402 6.0905506e-05 -0.99999994 0.00028781377 0.00066879386
-0.1185514 -1.267308 0.76600689 0.030028714 -0.99910599 0.029758127 0.023453726
-0.1056935 -1.267308 0.74321097 0.015029183 -0.99986953 0.0059193131 0.017856389
-0.1188601 -1.267308 0.71704698 0.05465414 -0.99850309 0.0021131609 0.035724409
-0.18939801 -1.267308 0.99492568 3.8659335e-05 -1 -0.0002697208 0.00081900356
-0.1827132 -1.267308 0.95180911 0.00022713843 -0.99999982 0.00048732301 0.00017681817
-0.1817957 -1.267308 0.99176133 3.7052301e-05 -1 -5.9567898e-05 0.00051462662
-0.114241 -1.267308 0.76272929 0.026122931 -0.99926436 0.02807916 0.022186887
-0.203042 -1.267308 1.033234 4.3529311e-05 -1 -0.00033818194 0.0012435061
-0.1179723 -1.267308 0.78446472 0.034443315 -0.99915898 0.022246163 0.031958811
-0.15045691 -1.267308 0.91748983 7.7472279e-05 -1 2.5470621e-05 0.00095029728
-0.1081526 -1.267308 0.75750959 0.04632974 -0.99824834 0.036792144 0.04639928
-0.1369773 -1.267308 0.65505809 0.040839888 -0.9979654 -0.048961263 0.02706534
-0.169274 -1.267308 0.90493637 0.059228305 -0.99823362 -0.0046506412 0.040133953
-0.1075774 -1.267308 0.68875217 0.050288908 -0.99836361 -0.02722137 0.026790507
-0.1314037 -1.267308 0.65808398 0.042436238 -0.99790418 -0.048851617 0.027332332
-0.1156197 -1.267308 0.74388659 0.015626341 -0.99985975 0.0060186614 0.015553978
-0.1231211 -1.267308 0.73317552 0.016169025 -0.99984604 0.0068153325 0.014596486
-0.1731956 -1.267308 0.94724298 9.7234079e-05 -1 0.00019753736 0.00017706389
-0.1050386 -1.267308 0.73050791 0.02877916 -0.99958265 -0.0024988465 0.024579585
-0.1978185 -1.267308 0.85187441 -0.00027385002 -0.99999976 0.00061842898 0
-0.1036253 -1.267308 0.74134147 0.015254701 -0.99985975 0.0069050207 0.019149136
-0.1114798 -1.267308 0.75179619 0.039565817 -0.9986726 0.032977909 0.039170578
-0.095686167 -1.267308 0.69443291 0.070627317 -0.99698335 -0.032186877 0.048586313
-0.15482131 -1.267308 0.89419389 0.048832875 -0.99875486 0.010205895 0.054045241
-0.10248 -1.267308 0.71423358 0.053698383 -0.99855179 -0.0032977676 0.042211238
-0.1000579 -1.267308 0.70400172 0.077789836 -0.99677634 -0.019640308 0.058928616
-0.1071212 -1.267308 0.74486607 0.017264279 -0.99982989 0.0064929924 0.01855894
-0.2697404 -1.267308 1.057819 0.00031755972 -0.99999923 -0.0011962219 0.00069281599
-0.20073131 -1.267308 0.89456052 -0.00029025975 -0.99999988 0.00036890968 0
-0.21026251 -1.267308 0.91943431 -0.00013850356 -0.99999988 0.00026873543 0
-0.20773891 -1.267308 1.032598 4.3529311e-05 -1 -0.00033818194 0.0012435061
-0.21673781 -1.267308 1.055252 3.0887513e-05 -1 -0.00030610399 0.0010215362
-0.20188379 -1.267308 1.030903 4.3529311e-05 -1 -0.00033818194 0.0012435061
-0.2049529 -1.267308 0.98101759 2.558855e-05 -1 7.1555223e-05 0.00029504465
-0.1733311 -1.267308 0.78438121 -0.00010783519 -0.99999994 0.0004719815 0
-0.1063977 -1.267308 0.74169272 0.014753918 -0.9998697 0.006550903 0.017111434
-0.2032728 -1.267308 1.011438 0.00011388278 -1 -0.00016751868 0.0011417693
-0.13341729 -1.267308 0.71461833 0.02880566 -0.99958277 0.0021168103 0.019147282
-0.096581399 -1.267308 0.69770652 0.067506738 -0.99715221 -0.033622567 0.047588315
-0.1023227 -1.267308 0.66924661 0.067099497 -0.99692243 -0.040536087 0.033198915
-0.1693556 -1.267308 0.77708209 -8.6100546e-05 -0.99999976 0.00067893876 0
-0.1967833 -1.267308 0.9704926 0.00012247299 -0.99999994 0.00044749587 4.8586731e-05
-0.1935586 -1.267308 0.99598873 1.3979873e-05 -1 -0.00013715743 0.0005210659
-0.2048026 -1.267308 1.0488141 7.0303526e-05 -1 -0.00025481672 0.0011119943
-0.1083937 -1.267308 0.70808369 0.072443418 -0.99722934 -0.01689944 0.051483538
-0.1113711 -1.267308 0.67099923 0.052354682 -0.99812359 -0.031752519 0.026439959
-0.1713293 -1.267308 0.76199609 -0.00010554997 -1 0.00027440093 0
-0.2071252 -1.267308 0.91843963 -0.00011360213 -1 0.00026154448 0
-0.1091478 -1.267308 0.68994188 0.047963783 -0.99849933 -0.026433604 0.025703223
-0.22915851 -1.267308 0.93190068 -9.7453718e-05 -0.99999994 0.00042867207 0
-0.1053071 -1.267308 0.69426358 0.061604142 -0.9977451 -0.026640397 0.041536484
-0.1849906 -1.267308 0.84132659 -0.00015407604 -0.99999994 0.00039394651 3.7412177e-05
-0.2108068 -1.267308 0.64054447 0.0030076529 -0.98317069 -0.1826648 0.060188822
-0.22083589 -1.267308 0.61636269 0.041920155 -0.97044849 -0.23763931 0.069931254
-0.1518019 -1.267308 0.68102801 0.011745488 -0.99986094 -0.011839085 0.010855313
-0.23165499 -1.2640474 0.61101854 0.074372821 -0.87769014 -0.47342238 0.095672287
-0.22381879 -1.267308 0.62635469 0.043906603 -0.97429204 -0.22096877 0.061836917
-0.33177599 -1.267308 0.60364622 -0.00038002498 -0.99999946 0.001002404 0
-0.3989459 -1.267308 0.65778267 -6.5052249e-05 -1 0.00013366152 0
-0.41925511 -1.267308 0.61147583 0.0083193574 -0.99987125 -0.013720772 0.0063935802
-0.32312211 -1.267308 0.63293028 4.4212298e-05 -1 -1.3685845e-06 0
-0.26928091 -1.267308 0.98036611 6.427052e-05 -0.99999982 -0.00058001495 0.00069455738
-0.42358899 -1.267308 0.79277182 -0.00027105221 -0.99999994 0.00022856618 0
-0.49145451 -1.267308 0.57174188 0.018955668 -0.99957436 -0.022176433 0.0065115038
-0.33966279 -1.267308 0.63963628 -0.00022596556 -1 0.00016822047 0
-0.28712991 -1.267308 0.65943158 0.0025216364 -0.99999386 -0.0024049829 0.00040681104
-0.201061 -1.267308 0.72540021 8.1772341e-05 -0.9999994 -0.0011375982 0.0011500601
-0.19102021 -1.267308 0.65613788 -0.0046871365 -0.99270457 -0.12048153 0.05008937
-0.33001009 -1.267308 0.68944061 0.00013073209 -1 -0.00016534314 0
-0.2100884 -1.267308 0.66578138 -0.012551873 -0.99680549 -0.078875169 0.025997441
-0.24036179 -1.267308 0.69205558 5.9782971e-05 -0.9999997 -0.00071463629 0.0009157678
-0.40740451 -1.267308 0.64701849 -0.00014267254 -1 -1.137466e-05 0
-0.46383509 -1.267308 0.55944598 0.066565976 -0.99306691 -0.096886821 0.038541555
-0.4133842 -1.267308 0.61135262 0.0076366556 -0.99986434 -0.014594309 0.0065802257
-0.30412009 -1.267308 0.66271907 0.00017212161 -0.99999982 -0.00044308612 0.00023008148
-0.51240569 -1.267308 0.78711349 0.00023490516 -1 -6.1135914e-05 0.00078395894
-0.29487941 -1.267308 0.72096401 1.9460665e-05 -1 -0.00019080989 0
-0.31030151 -1.267308 1.005381 0.0003315247 -0.99999982 -0.00046098605 0.00083394349
-0.14660241 -1.267308 0.67691052 0.025675621 -0.99953991 -0.016146213 0.016645737
-0.2474388 -1.267308 0.98681188 -1.057575e-05 -1 0.00015998409 0.00010356755
-0.47950611 -1.267308 0.58282411 0.012198395 -0.99978542 -0.016745092 0.0051373066
-0.49652499 -1.267308 0.54485792 0.025315536 -0.99932003 -0.026805216 0.0089127067
-0.2307573 -1.267308 0.85862362 -0.00018652767 -0.99999994 0.00038623571 0
-0.303249 -1.267308 0.83186883 -7.5856362e-05 -0.99999982 0.00062652759 0
-0.16848201 -1.267308 0.68978459 0.00014350838 -0.99998993 -0.0044800262 0.0031971531
-0.41752261 -1.267308 0.73381251 -0.00018939644 -0.99999994 0.00036096951 0
-0.25264651 -1.267308 0.84154832 -0.00019478681 -0.99999976 0.00061892351 0
-0.29281989 -1.267308 0.91356069 5.2082749e-05 -1 -0.00015291161 0.00055807451
-0.43610021 -1.267308 0.96220487 -0.00020630064 -1 -0.00020585777 0
-0.30039811 -1.267308 0.88992441 -7.0391514e-05 -1 0.0002012058 0.00011402882
-0.32112131 -1.267308 0.897237 -0.00010818549 -1 7.0539674e-05 0.00047547705
-0.1760723 -1.267308 0.63382852 0.034724731 -0.9727664 -0.22917162 0.072999559
-0.14196239 -1.267308 0.67011172 0.030563036 -0.99898535 -0.033078775 0.021240409
-0.1727116 -1.267308 0.63511169 0.020320576 -0.97600985 -0.21677601 0.073648192
-0.1927205 -1.267308 0.72772062 0.0001274159 -0.99999934 -0.0011491303 0.0012353349
-0.49402019 -1.267308 0.6063816 0.0002212111 -1 -0.00033623911 0
-0.4455283 -1.267308 0.68889081 -0.00054738339 -0.99999976 0.00046571341 0
-0.45868081 -1.267308 0.71305448 -0.00044469821 -0.99999976 0.00055430626 0
-0.33093101 -1.267308 0.67959642 0.00018446121 -1 -0.00018867925 0
-0.2542147 -1.267308 0.71232587 -1.0226815e-05 -0.99999994 -0.00042209376 0
-0.23656321 -1.267308 0.63406909 0.028900024 -0.98708266 -0.15758389 0.051079083
-0.32027519 -1.267308 0.68100488 0.00028610841 -0.99999988 -0.00028748129 0
-0.33713049 -1.267308 0.63390422 -0.00010954323 -1 -8.4051208e-05 0
-0.37283179 -1.267308 0.67100507 -5.944302e-05 -1 -8.4797233e-05 0
-0.2888481 -1.267308 0.64431542 0.016583975 -0.99957776 -0.023856502 0.011627351
-0.30152881 -1.267308 0.69852638 0.00014570873 -1 -0.00026344098 0
-0.4559809 -1.267308 0.59820628 0.0064075193 -0.99991095 -0.011708344 0.0046409038
-0.3195968 -1.267308 0.63917732 2.5314659e-05 -1 -9.3421739e-05 0
-0.41361061 -1.267308 0.56301928 0.092037968 -0.93401188 -0.34518218 0.090716809
-0.3169857 -1.267308 0.84018749 -0.00018858415 -0.99999988 0.00044950307 0
-0.2702623 -1.267308 0.61220741 0.098368883 -0.92250335 -0.37324396 0.087127663
-0.25235051 -1.267308 0.78807539 -0.00017610654 -0.99999994 0.00028589476 0
-0.40987119 -1.267308 0.55787688 0.091072187 -0.89515519 -0.43635204 0.097676575
-0.46859601 -1.267308 0.59002447 0.0090377275 -0.9998551 -0.014426939 0.0051943092
-0.40440601 -1.267308 0.56774569 0.092539012 -0.94845557 -0.3030982 0.085559748
-0.37034521 -1.267308 0.89903492 -5.3372249e-05 -1 -7.2318988e-05 0.00032271701
-0.48315039 -1.267308 0.55025268 0.013126664 -0.99969113 -0.021101138 0.0065162741
-0.52052569 -1.267308 0.60118991 -0.00082632311 -0.99999964 0.00029063187 0
-0.3226859 -1.267308 0.81780958 -0.00014605449 -0.99999988 0.00054806197 0
-0.37005061 -1.267308 0.81707692 -0.00011303017 -0.99999994 0.00038816209 0
-0.32581711 -1.267308 0.81125212 -0.00010106101 -0.99999994 0.00033788063 0
-0.43468401 -1.267308 0.57203603 0.12380109 -0.97708416 -0.1731468 0.067405432
-0.3803896 -1.267308 0.93276542 5.5695731e-05 -0.99999994 -0.00032627693 0.0007219711
-0.53859907 -1.267308 0.90852708 0.0014153776 -0.99999887 0.00047529276 0.0008019724
-0.44831929 -1.267308 0.69291151 -0.00060338224 -0.99999976 0.00046643958 0
-0.3548921 -1.267308 0.74218911 -0.00020724155 -0.99999982 0.00056561886 0
-0.41337761 -1.267308 0.84593469 4.6709327e-05 -1 -9.5452851e-06 0.0005194727
-0.45079699 -1.267308 0.75658113 -1.7683189e-05 -1 9.9072684e-05 0.00012374128
-0.40560201 -1.267308 0.80916792 -0.00022244254 -1 0.00023260668 3.7696387e-05
-0.20703781 -1.267308 0.6894244 0.0004373673 -0.99999148 -0.0041025104 0.0025368908
-0.46813139 -1.267308 0.83709902 -0.0001295336 -0.99999994 0.000481439 0
-0.4491277 -1.267308 0.64218998 -0.00010466293 -1 0.00013334939 0
-0.34271479 -1.267308 0.7174651 -0.00013183476 -1 0.00015779401 0
-0.32333431 -1.267308 0.6578992 1.7868049e-05 -1 -0.00022695345 0
-0.42186111 -1.267308 0.83903593 2.7082788e-05 -1 -0.00013042511 0.00012021891
-0.31706801 -1.267308 0.72777748 -9.3596449e-05 -0.99999994 0.00024372726 0
-0.50272608 -1.267308 0.66238159 -0.00070179632 -0.99999964 0.00043099999 0
-0.48381561 -1.267308 0.79990149 -2.2853466e-05 -1 0.00019431933 0.00012138582
-0.46180061 -1.267308 0.67429489 -0.00052267284 -0.9999997 0.0006004239 0
-0.40296891 -1.267308 0.64233601 -3.7628248e-05 -1 -0.00016301138 0
-0.30066061 -1.267308 0.66898853 0.00019506065 -1 -0.00040750045 0.00041685751
-0.3022975 -1.267308 0.61975932 0.03013215 -0.99917305 -0.027302548 0.017312443
-0.1431904 -1.267308 0.64556938 0.035969578 -0.99392217 -0.10404267 0.046270572
-0.51524472 -1.267308 0.58503407 -0.00024214768 -0.99999988 6.448674e-05 0
-0.5340091 -1.267308 0.7949996 0.0003830468 -0.99999976 -0.00052332226 0.0014963476
-0.32895291 -1.267308 0.75606668 -0.00034180074 -0.99999982 0.00047893898 0
-0.33748251 -1.267308 0.80069357 -0.00024803277 -0.99999994 0.00022059746 0
-0.52103251 -1.267308 0.8630175 7.653518e-05 -1 7.6303542e-05 0.0005249402
-0.4581635 -1.267308 0.75445282 -5.3164549e-06 -1 0.00013589623 0.00012351261
-0.45329541 -1.267308 0.64382398 -1.4568699e-05 -1 4.0478615e-05 0
-0.48029739 -1.267308 0.56881589 0.010687548 -0.99979323 -0.017299483 0.0051935222
-0.49019989 -1.267308 0.54498959 0.020804321 -0.99945146 -0.025767663 0.0080809034
-0.4960306 -1.267308 0.58899069 0.00060766522 -0.99999976 -0.00039625051 0
-0.37643671 -1.267308 0.63769728 3.3188957e-05 -1 -4.8394766e-05 0
-0.42475039 -1.267308 0.55928171 0.13103162 -0.95402813 -0.26955697 0.081323281
-0.4891856 -1.267308 0.79814541 -0.00010782383 -1 0.00016772171 0.00025547919
-0.53332633 -1.267308 0.80825961 0.00053885352 -0.99999964 -0.00055664335 0.0013840706
-0.243692 -1.267308 0.60766232 0.073417261 -0.77137321 -0.6321339 0.093505025
-0.52607518 -1.267308 0.81327188 0.00035920378 -0.99999994 -0.00027620996 0.00098092784
-0.52052242 -1.267308 0.86888659 2.1520724e-05 -1 6.0746414e-05 0.00036506818
-0.31464899 -1.267308 0.95123261 0.00021449378 -0.99999988 -0.00028350559 0.00072420819
-0.28961229 -1.267308 0.60955328 0.050914917 -0.99578536 -0.076283477 0.037109192
-0.237234 -1.267308 0.97826159 -2.7477281e-05 -1 0.00015172119 0.00011607165
-0.19662561 -1.267308 0.63497061 0.033465445 -0.96593082 -0.2566275 0.081285328
-0.29637259 -1.267308 0.74631542 -3.0116875e-05 -1 -3.8975915e-05 0
-0.29043359 -1.267308 1.020395 0.00018042893 -0.99999982 -0.00042179375 0.00073460996
-0.2258487 -1.267308 0.6917879 8.272894e-05 -0.9999997 -0.00075187668 0.0014187943
-0.2169205 -1.267308 0.83248168 -6.4040185e-05 -1 0.00012504903 0.0002492248
-0.18753169 -1.267308 0.74006063 0.00024145556 -0.99999958 -0.00091022591 0.00081614841
-0.1432656 -1.267308 0.68251377 0.025827453 -0.99952376 -0.016891396 0.016170608
-0.2358932 -1.267308 0.84604788 -0.00012495343 -0.99999994 0.00025068753 0
-0.1496031 -1.267308 0.67513019 0.025368411 -0.99930108 -0.027456418 0.018911682
-0.39010409 -1.267308 0.81885117 -8.6201951e-05 -0.99999994 0.00044251629 0
-0.49831209 -1.267308 0.66856992 -0.00026257124 -0.99999988 0.0001640782 0
-0.49807861 -1.267308 0.5429616 0.025534915 -0.99932027 -0.026590779 0.009328614
-0.1768972 -1.267308 0.70564872 0.00026984539 -0.99999917 -0.0012212219 0.002615121
-0.47029799 -1.267308 0.59111798 0.0089897802 -0.9998737 -0.013104659 0.0050890385
-0.33641651 -1.267308 0.69981122 3.9282779e-05 -0.99999994 -0.0002312445 0
-0.3091515 -1.267308 0.71446121 0 -1 0 0
-0.28334561 -1.267308 0.78629178 -0.00048141705 -0.99999976 0.00043516999 0
-0.33961099 -1.267308 0.88189238 -0.00033154889 -0.99999988 0.00046778377 0
-0.2039679 -1.267308 0.63755101 0.0098388074 -0.97613448 -0.21694382 0.07341221
-0.367706 -1.267308 0.83529651 -0.00011101648 -0.99999982 0.00060019398 0
-0.3183662 -1.267308 0.69751519 0.00014932906 -1 -0.00024952332 0
-0.49865201 -1.267308 0.56593931 8.4848827e-05 -1 -2.1334716e-05 0
-0.47901839 -1.267308 0.59533149 0.00041263673 -0.99999982 -0.00049627555 5.9727416e-05
-0.50712848 -1.267308 0.59846169 -5.4290886e-05 -1 -9.0217334e-05 0
-0.41316351 -1.267308 0.89257717 3.3515811e-05 -1 -0.00026482891 0.00060181512
-0.4999803 -1.267308 0.85183817 -0.00023981383 -0.99999994 -0.0002667791 0.00052178791
-0.56606859 -1.267308 0.7768923 0.00037268712 -0.99999964 -0.0007716486 0.0018275212
-0.44674739 -1.267308 0.87224269 -2.8668861e-05 -1 -5.9903473e-06 0.00035965379
-0.3892498 -1.267308 0.57295382 0.062210128 -0.94590843 -0.31841347 0.082995601
-0.2229235 -1.267308 0.92128128 -0.00021983875 -0.99999964 0.00079166651 0
-0.3761023 -1.267308 0.58476472 0.036574744 -0.97040588 -0.23869339 0.062593542
-0.25396559 -1.267308 0.61809689 0.09114106 -0.94443882 -0.31579849 0.080994628
-0.1154422 -1.267308 0.68064928 0.046921317 -0.99852788 -0.027213072 0.023560086
-0.33954549 -1.267308 0.96114582 0.000149058 -1 -0.00017695855 0.0006982162
-0.1699461 -1.267308 0.67344171 0.0014396561 -0.9998799 -0.015431878 0.0053286348
-0.17640141 -1.267308 0.63824028 0.021815971 -0.97535568 -0.2195573 0.073244818
-0.18503749 -1.267308 0.75176841 0.0001545069 -0.99999982 -0.00058274681 0
-0.15103909 -1.267308 0.69691777 0.00047772654 -0.9999994 -0.00095538422 0.0028550359
-0.1457036 -1.267308 0.69346178 0.024447709 -0.99962145 -0.012619018 0.014950786
-0.51052213 -1.267308 0.79246902 0.00013395638 -1 -7.7922348e-05 0.00067151088
-0.35476261 -1.267308 0.85190701 -0.0001664888 -0.99999994 0.00030384824 0
-0.32111469 -1.267308 0.92006361 0.0002086271 -0.99999994 -0.00025439434 0.00089847337
-0.47111389 -1.267308 0.57695079 0.024909697 -0.99919397 -0.031476878 0.013945932
-0.1737316 -1.267308 0.67120081 0.001627859 -0.9998734 -0.015828647 0.0053811367
-0.17335103 -1.2558205 0.61807233 0.31388849 -0.57680809 -0.75416613 0.11885232
-0.1119727 -1.267308 0.66304219 0.053975221 -0.99773949 -0.040032856 0.029431917
-0.16822539 -1.267308 0.68079978 0.00036731677 -0.99998778 -0.0049442947 0.003127658
-0.27396959 -1.267308 0.83696818 -7.3496114e-05 -0.99999988 0.00052728626 0
-0.49318621 -1.267308 0.59505278 0.00057122699 -0.99999964 -0.00055489904 0
-0.1683908 -1.267308 0.68557233 0.00019805832 -0.99998957 -0.0045739259 0.0031485676
-0.43085119 -1.267308 0.59839201 0.066335306 -0.99115258 -0.11496149 0.043790877
-0.16611549 -1.267308 0.65755677 0.01172965 -0.99715483 -0.074462302 0.033755027
-0.53231978 -1.267308 0.68927789 0.00029826586 -0.9999997 -0.00069959374 0.00062883069
-0.18760739 -1.267308 0.67384112 0.00077379064 -0.99986422 -0.016458904 0.0050554196
-0.2087609 -1.267308 0.83405399 -7.0622453e-05 -1 0.00010684562 0.00024999995
-0.1050267 -1.267308 0.68108571 0.04686287 -0.99846905 -0.029386614 0.027408462
-0.4549357 -1.267308 0.59476602 0.017259149 -0.99950629 -0.026255799 0.012167008
-0.28994191 -1.267308 0.7288357 2.3774601e-05 -1 -8.3357671e-05 0
-0.50206292 -1.267308 0.57294112 8.9902431e-05 -1 -2.6316322e-05 0
-0.1377645 -1.267308 0.66512942 0.034387376 -0.99872029 -0.037085857 0.02347111
-0.50533289 -1.267308 0.5342226 -0.0012353978 -0.99999857 0.0011620499 0
-0.26206821 -1.267308 0.60932517 0.09187609 -0.85925239 -0.50323367 0.088232853
-0.1463948 -1.267308 0.63142258 0.052756801 -0.98419058 -0.16907287 0.055190165
-0.45643279 -1.267308 0.7438584 -0.00020917453 -1 4.8633894e-05 0
-0.41685209 -1.267308 0.7433461 -5.8448946e-05 -0.99999994 0.00034003321 0
-0.4377301 -1.267308 0.75291562 -8.7677683e-05 -0.99999994 0.00017857952 4.1676994e-05
-0.53237867 -1.267308 0.80036712 0.00073981431 -0.99999952 -0.00066148036 0.001403717
-0.5297327 -1.267308 0.83114833 0.00019900255 -1 -0.00020460172 0.0009142934
-0.4794012 -1.267308 0.80665392 -7.2290793e-05 -0.99999988 0.00035371142 0
-0.52133662 -1.267308 0.86553103 0.00010190724 -1 0.00014839423 0.000504906
-0.52070481 -1.267308 0.87426841 7.0529626e-05 -1 1.2689744e-05 0.00051772827
-0.38848889 -1.267308 0.82403302 -3.4631597e-05 -0.99999994 0.00041058983 4.3789696e-05
-0.3733269 -1.267308 0.86520833 -9.1370443e-05 -0.99999994 0.00027575283 0
-0.37218469 -1.267308 0.81445128 -6.3826803e-05 -0.99999988 0.00046032082 0
-0.4168745 -1.267308 0.94586229 5.6875073e-05 -1 -0.00022441658 0.00047359202
-0.5385443 -1.267308 0.91646302 0.00089155318 -0.99999952 0.0004520186 0.00072212034
-0.31833351 -1.267308 0.96623409 0.00020724371 -0.99999988 -0.00028977173 0.00074391463
-0.4164665 -1.267308 0.56310833 0.10682832 -0.94657463 -0.30427656 0.090222567
-0.272798 -1.267308 0.99773252 0.00010253058 -0.99999976 -0.00065803883 0.0007092763
-0.2636424 -1.267308 1.040341 0.00016344876 -0.99999982 -0.0005563749 0.00071029447
-0.47555599 -1.267308 0.54982162 0.045411356 -0.99673617 -0.066744395 0.032563586
-0.2984238 -1.267308 0.889543 -8.0033547e-05 -0.99999994 0.00019770648 3.7216243e-05
-0.45202661 -1.267308 0.5871762 0.051846739 -0.99575889 -0.076001868 0.032640986
-0.49005431 -1.267308 0.53677702 0.022318223 -0.99941456 -0.025931848 0.0090123164
-0.33581781 -1.267308 1.007511 0.00052735413 -0.99999976 -0.00053924927 0.00056399027
-0.49326211 -1.267308 0.60564309 0.00021116606 -0.99999988 -0.00033181175 0
-0.4561336 -1.267308 0.63542891 0.00014760486 -1 -7.0962909e-05 0
-0.28825581 -1.267308 1.033694 0.00013302836 -0.99999988 -0.00041258513 0.00066773588
-0.4596473 -1.267308 0.67318839 -0.00038178201 -0.99999976 0.00050505233 0
-0.47583029 -1.267308 0.58520907 0.010137774 -0.9998318 -0.015285016 0.0050457902
-0.46383691 -1.267308 0.56108648 0.066688821 -0.99332285 -0.094139569 0.037903477
-0.4353922 -1.267308 0.57127678 0.12521385 -0.97713846 -0.17181939 0.066768393
-0.49278671 -1.267308 0.54218531 0.022095745 -0.99940866 -0.02634565 0.008748794
-0.4386344 -1.267308 0.59904498 0.045542359 -0.99655324 -0.069335662 0.02774396
-0.3322618 -1.267308 0.94338882 0.00016062531 -1 -0.00027295071 0.00077198265
-0.4383665 -1.267308 0.64951628 -0.00015354648 -1 0.0003155926 0
-0.4502804 -1.267308 0.61065853 0.00033557857 -0.99999988 -0.00037135868 0.00095928507
-0.4796755 -1.267308 0.55222237 0.028033758 -0.99878454 -0.040542115 0.018552598
-0.31618279 -1.267308 0.73147738 -6.8257898e-05 -1 0.0001197783 0
-0.2738508 -1.267308 0.89061058 -3.1587286e-05 -0.99999994 0.00027653074 0.00011722327
-0.32963681 -1.267308 0.69210303 0.00013598797 -1 -0.000205369 0
-0.2253834 -1.267308 0.94013608 -8.8809167e-05 -0.99999994 0.00035626467 0
-0.275769 -1.267308 0.86562753 -0.00014319787 -0.99999994 0.00043614415 0
-0.2841413 -1.267308 0.80013192 -0.00037927474 -0.99999988 0.00046902121 0
-0.33834249 -1.267308 0.71685213 -0.00012084145 -1 0.00015129319 0
-0.2766788 -1.267308 0.83626682 -9.4245275e-05 -0.99999988 0.00052325713 0
-0.27953261 -1.267308 0.7905494 -0.00046655055 -0.99999976 0.00046702413 0
-0.2882652 -1.267308 0.91287643 5.2856678e-05 -1 -3.1891154e-06 0.00035650632
-0.31859601 -1.267308 0.81791222 -0.00016272829 -0.99999994 0.00047222633 0
-0.3799049 -1.267308 0.81789362 -0.00010325462 -0.99999994 0.00025403555 0
-0.28763899 -1.267308 0.74694699 1.2844e-05 -1 7.3771407e-05 0
-0.36617249 -1.267308 0.89022797 -0.00010455742 -1 0.00016857965 3.4731594e-05
-0.3320618 -1.267308 0.6275655 -7.9285666e-05 -1 9.8805558e-06 0
-0.4171465 -1.267308 0.61541969 0.000225847 -1 -0.00011800114 0
-0.23271661 -1.267308 0.63320982 0.031010324 -0.98588544 -0.16452406 0.051713634
-0.28250599 -1.267308 0.65225393 0.0101729 -0.99988955 -0.010836043 0.0022241501
-0.33037549 -1.267308 0.59938699 -0.00058058905 -0.99999869 0.0014790666 0
-0.216286 -1.267308 0.61757648 0.050357729 -0.96462208 -0.25878239 0.074763715
-0.3199642 -1.267308 0.63194323 -4.2623151e-06 -1 0.00010370217 0
-0.4498643 -1.267308 0.59882373 0.015024779 -0.99954486 -0.026159272 0.012167181
-0.45314801 -1.267308 0.59748107 0.016064532 -0.99953657 -0.025857469 0.012304932
-0.3973774 -1.267308 0.66542703 3.7973827e-05 -1 0.00015230887 0
-0.4983626 -1.267308 0.56725132 6.1218016e-05 -1 8.8315275e-05 0
-0.28566471 -1.267308 0.64679831 0.01122079 -0.99986947 -0.011625956 0.0019694953
-0.5330013 -1.267308 0.53440022 -0.001376358 -0.99999863 0.0009250255 0
-0.53453618 -1.267308 0.54050779 -0.0014581111 -0.99999845 0.0010273439 0
-0.29926541 -1.267308 0.66497838 0.00016000809 -1 -0.00038332661 0.00030571315
-0.40123859 -1.267308 0.64115369 3.7483412e-07 -1 -3.9901501e-05 0
-0.46969759 -1.267308 0.58397049 0.024746634 -0.99919248 -0.031652711 0.014505871
-0.2674512 -1.267308 0.60381091 0.091757216 -0.84773743 -0.52241933 0.088657893
-0.2592611 -1.267308 0.61704731 0.09525007 -0.92640948 -0.36427042 0.083889529
-0.37427181 -1.267308 0.58703721 0.023552338 -0.98157215 -0.18963537 0.053745396
-0.54444182 -1.267308 0.91049278 0.00089155318 -0.99999952 0.0004520186 0.00072212034
-0.55785531 -1.267308 0.9364351 0.00018653288 -1 -3.5656212e-05 0.0007781146
-0.48102471 -1.267308 0.66918641 -0.00055798981 -0.9999997 0.00049608084 0
-0.48508641 -1.267308 0.58499593 0.015020408 -0.99974066 -0.017115409 0.0050953738
-0.32385331 -1.267308 0.75077832 -0.00027294166 -0.99999994 0.00034558075 0
-0.33803731 -1.267308 0.64736748 -0.00015344138 -1 0.0001368396 0
-0.30384091 -1.267308 0.86218828 -5.1835355e-05 -0.9999997 0.00070962869 0
-0.28498861 -1.267308 0.61017531 0.099806115 -0.97161716 -0.21447323 0.082442395
-0.28668591 -1.267308 0.61072952 0.094446711 -0.98222375 -0.16222295 0.069319822
-0.2913346 -1.267308 0.72276878 3.2632521e-05 -1 -0.00023688852 0
-0.40587059 -1.267308 0.55421919 0.091008596 -0.87205994 -0.48086271 0.095451057
-0.33164129 -1.267308 0.80028212 -0.00015490578 -0.99999994 0.00040464196 0
-0.46316779 -1.267308 0.59107178 0.020622538 -0.9993211 -0.03053033 0.013333496
-0.31408581 -1.267308 0.80155653 -0.00021431438 -0.99999988 0.00048242963 0
-0.46426329 -1.267308 0.55970353 0.066565976 -0.99306691 -0.096886821 0.038541555
-0.3052147 -1.267308 0.60580927 0.019852446 -0.9995575 -0.022152338 0.017706415
-0.37753049 -1.267308 0.58919251 0.020271318 -0.98363239 -0.17904304 0.050319798
-0.3841995 -1.267308 0.76047349 -0.00019356613 -0.99999994 0.0003950698 0
-0.44515651 -1.267308 0.88120621 6.860451e-05 -0.99999994 -0.00035672149 0.0007122127
-0.40198731 -1.267308 0.56671113 0.081172042 -0.93724304 -0.33909652 0.078934923
-0.3359201 -1.267308 0.8868295 -0.00016585615 -1 0.00021050003 3.8503527e-05
-0.2565375 -1.267308 0.78749102 -0.00024453545 -0.99999988 0.00037877564 0
-0.229514 -1.267308 0.96219999 -4.8467282e-06 -1 0.00023695068 0.0002806299
-0.2181825 -1.267308 0.92003751 -0.00020746027 -0.99999976 0.00076200755 0
-0.4994947 -1.267308 0.58442271 0.00052377832 -0.9999997 -0.00055433012 0
-0.37160119 -1.267308 0.57884181 0.042144325 -0.96595162 -0.25526726 0.073029831
-0.46183369 -1.267308 0.69897878 -0.00040181659 -0.9999997 0.00063075242 0
-0.4096348 -1.267308 0.60923761 0.016695332 -0.99878931 -0.046271618 0.018586576
-0.2137228 -1.267308 0.83158392 -4.4108601e-05 -1 0.0001193993 0.00038712105
-0.3768608 -1.267308 0.57210642 0.071196705 -0.93145651 -0.35681918 0.083311029
-0.50689572 -1.267308 0.57030642 -0.00021450741 -0.99999994 6.7281711e-05 0
-0.35490581 -1.267308 0.58406252 -0.00087917445 -0.99999779 0.0019063245 0
-0.42080101 -1.267308 0.55547428 0.14697462 -0.9433704 -0.29740679 0.087065496
-0.386379 -1.267308 0.57323271 0.068007626 -0.95476627 -0.28947592 0.074655317
-0.2314084 -1.267308 0.84919018 -0.00012267123 -1 0.00032596732 3.7058013e-05
-0.31096151 -1.267308 1.011132 0.0002472137 -0.99999988 -0.00031858214 0.00059831486
-0.3327224 -1.267308 0.63316572 -0.00011855431 -1 -0.00013500897 0
-0.45635721 -1.267308 0.71397352 -0.00044469821 -0.99999976 0.00055430626 0
-0.2461279 -1.267308 0.69042158 6.6919194e-05 -0.9999997 -0.00076154008 0.00085678109
-0.40680829 -1.267308 0.83940512 9.1744252e-05 -1 -1.6963702e-05 0.00055757171
-0.243605 -1.267308 0.83231711 -0.00010695607 -0.99999994 0.0003889598 4.1398496e-05
-0.2474345 -1.267308 0.83850777 -0.00011881494 -0.99999988 0.00034796944 0
-0.26264229 -1.267308 0.7182523 3.9807481e-05 -0.99999988 -0.00050944346 0
-0.47836161 -1.267308 0.56940901 0.010701495 -0.99980265 -0.016737085 0.0051661143
-0.2353631 -1.267308 0.68839937 -0.00035679748 -0.99999267 -0.0038014352 0.001379982
-0.4290632 -1.267308 0.60089302 0.064333029 -0.99203736 -0.10827419 0.042983163
-0.2486117 -1.267308 0.65908432 0.020974841 -0.99546975 -0.09273681 0.032261241
-0.21915559 -1.267308 0.6263082 0.05666944 -0.96255189 -0.26510856 0.077921957
-0.45298421 -1.267308 0.61750591 0.00043771355 -0.99999988 -0.000474378 0.00073438667
-0.47694099 -1.267308 0.58035332 0.010590815 -0.99982357 -0.015515594 0.0050843498
-0.25860459 -1.267308 0.61895108 0.093881674 -0.9447459 -0.31407237 0.08033663
-0.47321481 -1.267308 0.58339572 0.009979479 -0.99983823 -0.014961689 0.0050509246
-0.44448039 -1.267308 0.9731648 0.00011941329 -0.99999976 0.00064516696 0
-0.46876821 -1.267308 0.85115159 -0.00023008591 -0.99999994 0.00011453067 0.00011894664
-0.49980199 -1.267308 0.86233181 -0.00034675296 -0.99999988 -0.00025946533 0.00051758368
-0.4774299 -1.267308 0.67970568 -0.00070327887 -0.99999958 0.00055704062 0
-0.49507561 -1.267308 0.59108478 0.00053199037 -0.99999976 -0.00042169337 0
-0.51955569 -1.267308 0.54896909 -0.0017454373 -0.9999975 0.0014206156 0
-0.31570911 -1.267308 0.84580177 -0.00016941823 -0.99999976 0.00056644744 0
-0.30229169 -1.267308 0.6279639 0.015580717 -0.99973363 -0.017025357 0.014347613
-0.44322371 -1.267308 0.57766181 0.085298739 -0.98795617 -0.12909934 0.049856659
-0.27011731 -1.267308 0.84401709 -8.7750865e-05 -0.99999988 0.00053273636 0
-0.57491362 -1.267308 0.82168108 0.00073602662 -0.9999997 -0.00034738018 0.0011565107
-0.36884549 -1.267308 0.85915828 -0.00013549175 -0.99999994 0.00039267016 0
-0.52893668 -1.267308 0.55467558 -0.0017616034 -0.99999756 0.0013308983 0
-0.25232819 -1.267308 0.72446388 1.132002e-05 -1 -0.00027426513 0
-0.248568 -1.267308 0.79583949 -0.00020392936 -0.99999982 0.00058655906 0
-0.29837671 -1.267308 0.60070908 0.051639434 -0.99614692 -0.070885189 0.031734161
-0.35199019 -1.267308 0.85947591 -0.00019299748 -0.99999982 0.00042499162 0
-0.25104049 -1.267308 0.61434132 0.076287173 -0.90877354 -0.41025716 0.090084858
-0.28488159 -1.267308 0.70181769 4.8118978e-05 -0.99999994 -0.0002531491 0
-0.2048445 -1.267308 0.67211258 -0.002095964 -0.99971479 -0.023790119 0.0059147705
-0.36747599 -1.267308 0.8457244 -0.00014325936 -0.99999994 0.00032445486 0
-0.3026787 -1.267308 0.70359129 0.00011464266 -1 -0.00030046876 0
-0.3267729 -1.267308 0.59649158 -0.00055631233 -0.99999863 0.0015691989 0
-0.43832949 -1.267308 0.94162709 0.0002459237 -1 -4.9345879e-05 0.00021799933
-0.49602121 -1.267308 0.54691851 0.025375124 -0.99931431 -0.026965693 0.008590851
-0.46186271 -1.267308 0.58790839 0.020549137 -0.9993251 -0.030448167 0.014135087
-0.38918859 -1.267308 0.58374703 0.04461363 -0.97052228 -0.23684619 0.065178461
-0.2883926 -1.267308 0.68581527 0.00020372868 -0.99999994 -0.00040447057 0
-0.32533351 -1.267308 0.68735093 0.00018335358 -0.99999994 -0.00024792185 0
-0.4156577 -1.267308 0.74343443 -6.757363e-05 -0.99999994 0.00036305506 0
-0.2553139 -1.267308 0.7071749 -2.8824419e-05 -0.99999982 -0.00060185522 0
-0.41390431 -1.267308 0.82725698 -1.7334121e-05 -1 9.2216826e-05 0.00025879822
-0.39031219 -1.267308 0.94113231 5.4933465e-05 -0.99999988 -0.00056105957 0.00060670445
-0.2603263 -1.267308 0.70675421 -7.0214286e-05 -0.99999994 -0.00046479073 0
-0.3205511 -1.267308 0.65978003 -1.3330524e-05 -1 -0.00030824615 0
-0.44603091 -1.267308 0.64189881 -8.7848894e-05 -1 9.4403054e-05 0
-0.1714386 -1.267308 0.62899047 0.03887412 -0.96718764 -0.25107166 0.078326225
-0.1992795 -1.267308 0.66806918 -0.0015037564 -0.99969482 -0.024657141 0.0062297592
-0.3172906 -1.267308 0.63475633 2.4231624e-05 -1 -1.0210856e-06 0
-0.22902358 -1.2633049 0.60932642 0.074502669 -0.89468068 -0.44044963 0.090068996
-0.2963337 -1.267308 0.68941557 0.00014847677 -0.99999982 -0.00054551451 0
-0.2773093 -1.267308 0.68761343 0.00016538698 -0.99999994 -0.00037729612 0.0003042662
-0.51070052 -1.267308 0.57727438 -0.00023856093 -0.99999988 0.00038010775 0
-0.51069993 -1.267308 0.58469278 -0.00011382924 -1 3.1839507e-05 0
-0.49602741 -1.267308 0.54413682 0.025253117 -0.99931556 -0.027032871 0.0091723036
-0.51121008 -1.267308 0.60935467 -6.3377258e-05 -1 -8.2125545e-05 0
-0.50924683 -1.267308 0.54285258 -0.00078302593 -0.99999928 0.00090197165 0
-0.51396251 -1.267308 0.59501618 -0.00021226764 -1 -6.2376757e-06 0
-0.33421049 -1.267308 0.68627572 0.00016371562 -1 -0.00020083398 0
-0.37237039 -1.267308 0.64257532 -6.8637375e-05 -1 -8.1706647e-05 0
-0.51417261 -1.267308 0.8004539 0.00020901115 -0.99999994 -6.4491818e-05 0.0006918484
-0.36349571 -1.267308 0.89288098 -9.0083966e-05 -1 8.9709669e-05 0.00010536813
-0.2202639 -1.267308 0.68773532 -0.00065348751 -0.99999225 -0.0038938185 0.0019180479
-0.2984958 -1.267308 0.72615898 -3.2855434e-07 -1 -3.9518556e-05 0
-0.42510939 -1.267308 0.81102282 -0.00012744578 -1 0.00027798064 0
-0.2482612 -1.267308 0.69673687 3.52891e-05 -0.99999958 -0.00086614367 0.00019623525
-0.4740167 -1.267308 0.58539242 0.009979479 -0.99983823 -0.014961689 0.0050509246
-0.44724891 -1.267308 0.63647223 9.7928882e-05 -1 -0.00012410895 0
-0.3910498 -1.267308 0.85464108 -2.6135323e-05 -1 0.00020818702 0.00012770992
-0.330302 -1.267308 0.63969731 4.186817e-05 -1 -9.4792136e-05 0
-0.45864409 -1.267308 0.58684778 0.019658526 -0.99935293 -0.030121636 0.013139676
-0.41205251 -1.267308 0.91683209 -9.5127625e-06 -0.99999994 -0.00021815377 0.00070870237
-0.32794139 -1.267308 0.76921809 -0.00026129038 -0.99999982 0.00051962811 0
-0.1954484 -1.267308 0.71618611 0.00018892143 -0.99999911 -0.0012764479 0.0016876465
-0.42187351 -1.267308 0.79704231 -0.00019837751 -0.99999994 0.00034956433 0
-0.25017929 -1.267308 0.70983469 4.9309883e-06 -0.99999976 -0.0006266922 0
-0.1807677 -1.267308 0.74733138 0.00022225405 -0.99999982 -0.00059450977 0.00027221537
-0.35525331 -1.267308 0.87848657 -0.00024876377 -0.99999988 0.00044404966 0
-0.321235 -1.267308 0.81312579 -0.00016717534 -0.99999988 0.00045821673 0
-0.32541299 -1.267308 0.67386931 0.00013152527 -1 -0.00013719709 0
-0.210731 -1.267308 0.63334471 0.024728684 -0.97552699 -0.21848446 0.0654414
-0.1880642 -1.267308 0.65863371 -0.0077626077 -0.99500692 -0.099503845 0.038721137
-0.43902299 -1.267308 0.6809265 -0.00052204292 -0.99999976 0.00046550279 0
-0.1379278 -1.267308 0.66726881 0.034317963 -0.99872118 -0.037125573 0.023437301
-0.34631369 -1.267308 0.70685858 -4.8276183e-06 -1 -0.00011493945 0
-0.1450592 -1.267308 0.67026478 0.028900355 -0.99907041 -0.031986598 0.021014869
-0.1419791 -1.267308 0.67205441 0.029559033 -0.9990356 -0.032467578 0.020440962
-0.4193019 -1.267308 0.60518628 0.0403056 -0.99541903 -0.086696707 0.036019966
-0.163767 -1.267308 0.67472571 0.0010517346 -0.99987656 -0.015680466 0.0055014109
-0.3735176 -1.267308 0.63895041 5.9438102e-05 -1 -9.4069237e-06 0
-0.20217741 -1.267308 0.68301928 -0.0010372347 -0.99997753 -0.0066243177 0.002709504
-0.1664905 -1.267308 0.6773982 0.0010161222 -0.999879 -0.015524456 0.0054314816
-0.40487489 -1.267308 0.55392742 0.094624124 -0.86321282 -0.49589309 0.096000247
-0.18858659 -1.267308 0.62861413 0.055878717 -0.95147896 -0.30259749 0.087743171
-0.1919149 -1.267308 0.62937617 0.042960897 -0.95857972 -0.2815657 0.085255653
-0.2842856 -1.267308 0.71951431 -2.3023174e-05 -1 -0.00025316823 0
-0.1641831 -1.267308 0.68860638 0.00018374233 -0.99999225 -0.0039448864 0.0032066761
-0.49039751 -1.267308 0.80313641 -0.00013319618 -1 0.00024764077 0.00012635888
-0.4934622 -1.267308 0.85287893 -0.00023707967 -0.99999994 -0.00027436338 0.00055773219
-0.50524092 -1.267308 0.75784528 -1.7326382e-05 -1 -0.00021883563 0.0006528165
-0.46739271 -1.267308 0.70892471 -0.00046817315 -0.99999976 0.00049026584 0
-0.54305333 -1.267308 0.8380425 0.0001747878 -1 -0.00015682972 0.00071143958
-0.51919281 -1.267308 0.57756299 -0.00063773611 -0.9999997 0.00051655737 0
-0.484106 -1.267308 0.5908342 0.00054930354 -0.99999964 -0.00065715809 5.8986745e-05
-0.50366032 -1.267308 0.66794318 -0.00043790654 -0.99999988 0.0002273814 0
-0.50208998 -1.267308 0.58812588 0.00052102754 -0.99999982 -0.00039837323 0
-0.47884539 -1.267308 0.60025811 0.00038155558 -0.99999976 -0.00054996624 0.00011266598
-0.53413773 -1.267308 0.69877893 0.00029042325 -0.99999988 -0.00048176173 0.00053845835
-0.45824629 -1.267308 0.61507177 0.0003370755 -0.99999994 -0.00036152606 0.00063425879
-0.2501311 -1.267308 0.84895259 -0.00018552553 -0.99999994 0.00044409238 0
-0.40196541 -1.267308 0.7805993 -0.00020657115 -0.99999994 0.00032828591 0
-0.41140071 -1.267308 0.89460689 0.00011154701 -1 -0.00032228549 0.00083721126
-0.28127289 -1.267308 0.60604882 0.10319871 -0.9380877 -0.33066818 0.087497868
-0.4957605 -1.267308 0.53063327 0.025971362 -0.99927491 -0.027840186 0.0095939375
-0.1520818 -1.267308 0.67061001 0.012234376 -0.9995898 -0.025894051 0.014529848
-0.1291334 -1.267308 0.69333488 0.028773746 -0.99947131 -0.015139744 0.017132912
-0.1734587 -1.267308 0.67412102 0.0014664156 -0.99988073 -0.015378616 0.0053952876
-0.16950101 -1.267308 0.67867881 0.00085647078 -0.99987531 -0.015770059 0.005383343
-0.1472061 -1.267308 0.68125492 0.024655262 -0.99956059 -0.016457703 0.01570086
-0.1396347 -1.267308 0.69857228 0.025965242 -0.99956328 -0.014107128 0.015769146
-0.2207932 -1.267308 0.68997443 -0.00021157802 -0.99999815 -0.0019228923 0.0016259706
-0.1838982 -1.267308 0.74194151 0.00024455486 -0.99999958 -0.00080664619 0.00083592138
-0.14608219 -1.267308 0.70464188 0.00040124261 -0.9999994 -0.00099792506 0.0026546172
-0.1662806 -1.267308 0.68233413 0.00032594422 -0.9999879 -0.0048968969 0.0031388777
-0.36523291 -1.267308 0.68534899 -6.4590356e-05 -1 2.7875232e-05 0
-0.31648529 -1.267308 0.91967481 0.00020515718 -0.99999988 -0.00026015964 0.00089132902
-0.252875 -1.267308 1.023405 8.5457235e-05 -0.99999988 -0.00026851398 0.00088380277
-0.32747141 -1.267308 0.73730612 -0.00021822068 -1 0.00016866771 0
-0.4511219 -1.267308 0.54011381 0.12425469 -0.97165352 -0.20112261 0.06974148
-0.1892761 -1.267308 0.63449031 0.029851627 -0.96813548 -0.24864163 0.078431517
-0.1740562 -1.267308 0.65423888 0.015312485 -0.99434114 -0.10512476 0.043102413
-0.41546381 -1.267308 0.57453179 0.09037742 -0.97273642 -0.21357869 0.075936601
-0.1330332 -1.267308 0.66119409 0.039207086 -0.9982298 -0.044722814 0.02634285
-0.24154709 -1.267308 0.98321122 -2.1099002e-05 -1 7.3516996e-05 3.4780867e-05
-0.1641351 -1.267308 0.66742653 0.0020691769 -0.99985814 -0.016719993 0.0055681779
-0.46500349 -1.267308 0.58384752 0.020549137 -0.9993251 -0.030448167 0.014135087
-0.44317821 -1.267308 0.63565981 8.9766188e-05 -1 -0.00014764261 0
-0.31898499 -1.267308 0.64634669 -9.4761399e-06 -1 -8.6847351e-05 0
-0.48834929 -1.267308 0.58207572 0.00050391105 -0.99999964 -0.00074755365 0
-0.1973861 -1.267308 0.62841672 0.048754834 -0.95303494 -0.29891026 0.088966899
-0.16421551 -1.267308 0.63719219 0.028150739 -0.98931009 -0.14308378 0.052648816
-0.1561794 -1.267308 0.67717719 0.011722197 -0.99964553 -0.023905253 0.013845378
-0.1608846 -1.267308 0.77001941 -0.00013060372 -0.99999994 0.00048022554 0
-0.1881683 -1.267308 0.66706848 -0.0041296906 -0.99959224 -0.028253278 0.0067512076
