# .PCD v0.7 - Point Cloud Data file format
VERSION 0.7
FIELDS x y z
SIZE 4 4 4
TYPE F F F
COUNT 1 1 1
WIDTH 1437
HEIGHT 1
VIEWPOINT 0 0 0 1 0 0 0
POINTS 1437
DATA ascii
-0.0150126 -0.96169531 0.73392338
0.15739921 -0.91037601 0.71354842
-0.061438669 -0.90941691 0.67833477
0.01773099 -0.92890108 0.70592272
0.154006 -0.93748683 0.74496299
-0.1799818 -0.97146672 0.75450069
-0.1757827 -0.93468618 0.7060957
0.16721091 -1.0102071 0.69415033
-0.2394435 -0.97487682 0.74994361
0.057829201 -0.98463178 0.76947951
-0.1748649 -0.93268001 0.70477152
0.074996673 -0.99915308 0.75594407
0.099300534 -1.049356 0.71486068
-0.03918865 -1.060932 0.71622342
0.0093894899 -1.0590889 0.70446968
-0.091906369 -1.056152 0.75504088
-0.14942931 -1.0375659 0.7395702
-0.029361811 -1.059744 0.70700133
-0.019325931 -1.058026 0.75564438
2.8029081e-05 -1.057822 0.72274703
-0.4245058 -1.0324481 0.60893768
-0.062052209 -1.058085 0.75474763
0.07068792 -0.90364122 0.70361388
-0.2032643 -0.89238268 0.72858149
0.073887527 -1.0599 0.69549358
0.1613242 -0.94870597 0.70793009
0.17024051 -1.020695 0.69757861
0.1512078 -0.98942041 0.69470918
-0.074091896 -0.89158511 0.8887254
0.01329568 -1.058042 0.71199661
-0.103777 -1.059406 0.74459177
-0.15801971 -1.001353 0.72272748
-0.081623167 -0.89335757 0.82154238
-0.1220436 -1.058147 0.71095192
0.15335619 -1.0455739 0.6869818
0.068828307 -1.056515 0.73227042
0.079038501 -1.07084 0.67452782
0.067273676 -1.236598 0.65553302
0.118085 -1.215107 0.65669632
0.096363597 -1.203557 0.65582138
0.05607846 -1.071414 0.67518479
0.051896069 -1.2428989 0.65124041
-0.13409249 -1.237481 0.65364021
0.116042 -0.89231199 0.75653332
0.091029182 -0.89364731 1.0478981
0.1290044 -0.89535707 1.028972
-0.0373534 -0.89556283 0.91704202
0.0101839 -1.058542 0.75660121
-0.1304885 -0.89344722 0.87102753
0.15778171 -0.90018469 0.95267761
0.0146348 -0.89370388 0.80965322
-0.01377062 -0.89233512 0.93303388
0.05115607 -0.89235091 0.88280451
-0.001150161 -0.8915453 0.78602558
-0.1300035 -0.89388442 0.79503721
-0.13382401 -0.8937881 0.81716901
-0.1604144 -1.012467 0.73467618
0.1346875 -1.1156009 0.66577917
0.1497248 -0.89322561 1.008063
0.021735881 -0.89246321 1.086123
-0.1116351 -1.013908 0.77836329
0.1657066 -0.98466432 0.7016049
0.087986723 -1.063051 0.69633102
0.1550182 -0.89040601 0.96623892
0.1568176 -1.05985 0.67508662
0.086893439 -1.126552 0.66773587
0.01461646 -0.89522719 0.99795651
0.02963141 -1.062713 0.74650067
0.066251673 -1.179226 0.66173482
0.077771246 -0.89052379 1.004647
0.1237056 -0.89367461 0.75714409
-0.041995969 -0.90872651 0.70970541
-0.023370391 -0.89685148 0.76557642
-0.20908681 -1.042747 0.69377148
-0.064911649 -0.89103949 0.93760169
-0.0037231741 -0.8918699 1.0000809
0.041762181 -0.89402372 0.89855373
0.02588171 -1.05764 0.77574527
0.1545811 -0.90180522 0.71057349
0.071444258 -0.8940509 1.056901
-0.1253932 -1.181046 0.66465151
0.061122209 -0.89142603 0.75641859
-0.1080611 -0.89648157 0.84765851
-0.1544342 -0.8913846 1.0229321
-0.01544189 -0.89641738 0.89035481
0.17024671 -1.012206 0.71255612
-0.16619121 -0.89474511 1.0727561
0.1424076 -1.111603 0.6659261
-0.16752639 -0.91036493 0.71209788
-0.087253973 -0.89673889 0.83552432
0.08174523 -0.89405572 0.89689988
-0.158453 -1.059935 0.7204116
0.15770189 -1.093457 0.67086309
0.052539941 -0.89528239 0.95936978
0.01125655 -1.053914 0.77137798
-0.016346831 -1.053497 0.76910049
0.115007 -1.094993 0.68148053
0.0056640059 -0.88970852 0.79103953
0.1698871 -1.014096 0.69617999
0.0094490955 -0.88686383 0.71969032
0.05761084 -0.89499032 0.91960251
-0.2195946 -1.182242 0.66619343
-0.1167325 -0.89027369 1.065442
-0.18734761 -1.0950429 0.68050921
-0.1517552 -0.89583433 1.032256
0.03853799 -1.066458 0.74721777
-0.2045626 -1.155158 0.66962981
0.1356675 -0.89244169 0.70588422
-0.1991228 -0.98629677 0.70881587
0.14748821 -0.95910871 0.69875008
-0.02208191 -0.89735627 0.73021013
-0.00041943791 -1.0441149 0.76955408
-0.026852179 -1.0650671 0.74534911
0.1834037 -1.150468 0.68293798
0.1872451 -1.084152 0.69336307
-0.05429947 -1.0578409 0.77638167
0.1306082 -1.150745 0.66096908
0.1285748 -0.89403093 0.88879079
0.075633839 -0.89271051 0.91986269
0.102215 -0.89682639 0.87861693
0.1971667 -1.164523 0.68463331
0.04745796 -0.89323878 0.75488698
-0.2177963 -1.0450031 0.69334549
-0.22275759 -1.12499 0.6723845
0.123972 -0.97668988 0.6959855
0.085653253 -0.88721538 0.95107728
0.15882529 -1.0333329 0.69402331
0.2374486 -1.250742 0.68001461
-0.03964952 -1.055782 0.73695588
0.016685661 -1.091258 0.67691457
0.066261753 -1.062959 0.71908969
-0.09426935 -1.05283 0.78919619
-0.2092187 -1.082991 0.68157852
-0.095551312 -1.0791579 0.6787383
0.1590921 -1.15741 0.66694379
-0.13287321 -0.89744812 0.73603141
-0.1182992 -0.89729381 0.87403709
0.13326681 -0.89186019 0.86210477
0.090620697 -0.89409268 0.9177494
-0.1732205 -0.89667648 0.77728921
-0.20249601 -1.041021 0.69487607
-0.030364379 -1.053434 0.79587358
-0.2198098 -1.193601 0.66632372
-0.1226738 -0.92129529 0.70731562
0.057528138 -0.89639169 0.92628253
-0.274416 -1.223075 0.67383122
-0.079246879 -1.1265039 0.67502218
0.084463857 -1.054424 0.72415382
-0.1541834 -1.088279 0.68202829
0.1244897 -0.89209533 0.79633993
0.1318412 -0.90074962 0.69965881
0.1112407 -1.2577029 0.63297778
0.098375559 -1.132282 0.66059572
-0.1070709 -1.089429 0.6735599
-0.17730761 -1.0526021 0.70333391
0.1596501 -0.89857203 0.99898827
0.1431437 -0.98910761 0.69746292
-0.1790145 -0.89816529 0.91932702
-0.031427089 -1.0526609 0.78119087
-0.14018799 -1.18041 0.66606063
0.099052161 -1.051396 0.71860749
-0.18994629 -0.93852878 0.70662433
-0.1599309 -0.89916497 0.90557557
-0.028892679 -0.89074528 0.88677728
-0.090152122 -0.88863838 0.81468707
-0.054604322 -0.89264637 0.89632767
-0.15103529 -0.89438093 0.76613867
0.038552541 -0.88769722 0.82773602
-0.05209313 -0.896137 0.94101828
-0.1917876 -0.89665991 0.78171408
0.04080781 -0.89189649 0.7876457
0.1500354 -1.0922281 0.65920079
-0.01668093 -1.1879981 0.66515291
-0.13572881 -0.89293909 0.90600753
0.16320831 -1.123391 0.66440219
0.1755172 -1.160473 0.66529143
-0.066164806 -1.055575 0.77086681
0.2171009 -1.2572761 0.60121769
-0.136343 -1.099219 0.68079668
-0.0051408112 -0.90470111 0.84644312
0.056765258 -0.88929689 0.84228963
0.1975017 -1.257221 0.54302531
0.13332009 -0.89012319 0.76581669
-0.042590559 -0.89120883 1.045959
-0.01477891 -0.895401 0.75966972
0.104756 -1.05809 0.67764097
-0.2228085 -1.130621 0.67021912
-0.085575581 -0.88584638 1.0303349
0.2145021 -1.186116 0.71817642
-0.1024278 -1.0611219 0.73957288
0.1743104 -1.054888 0.69413352
0.0083730221 -0.90069151 0.83924133
-0.093960233 -0.89284182 0.8610602
-0.2092195 -0.896972 0.71977007
-0.2361408 -1.009796 0.70964921
-0.2486617 -1.0893151 0.69347137
-0.1509309 -0.90325212 1.006062
0.032026891 -1.182664 0.65957183
-0.14440881 -0.89611602 0.99189401
-0.077956602 -0.89189929 0.72899443
-0.02396466 -0.88920212 0.7967025
-0.1585882 -0.9849841 0.73330712
0.02717991 -0.89393038 0.85860747
-0.1976002 -0.95389903 0.70117742
-0.1741564 -0.89017308 0.94157892
0.073232353 -1.129706 0.66383803
0.088921249 -0.89095718 0.81677771
0.2651597 -1.256484 0.66799748
-0.1043104 -0.89512467 0.95142537
0.007491156 -0.89437938 0.87948
0.02865864 -0.88658619 0.87215209
0.08211907 -0.88833612 0.82680821
0.1309979 -1.057842 0.69130778
0.0236714 -0.8910569 0.8724643
-0.23550379 -1.258558 0.63719022
0.056632161 -0.88764632 0.84645128
0.1117325 -1.215793 0.6550023
0.1435004 -0.89806998 0.86010861
0.062833309 -0.89679271 1.060276
0.1306242 -0.95327783 0.69593918
0.14791989 -1.202373 0.6625759
0.2097901 -1.171533 0.74576682
0.2297492 -1.247784 0.71332002
-0.1140806 -1.00836 0.76887017
-0.0047769551 -1.175553 0.67736071
0.040259831 -1.238724 0.65155047
-0.07799615 -0.88347709 0.86062342
-0.01259935 -1.068102 0.69149148
0.081377208 -0.93681431 0.72117752
-0.1673982 -1.071383 0.69901139
-0.1173403 -1.172316 0.66617411
-0.001799449 -1.1958309 0.66720772
-0.1862736 -0.89388841 0.92098391
0.1852292 -1.005224 1.0703321
0.068502977 -1.21705 0.65895188
0.14801329 -1.253147 0.62274998
0.074797839 -0.99446929 0.75030982
-0.1309966 -1.016456 0.77257812
-0.2681441 -1.2492549 0.679618
0.18055999 -1.254321 0.5884769
0.1723987 -1.256793 0.54788601
-0.098229364 -1.05355 0.78977299
-0.2441566 -1.106686 0.6880433
-0.1931482 -0.93326741 0.70849812
-0.27788761 -1.1700079 0.68781608
-0.26502031 -1.150923 0.6821329
-0.1712157 -0.89309698 0.94898528
-0.224327 -1.094974 0.67734063
0.02526179 -1.258862 0.63201988
-0.2099752 -1.0044 0.70580661
0.0077933068 -0.89187431 0.85138911
0.091130517 -1.062077 0.71230721
-0.1815771 -0.98380518 0.71377021
-0.01027882 -1.093714 0.6703859
-0.073457792 -1.260089 0.57649618
-0.2097732 -0.89550853 0.9257589
-0.28342831 -1.258744 0.63095242
-0.154126 -0.897066 0.85713798
-0.16649251 -1.26072 0.4385201
-0.082059652 -1.261444 0.37794811
-0.046852261 -1.261494 0.58642071
-0.1560733 -0.89617062 0.80063498
0.004180416 -1.257964 0.35651281
-0.25850499 -1.003121 0.72614461
-0.01120785 -0.89387691 0.91464323
-0.4297621 -1.257099 0.80174202
-0.098856658 -0.88739282 1.016299
0.1217804 -0.89181542 0.88702881
0.1676887 -0.93727487 1.029143
0.060988061 -0.89539093 0.78070742
0.06230823 -0.89051402 0.79521412
0.044092719 -0.8981058 0.84412599
0.044518299 -0.89188552 0.81525439
0.046415519 -1.000065 0.76661551
0.1413137 -1.238582 0.65100062
0.21660569 -1.251201 0.65878588
0.049757492 -1.185066 0.66207939
0.19475131 -1.1165071 0.70492202
0.2117818 -1.171158 1.0036269
-0.1594243 -0.88086951 0.75231409
-0.026742401 -0.90986758 0.70629132
0.025314489 -1.166554 0.66986573
-0.1921435 -0.89944232 1.012013
-0.20031071 -0.89988983 0.8604843
-0.14624541 -0.91818142 0.69970208
0.120646 -1.189491 0.65534508
-0.1755515 -0.8975153 0.7336064
-0.22129659 -0.98795092 0.70879942
-0.01408206 -1.061277 0.66089439
0.1308558 -0.90148681 0.69807547
0.05924885 -0.89615881 0.74406773
-0.1001243 -1.1042 0.67323482
-0.178324 -0.93409431 0.70944548
0.0029316689 -1.082098 0.67831701
-0.218156 -0.91439962 0.67944151
-0.27684119 -1.260597 0.36134681
-0.094113983 -1.261085 0.5300855
0.4089109 -1.250937 0.59464413
0.2666164 -1.261465 0.5427801
0.33921111 -1.252655 0.4170624
-0.1452456 -1.259793 0.39925501
0.3035599 -1.254822 0.47702199
-0.047210172 -1.2615989 0.51156312
0.2707313 -1.253965 0.61046112
-0.1259366 -1.261138 0.4342711
0.35828879 -1.2475899 0.49434441
0.43247291 -1.248518 0.4953115
-0.01780884 -1.257742 0.40592489
-0.18762 -1.143533 0.66853201
0.082873017 -1.247152 0.43738359
0.45953181 -1.257225 1.0412869
-0.1171557 -1.259196 0.51914722
0.0289378 -0.88826752 0.82548189
0.03358325 -0.88839859 0.80234212
-0.14156941 -0.89532828 0.84798038
0.3118645 -1.251101 0.59543169
-0.068529516 -0.90130931 0.82474601
-0.1440358 -0.88563758 0.77177912
-0.074101403 -0.89148742 0.97593927
-0.2103432 -0.89030641 0.82833588
-0.2089348 -1.250152 0.43355751
0.092257798 -1.196931 0.66163319
0.00486435 -0.88931149 1.078733
-0.042768572 -0.88724089 1.0705121
-0.24911331 -1.1330661 0.6804896
-0.26200819 -1.19899 0.67588532
-0.1607291 -1.258945 0.3716566
-0.3034541 -1.254299 0.30875111
-0.35913041 -1.255036 0.34327999
-0.35055819 -1.258878 0.32574019
-0.1826227 -1.258667 0.34539849
-0.2769621 -1.25774 0.59575891
-0.2102751 -1.24818 0.53871483
-0.29904911 -1.2505161 0.32509431
-0.34884921 -1.038071 0.59459072
-0.44647861 -1.0068769 0.62908071
-0.3551794 -0.96118772 0.74799359
-0.2216322 -1.207221 0.61718702
-0.22099631 -1.149832 0.62495768
-0.2299791 -1.213122 0.60916418
-0.2629801 -1.190727 0.6068188
-0.2047074 -1.024547 0.68512791
-0.19530571 -1.193542 0.64816332
-0.2226041 -1.0257519 0.69080871
-0.23791359 -1.219265 0.61229533
-0.25084409 -1.180828 0.60597807
-0.2853128 -1.0271291 0.65025371
-0.33128959 -0.87722057 0.63085061
-0.3047719 -1.003734 0.73864782
-0.3903991 -1.007136 0.72933692
-0.3070212 -1.03729 0.63063371
-0.41194719 -0.89066988 0.60986751
-0.15837871 -1.1919791 0.63117719
-0.36630571 -1.018272 0.73996419
-0.28101581 -0.98791742 0.72670478
-0.2452016 -0.96860218 0.7122581
-0.2397324 -0.96814388 0.71207899
-0.42859989 -0.97853899 0.67150092
-0.45659339 -0.8785038 0.59917521
-0.45540741 -0.97710007 0.61624062
-0.49323839 -1.163038 0.54205549
-0.5346719 -1.173399 0.5362125
-0.25932339 -1.133371 0.61742479
-0.53360838 -1.139084 0.54215318
-0.4796927 -1.125989 0.55023038
-0.34474421 -1.017768 0.74920249
-0.2059647 -1.016349 0.68428087
-0.3890875 -1.108228 0.5793668
-0.51845449 -1.099241 0.54318452
-0.2004516 -1.036965 0.64740533
-0.42767841 -0.8894738 0.60367239
-0.2050712 -0.92000198 0.68805349
-0.45116299 -0.92445928 0.61776388
-0.3027105 -0.93825072 0.74140167
-0.40582201 -0.98415792 0.69851941
-0.40894949 -0.98929697 0.68428731
-0.48162591 -1.009499 0.56882489
-0.46693131 -1.072824 0.56011659
-0.39550951 -1.006198 0.72972572
-0.37194541 -1.018636 0.73728228
-0.39362729 -0.96170628 0.73387909
-0.29674661 -0.99043429 0.73566067
-0.28073719 -0.97725987 0.72849637
-0.40169811 -1.206825 0.56201851
-0.46275529 -1.138857 0.55150378
-0.2268289 -0.8777591 0.66239041
-0.36847311 -1.0273089 0.66976279
-0.35721281 -1.0088741 0.74921542
-0.4250378 -0.97036481 0.67962742
-0.43149069 -1.203356 0.55567038
-0.53850019 -1.186438 0.52788663
-0.33186489 -0.87487489 0.62783009
-0.1753443 -1.1755739 0.63815999
-0.4494397 -1.15494 0.55249459
-0.4608402 -1.0539449 0.56339413
-0.45207691 -0.87946439 0.59721142
-0.42083731 -0.98249358 0.68080032
-0.50036043 -1.0919451 0.54845929
-0.17573041 -1.130286 0.64382148
-0.40448079 -1.028764 0.64871693
-0.33939639 -1.018775 0.75197589
-0.17471351 -0.9495163 0.67257762
-0.174785 -1.186141 0.62969959
-0.3257193 -1.035589 0.61572772
-0.24453139 -1.150594 0.61801821
-0.3637861 -1.155 0.58461869
-0.29503441 -0.89511871 0.64874828
-0.28718701 -1.132153 0.60751623
-0.32239711 -1.072952 0.60910738
-0.4267602 -1.2115279 0.5611676
-0.1625229 -1.123105 0.64350128
-0.36631429 -1.0345269 0.59859872
-0.2877256 -1.027249 0.6449337
-0.16531099 -1.0715719 0.65098178
-0.38582209 -1.141621 0.57411969
-0.178738 -1.198279 0.6250903
-0.2507287 -1.0219409 0.66221392
-0.47416139 -0.90741408 0.58514482
-0.16604009 -0.95263249 0.67724103
-0.144261 -1.015939 0.67149168
-0.1684214 -0.92105782 0.67066473
-0.30358461 -1.002479 0.73670387
-0.2926442 -0.89673781 0.65082097
-0.210438 -0.92364621 0.6902594
-0.41407129 -0.97811401 0.68655348
-0.1601536 -1.128123 0.64713192
-0.40479949 -1.198014 0.56023443
-0.2786957 -1.008484 0.72865123
-0.3295646 -1.020308 0.743725
-0.1308527 -1.230953 0.61367577
-0.1785512 -0.9504981 0.67584991
-0.30541611 -0.87348348 0.63983041
-0.1560761 -0.95155418 0.67091662
-0.3594628 -0.89184111 0.62832928
-0.52115291 -0.94388509 0.58841431
-0.26720351 -0.98763072 0.72058523
-0.26646861 -0.99357402 0.7216078
-0.40304679 -0.97805858 0.71042287
-0.2873176 -1.001056 0.73209971
-0.1371036 -0.9560048 0.69447517
-0.12945069 -1.001565 0.68750602
-0.1328572 -0.98329651 0.69035232
-0.2348692 -1.037321 0.65428811
-0.24722201 -1.034233 0.63305157
-0.2157912 -1.205097 0.61591607
-0.34386119 -1.162751 0.58944541
-0.47476569 -1.003565 0.56963938
-0.38004261 -1.148236 0.57530421
-0.39675629 -1.152913 0.57396418
-0.26689789 -0.96949178 0.72658807
-0.09241993 -1.212878 0.68073791
-0.3120335 -0.88129008 0.64366108
-0.2242021 -1.234358 0.59212351
-0.33956689 -1.044706 0.60852861
-0.424835 -1.181476 0.55894047
-0.41480309 -1.00984 0.69599211
-0.43385819 -0.97647452 0.66721702
-0.2265965 -1.231591 0.49624071
-0.33507141 -1.160826 0.589724
-0.3985061 -1.02841 0.6630522
-0.46012411 -0.97592467 0.60814959
-0.4572891 -0.97724348 0.61388862
-0.49797031 -1.097183 0.54585278
-0.42942721 -1.053138 0.57061321
-0.4819549 -1.007863 0.56952751
-0.52776992 -1.109468 0.54775912
-0.46534401 -1.0611 0.56306309
-0.54631978 -1.193831 0.52968007
-0.41772631 -1.1466 0.56553549
-0.45249739 -1.032474 0.58559078
-0.3350499 -0.86018473 0.68270171
-0.33571589 -0.87927687 0.63369852
-0.41639921 -1.032112 0.61250502
-0.49991459 -1.016117 0.56777388
-0.39077881 -0.85683948 0.82041609
-0.4083001 -1.012826 0.68769449
-0.2351196 -0.86081952 0.85129738
-0.30137131 -0.86555678 0.88890493
-0.22856981 -0.86264968 0.93794662
-0.2827771 -0.87849331 0.88809562
-0.28791201 -0.85904098 0.79745919
-0.25258109 -0.86980408 0.83943188
-0.28314251 -0.85819882 0.79046768
-0.3191289 -0.85635078 0.89036912
-0.37282631 -0.87424493 0.8200075
-0.3204371 -0.85934049 0.81531858
-0.49426651 -1.15584 0.54082
-0.31462279 -0.86191821 0.83580577
-0.37719551 -0.86253637 0.85628098
-0.2239033 -0.87954217 0.93776739
-0.27335921 -0.86447138 0.8472814
-0.30483341 -0.86405921 0.86119437
-0.30328229 -0.87389928 0.7882036
-0.31397501 -0.86003888 0.72654921
-0.32077649 -0.84883988 0.74654031
-0.34174129 -0.8625434 0.7192409
-0.3261272 -0.86896199 0.66118562
-0.4196147 -0.86271 0.72680902
-0.40207759 -0.86163849 0.80746168
-0.41324341 -0.89138132 0.60799462
-0.4166542 -0.8736822 0.73333722
-0.4574286 -0.98632377 0.62507892
-0.48275581 -1.127262 0.54987931
-0.43208829 -0.87048191 0.63328648
-0.49596521 -1.165644 0.54154372
-0.4922038 -1.012557 0.56871372
-0.1013278 -1.124858 0.67921561
-0.13317651 -0.98107868 0.68699008
-0.1439867 -0.91442782 0.69305182
-0.1448701 -0.89878148 0.69570881
-0.14262959 -1.014963 0.67179477
-0.1318763 -1.128045 0.65478629
-0.1408212 -1.148945 0.63531983
-0.2358859 -0.86984348 0.9740895
-0.1852815 -0.88546592 0.66629112
-0.1509518 -0.96347392 0.68014002
-0.14220519 -1.0352629 0.66419458
-0.1701569 -1.2334549 0.61123753
-0.1458441 -1.009377 0.66858852
-0.1450108 -1.177695 0.6483497
-0.1292796 -1.2237411 0.61192203
-0.1917803 -1.180138 0.626791
-0.2032247 -1.033749 0.63769281
-0.195161 -0.85353982 0.71425349
-0.1779166 -1.065665 0.652812
-0.31128839 -0.86672109 1.004006
-0.23830201 -1.031111 0.69259292
-0.1719846 -1.176746 0.62469077
-0.25414351 -0.97011942 0.71340263
-0.189454 -1.029688 0.64850539
-0.2373202 -1.1664259 0.624304
-0.23272321 -0.87175792 0.71476811
-0.2024655 -1.101694 0.63691771
-0.2904824 -1.02414 0.71535373
-0.2214189 -1.154865 0.62450439
-0.28358671 -1.0260431 0.64332151
-0.30342099 -1.020646 0.70406479
-0.30195361 -1.035648 0.70088238
-0.3141495 -0.86738598 0.96282059
-0.27901781 -1.033829 0.69068241
-0.26407251 -1.147597 0.62413639
-0.32034141 -1.021052 0.62803042
-0.39826551 -0.82509321 0.90423071
-0.3485367 -1.0247149 0.71112359
-0.1876131 -1.043651 0.66178638
-0.26674211 -1.1823649 0.60322303
-0.2849206 -1.031776 0.65460718
-0.29211581 -1.1492521 0.61722851
-0.3706992 -1.027993 0.66995722
-0.3514083 -1.026684 0.72011
-0.42776421 -0.86464798 0.79922748
-0.33301139 -1.0276411 0.63550031
-0.2285054 -1.144222 0.6158554
-0.34627989 -1.0529079 0.60475218
-0.44944081 -0.85722029 0.7540884
-0.52909118 -0.87290788 0.88465011
-0.44226909 -0.86180222 0.68684882
-0.54898453 -0.87421119 0.91767031
-0.46208131 -0.86226672 0.82953882
-0.3080191 -1.0520149 0.63469338
-0.54120833 -0.86819482 0.82553953
-0.52596921 -0.87231177 0.87333298
-0.50164729 -0.86705399 0.66135329
-0.4756045 -0.91221118 0.58796322
-0.5328781 -0.86665982 0.82904541
-0.53176212 -0.86073261 0.69383568
-0.53509349 -0.87187451 0.79793268
-0.48469529 -0.86939228 0.94131869
-0.45037189 -0.87650931 0.59412771
-0.49651399 -0.86733079 0.59152359
-0.51449043 -0.90782118 0.58867371
-0.4756529 -0.94830829 0.58131289
-0.51421273 -0.93267381 0.58591181
-0.51295489 -0.8797577 0.79274023
-0.32235509 -0.86122233 0.80887192
-0.2235221 -0.87322819 0.65997791
-0.18938529 -0.86250699 0.72389328
-0.25499031 -1.021793 0.65610331
-0.1317282 -0.99498779 0.68857211
-0.16697749 -1.183061 0.63264668
-0.22621129 -1.036613 0.65885568
-0.20589779 -1.024788 0.68673718
-0.2871345 -1.0300601 0.71580619
-0.25981939 -1.019298 0.68078703
-0.1935544 -1.16528 0.62762082
-0.25973621 -0.86949492 0.78540051
-0.41452181 -0.84746742 0.82792491
-0.45849109 -0.85280693 0.74854672
-0.54184401 -0.86852342 0.79609841
-0.33125639 -1.03889 0.60116142
-0.35232329 -1.047078 0.60078251
-0.435491 -0.86121362 0.74041212
-0.44845289 -0.86009109 0.64719671
-0.3221772 -0.88538587 0.63940972
-0.40362081 -1.048046 0.67937171
-0.45141369 -0.86255318 0.61165673
-0.3232654 -1.025093 0.68371862
-0.3380824 -1.228796 0.56961483
-0.40262011 -1.151539 0.56811821
-0.3038812 -0.87406158 0.67501569
-0.47648951 -0.90296781 0.58595568
-0.432942 -1.226202 0.53967208
-0.48956171 -0.86849838 0.79947197
-0.4031418 -1.025254 0.64278942
-0.1356457 -1.0665621 0.65925938
-0.4041467 -1.200137 0.55151939
-0.2515485 -1.152931 0.61107939
-0.30750379 -1.136345 0.605959
-0.140613 -0.99620527 0.67620802
-0.40574211 -1.208039 0.55294478
-0.40110481 -1.027949 0.64312172
-0.3718144 -1.032571 0.6987403
-0.55983561 -0.86572421 0.78884691
-0.32815129 -1.149532 0.59452832
-0.13450231 -1.153264 0.64804929
-0.46728399 -0.8620984 0.84197181
-0.44748411 -0.82864738 0.70001209
-0.1874091 -1.027346 0.67131948
-0.12550379 -1.025466 0.68453872
-0.46012101 -0.86241019 0.69198447
-0.228668 -0.86571437 0.85491312
-0.2909182 -0.861996 0.91151643
-0.13708811 -0.95731032 0.69075072
-0.1687986 -0.92618668 0.67547101
-0.32062119 -0.86464792 0.68580431
-0.376385 -0.86475569 0.64317667
-0.2176117 -0.86649239 0.83686697
-0.1380375 -1.176082 0.64677757
-0.1049975 -1.1315221 0.6697405
-0.15389401 -1.14343 0.86924797
-0.1121388 -1.125319 0.66535991
-0.1775483 -0.87845057 0.83083647
-0.1075706 -1.114168 0.69317693
-0.1019241 -1.120827 0.6913445
-0.222803 -0.89095497 0.96966851
-0.142083 -1.054262 0.8113839
-0.2147482 -1.1166739 1.070249
-0.1111239 -1.191502 0.77174437
-0.1535528 -1.138105 0.8703723
-0.1589386 -1.0931751 0.87527651
-0.19877049 -1.148195 1.0296741
-0.13636971 -1.176914 0.85115153
-0.15122931 -1.1621799 0.64502633
-0.1432994 -1.048931 0.81036007
-0.18961009 -1.066219 0.96553743
-0.1325634 -1.190619 0.8388859
-0.1667725 -1.11544 0.91431361
-0.27577591 -0.95052463 0.97978199
-0.197437 -1.024922 0.97513449
-0.1200883 -1.081383 0.74200392
-0.2012561 -1.0830671 1.0267169
-0.17405809 -1.06407 0.93008882
-0.1534474 -1.185451 0.89360279
-0.187865 -1.230124 1.098089
-0.1992626 -1.082752 1.0080301
-0.1097058 -1.150107 0.76946437
-0.219229 -1.028535 0.96106589
-0.20282941 -1.070753 1.029552
-0.1576865 -1.100872 0.86877722
-0.1388181 -1.096097 0.80218172
-0.21256091 -0.8778798 0.91861057
-0.2193813 -1.059966 1.054175
-0.2284608 -1.190928 1.120523
-0.1739817 -1.129486 0.94403058
-0.1626008 -1.1620311 0.89945048
-0.14991429 -1.107673 0.86350101
-0.1129447 -1.1539789 0.7498883
-0.21242531 -1.204751 1.098232
-0.097223103 -1.183345 0.70267558
-0.097431839 -1.232129 0.7925064
-0.1019328 -1.17944 0.71381217
-0.26186231 -0.98872042 0.97467911
-0.095718592 -1.120199 0.69483882
-0.2230359 -1.116544 1.072381
-0.1524393 -1.098312 0.85722601
-0.1643564 -1.140004 0.91150242
-0.1033518 -1.231781 0.80682439
-0.17617071 -1.144803 0.98354048
-0.1770343 -0.87676841 0.80998838
-0.15097579 -0.87830591 0.74919373
-0.1616181 -0.88573802 0.76410002
-0.1290852 -0.97984719 0.71173668
-0.14440431 -1.209126 0.91091132
-0.25699541 -0.97593331 1.003693
-0.1836924 -1.230417 1.079161
-0.203769 -0.87292749 0.89556652
-0.15792011 -1.177407 0.90198863
-0.1103555 -1.147083 0.7769202
-0.1678706 -1.046119 0.89124727
-0.1855112 -1.138989 0.98497832
-0.17416871 -1.078076 0.91291147
-0.1319223 -1.076046 0.76951349
-0.1045879 -1.1115839 0.6904155
-0.2088822 -1.209199 1.107975
-0.26185879 -0.96309751 0.98393518
-0.1537127 -1.188133 0.9049114
-0.1780875 -0.87900919 0.8318789
-0.13004871 -1.11616 0.79654372
-0.2165651 -1.057421 1.054897
-0.1774566 -1.0702569 0.91935182
-0.1615853 -1.0520231 0.88231862
-0.1325438 -1.176101 0.85275799
-0.156202 -1.090857 0.87721789
-0.1124312 -1.146697 0.75098151
-0.1752204 -1.0638829 0.90319258
-0.2081227 -1.157465 1.099139
-0.1896105 -1.203228 1.044252
-0.1244412 -1.07284 0.74245429
-0.1769587 -0.87904358 0.8081212
-0.1477803 -1.09595 0.83405662
-0.2021666 -1.05346 0.98488772
-0.162504 -1.144444 0.91028929
-0.1817449 -1.1921591 1.006212
-0.1616897 -1.127691 0.91395402
-0.1185514 -1.137934 0.76600689
-0.1056935 -1.183104 0.74321097
-0.078977168 -1.233364 0.6560241
-0.1482985 -1.195109 0.90424472
-0.1188601 -1.103405 0.71704698
-0.1716575 -1.202938 0.96903259
-0.17418499 -1.164673 0.96480942
-0.18939801 -1.115183 0.99492568
-0.1827132 -1.0635 0.95180911
-0.1817957 -1.130316 0.99176133
-0.114241 -1.148944 0.76272929
-0.203042 -1.072554 1.033234
-0.1179723 -1.150708 0.78446472
-0.15045691 -1.173592 0.91748983
-0.1081526 -1.156359 0.75750959
-0.1369773 -1.128078 0.65505809
-0.143995 -1.210248 0.91215217
-0.169274 -1.115605 0.90493637
-0.1075774 -1.073463 0.68875217
-0.1314037 -1.108466 0.65808398
-0.1143375 -1.227773 0.86156118
-0.1156197 -1.146667 0.74388659
-0.2069426 -1.174461 1.088418
-0.072004408 -1.231783 0.67969102
-0.1131343 -1.0881079 0.74160367
-0.15410151 -1.2035331 0.92689878
-0.1231211 -1.082582 0.73317552
-0.1731956 -1.137569 0.94724298
-0.1050386 -1.194694 0.73050791
-0.071715891 -1.232036 0.68851328
-0.1978185 -0.89077199 0.85187441
-0.1036253 -1.18349 0.74134147
-0.1114798 -1.1494139 0.75179619
-0.095686167 -1.122082 0.69443291
-0.15482131 -1.189654 0.89419389
-0.10248 -1.181319 0.71423358
-0.1000579 -1.186154 0.70400172
-0.1071212 -1.183697 0.74486607
-0.2697404 -0.86770332 1.057819
-0.1696347 -0.82861012 0.84109801
-0.20073131 -0.87351632 0.89456052
-0.1508667 -1.231271 0.97613382
-0.1777641 -1.231378 1.061107
-0.21026251 -0.87973613 0.91943431
-0.22873101 -1.119451 1.075997
-0.20773891 -1.090173 1.032598
-0.1828367 -1.22908 1.078759
-0.21673781 -1.067284 1.055252
-0.20188379 -1.07138 1.030903
-0.26450819 -0.9487139 0.97365707
-0.1914759 -1.23499 1.101449
-0.2196603 -1.206058 1.09873
-0.26453501 -0.86843252 1.05238
-0.17601439 -1.036479 0.77638471
-0.2575551 -0.97889203 1.003359
-0.2049529 -1.042044 0.98101759
-0.1733311 -0.89447927 0.78438121
-0.1063977 -1.186313 0.74169272
-0.2032728 -1.084241 1.011438
-0.2075524 -1.236434 1.102115
-0.20055661 -1.216017 1.070649
-0.13350751 -1.228896 0.92142981
-0.13341729 -0.98264003 0.71461833
-0.096581399 -1.122512 0.69770652
-0.1023227 -1.136269 0.66924661
-0.1693556 -1.038471 0.77708209
-0.1759164 -1.0213521 0.77081728
-0.27077821 -0.96837318 0.99382848
-0.268549 -0.9391892 0.9918611
-0.1967833 -1.07104 0.9704926
-0.1935586 -1.118932 0.99598873
-0.2048026 -1.070819 1.0488141
-0.1083937 -1.1876251 0.70808369
-0.1113711 -1.133078 0.67099923
-0.1713293 -1.002967 0.76199609
-0.2071252 -0.89287519 0.91843963
-0.1091478 -1.076453 0.68994188
-0.1620706 -1.222845 1.036323
-0.1347238 -1.2202539 0.97754091
-0.1187673 -1.229544 0.8861587
-0.02828956 -1.237344 0.96254551
-0.22915851 -0.85627949 0.93190068
-0.1053071 -1.118422 0.69426358
-0.1849906 -0.88438922 0.84132659
-0.2108068 -1.045651 0.64054447
-0.22083589 -1.208833 0.61636269
-0.1518019 -0.96327949 0.68102801
-0.2313188 -1.210338 0.61011058
-0.22381879 -1.149451 0.62635469
-0.33177599 -1.040774 0.60364622
-0.3989459 -1.018726 0.65778267
-0.41925511 -1.031026 0.61147583
-0.32312211 -1.027248 0.63293028
-0.26928091 -0.86236042 0.98036611
-0.42358899 -0.8586899 0.79277182
-0.49145451 -1.01776 0.57174188
-0.33966279 -1.034538 0.63963628
-0.28712991 -1.038551 0.65943158
-0.201061 -0.86711168 0.72540021
-0.19102021 -1.038411 0.65613788
-0.33001009 -1.034381 0.68944061
-0.2100884 -1.041857 0.66578138
-0.24036179 -1.026896 0.69205558
-0.40740451 -1.034017 0.64701849
-0.46383509 -1.054464 0.55944598
-0.4133842 -0.89652377 0.61135262
-0.30412009 -1.02431 0.66271907
-0.51240569 -0.86964518 0.78711349
-0.29487941 -1.0310709 0.72096401
-0.31030151 -0.86384892 1.005381
-0.14660241 -1.024219 0.67691052
-0.2474388 -0.87278217 0.98681188
-0.47950611 -0.95254022 0.58282411
-0.49652499 -1.15883 0.54485792
-0.2307573 -0.87120432 0.85862362
-0.303249 -0.86838108 0.83186883
-0.16848201 -0.87084961 0.68978459
-0.41752261 -0.86296737 0.73381251
-0.25264651 -0.87284839 0.84154832
-0.29281989 -0.86372489 0.91356069
-0.43610021 -0.86693448 0.96220487
-0.30039811 -0.86659902 0.88992441
-0.32112131 -0.86526042 0.897237
-0.1760723 -1.191769 0.63382852
-0.14196239 -1.0447789 0.67011172
-0.1727116 -1.194762 0.63511169
-0.1927205 -0.87042153 0.72772062
-0.49402019 -0.8639617 0.6063816
-0.4455283 -0.86755919 0.68889081
-0.45868081 -0.86229312 0.71305448
-0.33093101 -0.85797751 0.67959642
-0.2542147 -0.86728609 0.71232587
-0.22665641 -0.88030243 0.66480207
-0.23656321 -1.050143 0.63406909
-0.32027519 -0.86164337 0.68100488
-0.33713049 -0.88244653 0.63390422
-0.37283179 -1.029705 0.67100507
-0.2888481 -1.027541 0.64431542
-0.30152881 -1.034023 0.69852638
-0.4559809 -0.88322258 0.59820628
-0.3195968 -0.88586903 0.63917732
-0.41361061 -1.151281 0.56301928
-0.3169857 -0.86480838 0.84018749
-0.2702623 -1.197287 0.61220741
-0.25235051 -0.86699331 0.78807539
-0.40987119 -1.2114739 0.55787688
-0.46859601 -0.91473532 0.59002447
-0.40440601 -1.1530221 0.56774569
-0.37034521 -0.86635047 0.89903492
-0.48315039 -1.133201 0.55025268
-0.52052569 -0.89621371 0.60118991
-0.3226859 -0.86510229 0.81780958
-0.37005061 -0.86941659 0.81707692
-0.32581711 -0.86742318 0.81125212
-0.43468401 -1.061686 0.57203603
-0.3803896 -0.86881268 0.93276542
-0.53859907 -0.86388779 0.90852708
-0.44831929 -0.86343157 0.69291151
-0.3548921 -0.85551488 0.74218911
-0.41337761 -0.86649662 0.84593469
-0.45079699 -0.85918319 0.75658113
-0.40560201 -0.86408758 0.80916792
-0.20703781 -1.028152 0.6894244
-0.46813139 -0.87267601 0.83709902
-0.4491277 -0.85750598 0.64218998
-0.34271479 -0.8584075 0.7174651
-0.32333431 -0.867944 0.6578992
-0.42186111 -0.86044681 0.83903593
-0.31706801 -0.86160791 0.72777748
-0.50272608 -0.86611903 0.66238159
-0.48381561 -0.86326981 0.79990149
-0.46180061 -0.86108571 0.67429489
-0.40296891 -1.028531 0.64233601
-0.30066061 -0.86647868 0.66898853
-0.3022975 -1.029024 0.61975932
-0.1431904 -1.172498 0.64556938
-0.51524472 -0.92856181 0.58503407
-0.5340091 -0.86935872 0.7949996
-0.32895291 -0.86062038 0.75606668
-0.33748251 -0.86343747 0.80069357
-0.52103251 -0.86528403 0.8630175
-0.4581635 -0.86170691 0.75445282
-0.45329541 -0.86618161 0.64382398
-0.48029739 -1.005882 0.56881589
-0.49019989 -1.170694 0.54498959
-0.4960306 -0.86264223 0.58899069
-0.37643671 -0.85940868 0.63769728
-0.42475039 -1.185887 0.55928171
-0.53206873 -1.060876 0.55752617
-0.4891856 -0.86411679 0.79814541
-0.53332633 -0.85465592 0.80825961
-0.243692 -1.213394 0.60766232
-0.52607518 -0.85379088 0.81327188
-0.33910549 -0.97344911 0.68749642
-0.24713761 -0.96004939 0.69111258
-0.52052242 -0.85955071 0.86888659
-0.31464899 -0.86091572 0.95123261
-0.28961229 -1.137827 0.60955328
-0.237234 -0.87493181 0.97826159
-0.19662561 -1.167096 0.63497061
-0.29637259 -0.86148143 0.74631542
-0.29043359 -0.85591322 1.020395
-0.2258487 -1.028919 0.6917879
-0.2169205 -0.86294508 0.83248168
-0.18753169 -0.86313063 0.74006063
-0.1432656 -1.007708 0.68251377
-0.2358932 -0.85756779 0.84604788
-0.1496031 -1.017688 0.67513019
-0.39010409 -0.85442883 0.81885117
-0.49831209 -0.86606812 0.66856992
-0.49807861 -1.097285 0.5429616
-0.1768972 -0.87533349 0.70564872
-0.47029799 -0.913082 0.59111798
-0.57629311 -0.86492562 0.84437919
-0.33641651 -1.027323 0.69981122
-0.3091515 -1.035993 0.71446121
-0.28334561 -0.85595238 0.78629178
-0.33961099 -0.86590493 0.88189238
-0.2039679 -1.102702 0.63755101
-0.367706 -0.86070538 0.83529651
-0.3183662 -1.004711 0.69751519
-0.49865201 -1.0168459 0.56593931
-0.47901839 -0.86207271 0.59533149
-0.50712848 -0.85198379 0.59846169
-0.41316351 -0.86114907 0.89257717
-0.4999803 -0.85579008 0.85183817
-0.56606859 -0.86806858 0.7768923
-0.44674739 -0.85642612 0.87224269
-0.3892498 -1.159783 0.57295382
-0.2229235 -0.8713032 0.92128128
-0.3761023 -1.052847 0.58476472
-0.25396559 -1.15908 0.61809689
-0.53511143 -1.209137 0.53426468
-0.1154422 -1.125375 0.68064928
-0.33954549 -0.88347077 0.96114582
-0.1699461 -0.87073052 0.67344171
-0.17640141 -1.0500849 0.63824028
-0.18503749 -0.86359602 0.75176841
-0.15103909 -0.87787831 0.69691777
-0.1457036 -0.98325008 0.69346178
-0.51052213 -0.84566861 0.79246902
-0.35476261 -0.87474608 0.85190701
-0.32111469 -0.85990149 0.92006361
-0.47111389 -0.93761218 0.57695079
-0.1737316 -0.86897153 0.67120081
-0.17179041 -1.230225 0.60949773
-0.2149604 -1.095721 0.62194598
-0.1119727 -1.200444 0.66304219
-0.16822539 -1.046525 0.68079978
-0.27396959 -0.85621607 0.83696818
-0.49318621 -0.97613859 0.59505278
-0.1683908 -0.96012872 0.68557233
-0.43085119 -0.88420701 0.59839201
-0.50369662 -0.85633242 0.74816161
-0.16611549 -1.1508549 0.65755677
-0.53231978 -0.85960972 0.68927789
-0.18760739 -1.0253429 0.67384112
-0.2545017 -1.247582 0.59167129
-0.2087609 -0.86968732 0.83405399
-0.1050267 -1.1383981 0.68108571
-0.4549357 -1.0578589 0.59476602
-0.28994191 -1.046751 0.7288357
-0.50206292 -0.94557297 0.57294112
-0.1377645 -1.076303 0.66512942
-0.50533289 -1.0974309 0.5342226
-0.085368991 -1.255501 0.5617035
-0.091010019 -1.249694 0.60058123
-0.26206821 -1.192857 0.60932517
-0.1332396 -1.233029 0.61812413
-0.1463948 -1.062027 0.63142258
-0.45643279 -0.86030388 0.7438584
-0.41685209 -0.86680722 0.7433461
-0.4377301 -0.88893491 0.75291562
-0.53237867 -0.87195551 0.80036712
-0.5297327 -0.8652854 0.83114833
-0.4794012 -0.87032717 0.80665392
-0.57940298 -0.86226618 0.92484069
-0.52133662 -0.86695027 0.86553103
-0.52070481 -0.8623153 0.87426841
-0.4817979 -0.86235732 0.9392994
-0.38848889 -0.85745269 0.82403302
-0.3733269 -0.8665784 0.86520833
-0.37218469 -0.87097532 0.81445128
-0.4168745 -0.85381413 0.94586229
-0.53681213 -1.2126451 0.53634948
-0.5385443 -0.87172109 0.91646302
-0.31833351 -0.87132078 0.96623409
-0.390944 -0.86733282 1.022187
-0.4164665 -1.15336 0.56310833
-0.272798 -0.86867613 0.99773252
-0.2636424 -0.86248863 1.040341
-0.47555599 -1.129308 0.54982162
-0.2984238 -0.86505592 0.889543
-0.45202661 -1.0364209 0.5871762
-0.49005431 -1.1542799 0.53677702
-0.2500388 -0.86920941 1.040303
-0.33581781 -0.8701148 1.007511
-0.49326211 -0.86249977 0.60564309
-0.4561336 -0.84766161 0.63542891
-0.28825581 -0.86242312 1.033694
-0.4596473 -0.85492718 0.67318839
-0.47583029 -0.89987987 0.58520907
-0.46383691 -1.060829 0.56108648
-0.4353922 -1.0597841 0.57127678
-0.49278671 -1.154009 0.54218531
-0.4386344 -1.0344959 0.59904498
-0.3322618 -0.86485171 0.94338882
-0.4383665 -0.86478662 0.64951628
-0.4502804 -1.030684 0.61065853
-0.4796755 -1.0443259 0.55222237
-0.31618279 -0.86445159 0.73147738
-0.2738508 -0.87977183 0.89061058
-0.32963681 -0.86958498 0.69210303
-0.2253834 -0.86315489 0.94013608
-0.275769 -0.85882771 0.86562753
-0.2841413 -0.85756159 0.80013192
-0.33834249 -0.85726881 0.71685213
-0.2766788 -0.8598181 0.83626682
-0.27953261 -0.85900092 0.7905494
-0.2882652 -0.86215949 0.91287643
-0.31859601 -0.86174142 0.81791222
-0.3799049 -0.86660868 0.81789362
-0.28763899 -0.87152582 0.74694699
-0.36617249 -0.85610127 0.89022797
-0.3320618 -1.016028 0.6275655
-0.4171465 -1.036916 0.61541969
-0.23271661 -1.046441 0.63320982
-0.28250599 -1.0275789 0.65225393
-0.33037549 -1.035051 0.59938699
-0.216286 -1.211763 0.61757648
-0.3199642 -1.027684 0.63194323
-0.4498643 -0.88146681 0.59882373
-0.45314801 -0.87943977 0.59748107
-0.3973774 -1.033005 0.66542703
-0.4983626 -1.0178061 0.56725132
-0.28566471 -1.0333869 0.64679831
-0.5330013 -1.1645271 0.53440022
-0.53453618 -1.146825 0.54050779
-0.29926541 -1.033529 0.66497838
-0.40123859 -1.023679 0.64115369
-0.46969759 -0.90499502 0.58397049
-0.2674512 -1.183779 0.60381091
-0.2592611 -1.136503 0.61704731
-0.37427181 -1.055842 0.58703721
-0.54444182 -0.86836022 0.91049278
-0.55785531 -0.86100137 0.9364351
-0.48102471 -0.87908202 0.66918641
-0.48508641 -0.95663601 0.58499593
-0.32385331 -0.85378063 0.75077832
-0.5745486 -0.86511368 0.84772837
-0.33803731 -1.02697 0.64736748
-0.30384091 -0.86337727 0.86218828
-0.28498861 -1.136223 0.61017531
-0.28668591 -1.140131 0.61072952
-0.2913346 -1.0320669 0.72276878
-0.40587059 -1.213047 0.55421919
-0.33164129 -0.85730213 0.80028212
-0.46316779 -0.89962077 0.59107178
-0.31408581 -0.86723918 0.80155653
-0.46426329 -1.069942 0.55970353
-0.3052147 -1.137179 0.60580927
-0.37753049 -1.0491461 0.58919251
-0.3841995 -0.87288368 0.76047349
-0.44515651 -0.861619 0.88120621
-0.40198731 -1.153257 0.56671113
-0.3359201 -0.86771423 0.8868295
-0.3009468 -1.2297421 0.56981748
-0.2565375 -0.86724961 0.78749102
-0.229514 -0.86178678 0.96219999
-0.2181825 -0.86465102 0.92003751
-0.4994947 -0.9063164 0.58442271
-0.37160119 -1.156191 0.57884181
-0.46183369 -0.8701213 0.69897878
-0.4096348 -0.89159089 0.60923761
-0.2137228 -0.86095929 0.83158392
-0.3768608 -1.172554 0.57210642
-0.50689572 -0.97484952 0.57030642
-0.35490581 -1.149345 0.58406252
-0.42080101 -1.178368 0.55547428
-0.386379 -1.1614341 0.57323271
-0.2314084 -0.85884249 0.84919018
-0.31096151 -0.86935443 1.011132
-0.3327224 -0.87905252 0.63316572
-0.45635721 -0.86568648 0.71397352
-0.2461279 -0.95579642 0.69042158
-0.40680829 -0.85786742 0.83940512
-0.243605 -0.86771792 0.83231711
-0.2474345 -0.86767942 0.83850777
-0.26264229 -0.85156769 0.7182523
-0.47836161 -1.005538 0.56940901
-0.2353631 -1.027101 0.68839937
-0.4290632 -0.88621819 0.60089302
-0.2486117 -1.0328079 0.65908432
-0.21915559 -1.154425 0.6263082
-0.45298421 -0.97822279 0.61750591
-0.47694099 -0.9475379 0.58035332
-0.25860459 -1.140224 0.61895108
-0.47321481 -0.94916302 0.58339572
-0.44448039 -0.87087798 0.9731648
-0.46876821 -0.88246179 0.85115159
-0.49980199 -0.86261541 0.86233181
-0.4774299 -0.86210442 0.67970568
-0.60157698 -0.86313599 0.93654239
-0.49507561 -0.86389053 0.59108478
-0.57001507 -1.203993 0.57172918
-0.51955569 -1.073422 0.54896909
-0.31570911 -0.86739361 0.84580177
-0.30229169 -1.039678 0.6279639
-0.44322371 -1.0270441 0.57766181
-0.27011731 -0.86087787 0.84401709
-0.57491362 -0.87237692 0.82168108
-0.36884549 -0.85914278 0.85915828
-0.52893668 -1.151083 0.55467558
-0.25232819 -0.85993022 0.72446388
-0.248568 -0.8713789 0.79583949
-0.29837671 -1.158075 0.60070908
-0.35199019 -0.87812698 0.85947591
-0.25104049 -1.156514 0.61434132
-0.28488159 -1.0283231 0.70181769
-0.2048445 -1.026747 0.67211258
-0.36747599 -0.86816669 0.8457244
-0.3026787 -1.0207829 0.70359129
-0.3267729 -1.149014 0.59649158
-0.43832949 -0.8658247 0.94162709
-0.49602121 -1.060358 0.54691851
-0.46186271 -1.022734 0.58790839
-0.38918859 -1.062464 0.58374703
-0.2883926 -0.86753207 0.68581527
-0.70847011 -1.227608 0.50422889
-0.32533351 -1.030486 0.68735093
-0.4156577 -0.87659651 0.74343443
-0.2553139 -0.86424118 0.7071749
-0.41390431 -0.84775561 0.82725698
-0.39031219 -0.87195271 0.94113231
-0.2603263 -0.86678213 0.70675421
-0.3205511 -0.86776668 0.65978003
-0.44603091 -0.85566962 0.64189881
-0.1714386 -1.184603 0.62899047
-0.1992795 -0.88364929 0.66806918
-0.3172906 -0.87964869 0.63475633
-0.22859921 -1.214479 0.60820693
-0.2963337 -1.0202349 0.68941557
-0.2773093 -1.029653 0.68761343
-0.5155912 -0.86256057 0.96572077
-0.51684022 -0.86669618 0.7238667
-0.51070052 -0.92637008 0.57727438
-0.51069993 -0.90260422 0.58469278
-0.49602741 -1.104709 0.54413682
-0.51121008 -0.86387891 0.60935467
-0.50924683 -1.086211 0.54285258
-0.51396251 -0.88122129 0.59501618
-0.33421049 -0.86104572 0.68627572
-0.37237039 -0.85613769 0.64257532
-0.51417261 -0.87944329 0.8004539
-0.36349571 -0.85917473 0.89288098
-0.2202639 -1.026602 0.68773532
-0.2984958 -1.018337 0.72615898
-0.42510939 -0.85255033 0.81102282
-0.36288309 -1.102028 0.59250242
-0.2482612 -0.86421847 0.69673687
-0.32306021 -1.2321579 0.56420141
-0.53747243 -1.2282161 0.48869759
-0.4740167 -0.88290811 0.58539242
-0.59497792 -1.23058 0.5492174
-0.40431839 -0.86435997 1.010219
-0.44724891 -0.96795797 0.63647223
-0.3910498 -0.85771638 0.85464108
-0.61810452 -1.229659 0.51522148
-0.1676486 -1.234762 0.61121619
-0.330302 -0.86884409 0.63969731
-0.45864409 -1.0160021 0.58684778
-0.41205251 -0.86900598 0.91683209
-0.37902749 -0.88030672 0.95121199
-0.32794139 -0.84342539 0.76921809
-0.1954484 -0.85570318 0.71618611
-0.42187351 -0.85899162 0.79704231
-0.25017929 -0.86271918 0.70983469
-0.1807677 -0.85679591 0.74733138
-0.35525331 -0.86244422 0.87848657
-0.321235 -0.86396623 0.81312579
-0.32541299 -0.85079223 0.67386931
-0.210731 -1.037027 0.63334471
-0.34008801 -1.006047 0.57547659
-0.1880642 -1.042603 0.65863371
-0.43902299 -0.85772377 0.6809265
-0.1379278 -1.039169 0.66726881
-0.34631369 -1.01521 0.70685858
-0.1450592 -1.011571 0.67026478
-0.1419791 -1.017172 0.67205441
-0.4193019 -1.0321161 0.60518628
-0.163767 -0.94917732 0.67472571
-0.3735176 -0.859034 0.63895041
-0.20217741 -1.018564 0.68301928
-0.1664905 -0.92993492 0.6773982
-0.40487489 -1.20461 0.55392742
-0.18858659 -1.1773961 0.62861413
-0.1919149 -1.163057 0.62937617
-0.2842856 -1.0343879 0.71951431
-0.1641831 -0.86784983 0.68860638
-0.49039751 -0.84928489 0.80313641
-0.4934622 -0.87190151 0.85287893
-0.50524092 -0.86409879 0.75784528
-0.46739271 -0.83801723 0.70892471
-0.55885518 -0.86667061 0.73581642
-0.54871029 -0.87070411 0.74205732
-0.54305333 -0.85713518 0.8380425
-0.51919281 -0.98229378 0.57756299
-0.484106 -0.84448022 0.5908342
-0.50366032 -0.871912 0.66794318
-0.50208998 -0.96753198 0.58812588
-0.54061478 -1.185773 0.52282208
-0.47884539 -0.86630678 0.60025811
-0.53413773 -0.86563212 0.69877893
-0.45824629 -0.96442437 0.61507177
-0.2501311 -0.85378671 0.84895259
-0.40196541 -0.85940832 0.7805993
-0.41140071 -0.86281317 0.89460689
-0.28127289 -1.1625791 0.60604882
-0.53390419 -0.88125539 0.73818552
-0.4957605 -1.104178 0.53063327
-0.1520818 -0.95153898 0.67061001
-0.1291334 -0.99836522 0.69333488
-0.1734587 -0.95191443 0.67412102
-0.50240469 -1.239272 0.51151621
-0.16950101 -0.87712783 0.67867881
-0.1472061 -0.96603841 0.68125492
-0.50037628 -1.234064 0.50673503
-0.1396347 -0.92802638 0.69857228
-0.2207932 -1.026656 0.68997443
-0.1838982 -0.86247772 0.74194151
-0.14608219 -0.88511699 0.70464188
-0.1662806 -0.87716037 0.68233413
-0.36523291 -1.01441 0.68534899
-0.31648529 -0.85582709 0.91967481
-0.4498612 -0.86241019 0.98710632
-0.252875 -0.87181699 1.023405
-0.32747141 -0.86055619 0.73730612
-0.4511219 -1.177186 0.54011381
-0.1892761 -1.112414 0.63449031
-0.1740562 -1.0701669 0.65423888
-0.41546381 -1.065064 0.57453179
-0.1330332 -1.069862 0.66119409
-0.24154709 -0.86737728 0.98321122
-0.1641351 -1.026384 0.66742653
-0.46500349 -0.9603377 0.58384752
-0.44317821 -0.98655051 0.63565981
-0.31898499 -1.028327 0.64634669
-0.48834929 -0.91132408 0.58207572
-0.1973861 -1.125661 0.62841672
-0.16421551 -1.168339 0.63719219
-0.1561794 -0.932105 0.67717719
-0.58842838 -1.234617 0.50211507
-0.1608846 -0.86911231 0.77001941
-0.1881683 -0.88691771 0.66706848
-0.138685 -1.007661 0.68042767
-0.1339983 -0.93367958 0.72629309
-0.1013329 -1.129758 0.67501062
-0.1355747 -0.94929898 0.68450952
-0.16734789 -1.175398 0.62631333
-0.13856991 -1.171422 0.64558291
-0.141032 -0.96099442 0.67785221
-0.1123955 -1.1105601 0.66664147
-0.1098103 -1.069252 0.69430017
-0.1083113 -1.0639319 0.6814363
-0.52861691 -1.057216 0.55542529
-0.4609355 -1.056583 0.5593152
-0.54952389 -0.87993902 0.80897403
-0.48815149 -0.87018418 0.80065203
-0.32128391 -0.83410889 0.68917531
-0.43809 -0.86316609 0.744003
-0.4391126 -0.8497771 0.69709378
-0.39808011 -0.86596411 0.82923532
-0.31354499 -0.86395812 0.99529868
-0.2394869 -1.035483 1.0891401
-0.1727117 -0.88033772 0.80565512
-0.1680176 -0.86663288 0.68739128
-0.2241625 -0.8588016 0.93420148
-0.2035888 -0.88639933 0.89924091
-0.2147087 -1.0607671 1.056302
-0.30929869 -0.87094963 0.86787498
-0.27060851 -0.86334848 0.84988183
-0.2545217 -0.87097663 0.84002978
-0.17231581 -1.039037 0.77523631
-0.39469689 -0.86494732 1.0181299
-0.51516092 -0.8589108 0.96369302
-0.26652789 -0.8638649 1.04224
-0.1569656 -0.88129753 0.75092041
-0.18770801 -0.86321872 0.74008852
-0.3580066 -0.86504269 0.8842749
-0.2099603 -1.107175 1.0628459
-0.2405095 -1.040223 0.91479379
-0.2127029 -1.0248131 0.82425958
-0.1894732 -1.067215 0.96814579
-0.50179172 -0.86576939 0.8084873
-0.30925271 -0.85541183 0.88122553
-0.29166061 -0.87457722 0.89636731
-0.55143052 -0.87363547 0.92344397
-0.32946169 -0.85838211 0.67595321
-0.2441155 -1.018895 0.94095099
-0.4556984 -0.85453463 0.71830243
-0.40852171 -0.8564508 0.95769417
-0.2065479 -0.87902808 0.91663152
-0.2062179 -0.87098718 0.88923597
-0.32266861 -0.86696452 0.78375578
-0.3240149 -0.86682153 0.77988631
-0.33685809 -0.85261869 0.72169381
-0.42114109 -0.82538128 0.73912537
-0.3201434 -0.85895628 0.76190358
-0.32404539 -0.87488627 0.80190158
-0.32247311 -0.8631283 0.81645107
-0.28030279 -0.84915578 0.79849392
-0.26381329 -0.878425 0.78516012
-0.27525631 -0.85824329 0.97334743
-0.32382089 -0.86202228 0.81142092
-0.31049949 -0.87269372 1.018263
-0.26032811 -0.86615843 0.70833558
-0.3284595 -0.86469758 0.80018997
-0.43349349 -0.86333352 0.96129459
-0.25643781 -0.87875599 0.83737212
-0.53624678 -0.86090553 0.90724152
-0.49882159 -0.86981112 0.85277152
-0.42885661 -0.85322821 0.73753572
-0.42784879 -0.8740235 0.74646598
-0.50189477 -0.86752218 0.67530751
-0.4494524 -0.85934651 0.76258081
-0.48715359 -0.88385892 0.8427915
-0.41122681 -0.85372841 0.82837099
-0.30828679 -0.8640877 0.75834072
-0.41507021 -0.87649852 0.72840607
-0.3451677 -0.84787941 0.75140607
-0.30354351 -0.88077521 0.74768168
-0.2352773 -0.86581391 0.80584723
-0.40357369 -0.85834002 0.84725279
-0.51205713 -0.85933232 0.60872573
-0.49700201 -0.86898643 0.79803431
-0.1791482 -1.1261081 0.98315668
-0.50819838 -0.86728197 0.63192028
-0.1868515 -1.027858 0.77308917
-0.36459029 -0.8704778 0.8604511
-0.37205389 -0.86124402 0.88627762
-0.3850829 -0.87607658 0.83224249
-0.53928602 -0.86315161 0.97027051
-0.22563501 -1.209069 1.125682
-0.42527291 -0.872177 0.80707818
-0.39978951 -0.80978799 0.6582666
-0.19643199 -1.074345 1.009879
-0.53126502 -0.85811192 0.69506651
-0.33457521 -0.86598182 0.66587329
-0.31679651 -0.8638072 0.95264912
-0.3182621 -0.86817539 0.95864272
-0.16699021 -1.054553 0.89122218
-0.29440191 -0.852557 0.96903688
-0.1822716 -1.046719 0.76898831
-0.315404 -0.86739391 0.96483582
-0.301202 -0.86222672 0.82876432
-0.1758707 -0.88798958 0.80659169
-0.41737649 -0.84784752 0.94157737
-0.40943301 -0.87539071 0.8404277
-0.1881808 -1.058311 0.96756458
-0.2725938 -0.86452007 0.79269981
-0.4490006 -0.87478387 0.97858131
-0.39238289 -0.87901658 0.94918817
-0.43411729 -0.86513948 0.80106038
-0.501122 -0.86622173 0.60634911
-0.45684159 -0.85695392 0.64598751
-0.45018199 -0.84593147 0.75528818
-0.4544701 -0.87212491 0.68936932
-0.3189882 -0.85767502 0.68181169
-0.45658889 -0.85943091 0.63767052
-0.52227068 -0.85488218 0.82104927
-0.55603421 -0.86368591 0.793001
-0.51518619 -0.85751778 0.81260329
-0.56615168 -0.86823148 0.78706127
-0.47150531 -0.86047202 0.655312
-0.4944669 -0.88599181 0.80565608
-0.50098193 -0.86897749 0.8878603
-0.2266901 -0.87711132 0.9922471
-0.50304329 -0.86556071 0.86498219
-0.4789086 -0.87335747 0.6091584
-0.50551993 -0.85103571 0.86254817
-0.48453921 -0.8747108 0.8520925
-0.1845943 -1.041381 0.8758685
-0.48649681 -0.869959 0.60275179
-0.1815695 -0.88046211 0.83283627
-0.2223645 -0.85230911 0.95936322
-0.1704012 -1.147525 0.96391767
-0.52752411 -0.86651182 0.88016218
-0.29813641 -0.86799067 0.90496272
-0.4951666 -0.88497043 0.58753651
-0.16107941 -0.88854373 0.76548052
-0.24204171 -0.86809659 0.84563398
-0.37787369 -0.86371768 0.91876072
-0.2598832 -0.90144938 1.066619
-0.26471901 -0.86078858 0.71645588
-0.38616231 -0.84275383 0.85854602
-0.25283691 -0.86893731 0.70139778
-0.51954621 -0.8781215 0.88367438
-0.45261869 -0.87884098 0.63935542
-0.40200919 -0.87797147 0.75253779
-0.43556651 -0.87635648 0.88220948
-0.45928741 -0.85900992 0.87612271
-0.1534981 -0.86736012 0.71295851
-0.44647461 -0.85919237 0.80811578
-0.1507833 -0.87809348 0.69764417
-0.44689059 -0.86177272 0.8802886
-0.27114859 -0.85890222 0.69833583
-0.39026541 -0.86808968 0.75965041
-0.1867014 -1.117673 0.99204731
-0.1859501 -1.088619 0.97796708
-0.2488277 -1.026041 0.93541008
-0.2067759 -1.0400701 0.8342821
-0.19213779 -0.86651957 0.73217207
-0.40773979 -0.84937048 0.74598873
-0.30180299 -0.8555733 0.90090489
-0.48912489 -0.85091329 0.67629522
-0.58584797 -0.91787922 0.97125548
-0.5996958 -1.1286 0.99891508
-0.59712118 -1.182682 1.02012
-0.298742 -0.88362539 1.0483741
-0.54815447 -1.110276 1.0244
-0.60733157 -0.96101701 0.96903199
-0.63622689 -1.078889 0.98856688
-0.5793891 -1.049147 1.006691
