# .PCD v0.7 - Point Cloud Data file format
VERSION 0.7
FIELDS x y z normal_x normal_y normal_z curvature
SIZE 4 4 4 4 4 4 4
TYPE F F F F F F F
COUNT 1 1 1 1 1 1 1
WIDTH 593
HEIGHT 1
VIEWPOINT 0 0 0 1 0 0 0
POINTS 593
DATA ascii
-0.18095759 -0.074021131 1.1467344 0.0021131239 0.99994296 0.010465808 0.00078715762
-0.34124067 -0.3882964 1.1106279 -0.97125274 0.17628472 -0.15997472 3.9762235e-05
-0.23576188 -0.22180088 1.0266298 -0.29108521 0.92945337 0.22668459 0.020191109
-0.00033017443 -0.33928442 0.87968338 0.12221982 0.14091024 -0.98244929 2.0545664e-05
-0.049825273 -0.23963502 0.94823998 -0.0070688138 0.93561655 -0.35294729 0.002313274
-0.0083060181 -0.089167774 0.93504786 0.18540674 0.95180285 -0.24432687 0.034318101
-0.042300265 -0.076726958 0.9940241 0.058146559 0.99190497 -0.11288738 0.0022332654
0.0355018 -0.23483516 0.92449111 -0.089734092 0.53707147 -0.83875024 0.00093606935
-0.29366094 -0.26662168 0.9297986 -0.93087649 0.3101171 -0.19312255 0.0037376313
-0.3155269 -0.31082749 1.0244653 -0.95306104 0.28657416 -0.097723745 0.0020396931
-0.020104973 -0.074288979 1.1564158 0.034106761 0.99788487 0.055339199 0.0012646378
-0.26006374 -0.26787731 0.86877215 -0.30290881 0.40101945 -0.8645401 0.021129422
-0.11061846 -0.075085536 1.2066643 0.010727447 0.99819845 0.059031915 0.0018337421
-0.29658774 -0.26968575 0.93888289 -0.92087126 0.34862727 -0.17451403 0.0022749994
-0.07448101 -0.074454062 1.0114472 0.014488498 0.9996013 -0.024234779 0.00039829619
-0.22847399 -0.079792701 1.0014809 -0.22947837 0.97187221 -0.052953191 0.0018836597
-0.2379152 -0.2069446 1.1668446 -0.17268921 0.86969435 -0.46239609 0.013014098
-0.28660131 -0.094796278 1.06233 -0.43573168 0.89697838 -0.074616313 0.00069917308
-0.28821409 -0.097757295 1.0383213 -0.472655 0.86953998 -0.14316942 0.0064298688
-0.017711533 -0.31943563 0.88077104 0.122439 0.15429245 -0.98040932 0
-0.2616322 -0.083814815 1.0681955 -0.31982225 0.94583315 -0.055797469 0.0010766786
-0.27448952 -0.32130799 0.86309743 -0.54352647 0.34926462 -0.76327795 0.01695795
-0.27719045 -0.24943282 0.89219052 -0.8673656 0.28810996 -0.40579516 0.011045024
-0.24483082 -0.2837984 0.86345267 -0.036856331 0.26538697 -0.96343732 0.0058081569
0.10452934 -0.097295761 1.1097959 0.46205324 0.88443565 0.065424234 0.0024740624
-0.2156985 -0.077261396 1.0396821 -0.1404959 0.98986459 -0.020712631 0.0033100017
-0.1251727 -0.073668674 1.046712 0.0085612796 0.99983728 -0.015877025 8.8010063e-05
-0.30623472 -0.25739083 1.0978409 -0.76655602 0.63873339 -0.066418692 0.016824273
-0.2954849 -0.096976452 1.1060438 -0.50331187 0.86022091 -0.081835501 0.0029433849
0.0062043713 -0.074857965 1.1398845 0.11487555 0.99329883 0.012691609 0.0011494032
-0.27602971 -0.2384336 0.94418496 -0.78864318 0.61294383 0.048391577 0.0099955127
-0.27818683 -0.39205554 0.85494125 -0.46615553 0.031017127 -0.88415885 0.017871968
-0.11309149 -0.075035959 1.200194 0.0029389083 0.99844289 0.055706549 0.0016978913
0.023969796 -0.08243636 1.0138578 0.14071415 0.98869371 -0.05181022 0.0054592323
-0.11224822 -0.083006255 0.93808156 0.027014863 0.98058367 -0.19423139 0.0012441481
-0.31220913 -0.2865451 1.0752665 -0.9317103 0.34741303 -0.1059246 0.010534707
-0.094928272 -0.076319627 0.98239273 0.011051097 0.98654222 -0.16313279 0.00053888495
-0.036822632 -0.076160692 1.2146983 0.027171526 0.99810243 0.055256259 0.0021079138
-0.35433558 -0.4144693 1.1549352 -0.96710694 0.18988915 -0.1692519 0
0.016093651 -0.075128317 1.1234044 0.11916681 0.992778 0.013827483 0.00084280118
-0.25321147 -0.081910312 1.0616705 -0.25665003 0.96525705 -0.049088366 0.00054703926
-0.046814885 -0.083194904 0.9514063 0.10019676 0.98134506 -0.16408084 0.003069439
-0.13076104 -0.27807921 0.8791303 0.15646569 0.54441929 -0.8240912 0.0042330115
-0.26901266 -0.3565008 0.85442626 -0.40523183 0.053500131 -0.91264713 0.0054362668
-0.27982515 -0.38317654 0.85767776 -0.4855313 0.10854783 -0.86745417 0.01825113
-0.28350583 -0.33234799 0.8653574 -0.63917875 0.28830752 -0.71297216 0.021601619
-0.2997905 -0.10034058 1.1985222 -0.72570485 0.67991519 0.10520412 0.026184456
-0.31729174 -0.19423963 1.2625669 -0.32696602 0.18030724 0.92767584 0.040327087
-0.30511203 -0.14663881 1.2567835 -0.55767918 0.24888709 0.79186428 0.037086274
-0.29602444 -0.11931642 1.2493145 -0.73894417 0.44521904 0.50570893 0.051817458
-0.11792672 -0.35115844 1.3396131 -0.16439864 0.14470619 0.9757219 0.00044947935
-0.16204713 -0.34956565 1.3332825 -0.12606139 0.15003096 0.98061174 0.00280446
-0.30386001 -0.30115065 1.2986448 -0.42415652 0.26244059 0.86672729 0.0022258046
-0.17423669 -0.35992709 1.3333716 -0.11632184 0.15717292 0.98069668 0.00091726601
-0.13753726 -0.38733518 1.3428143 -0.14290485 0.19063218 0.97120422 0.001197483
-0.14746192 -0.25004348 1.2892848 -0.031005803 0.94711947 0.31937978 0.0086131459
-0.24938226 -0.30987996 1.3163648 -0.099721126 0.25805402 0.96097028 0.0017389408
-0.30621925 -0.17211047 1.2620227 -0.31445789 0.22915725 0.92119664 0.042744014
-0.25608259 -0.31584132 1.3162124 -0.096654885 0.20818554 0.97330189 0.00065569137
-0.25051659 -0.31423217 1.3169553 -0.086328283 0.21892823 0.97191465 0.001305245
-0.12696949 -0.29059413 1.3230596 -0.1924817 0.27361801 0.9423821 0
-0.19310606 -0.3782886 1.3342218 -0.11312252 0.161705 0.98033404 0
-0.29735461 -0.27603576 1.2927715 -0.31188723 0.31218097 0.89736801 0.0029629837
-0.28088108 -0.24209313 0.96298146 -0.76148158 0.6385777 0.11119545 0.0074672997
-0.32551542 -0.29711428 1.2844501 -0.61721414 0.19215988 0.76296878 0.011172789
-0.21859975 -0.27477047 1.3039672 -0.094086297 0.46564078 0.87995821 0.0019425217
-0.25574994 -0.10834762 1.261326 -0.2634365 0.32209504 0.90931618 0.076551281
-0.21751611 -0.23435494 1.273567 0.17929795 0.70045459 0.69080794 0.0097791152
-0.33291674 -0.29054129 1.2748245 -0.81203645 0.1584671 0.56168056 0.023075117
-0.29064551 -0.18999721 1.2651621 -0.1174256 0.16514313 0.97925431 0.027367864
-0.1067623 -0.29498753 1.3284153 -0.21238323 0.27926421 0.93643194 0.0019733389
-0.1520106 -0.23032336 1.2413604 0.23506312 0.82250577 0.51790875 0.018901162
-0.29117811 -0.33032602 1.3101317 -0.32640272 0.22417669 0.91826248 0.0021291741
-0.29225603 -0.12459622 1.2560003 -0.35721651 0.40376759 0.84223992 0.032377627
-0.26101285 -0.10133738 0.96206141 -0.74523896 0.555507 -0.36882365 0.075663373
-0.28423232 -0.1631082 1.2624713 -0.09105365 0.071828552 0.99325216 0.017941903
-0.30195582 -0.17911461 1.264457 -0.17328535 0.17249586 0.96964806 0.035144001
-0.11367062 -0.24525109 1.2775868 -0.086440094 0.94710606 0.30906028 0.0024403511
-0.2850627 -0.21452643 1.2732211 0.12795624 0.38772801 0.91284949 0.052433252
-0.28998297 -0.16164882 1.2624286 -0.17795965 0.1141818 0.97739077 0.026947575
-0.28731862 -0.23165539 1.2795532 -0.081808701 0.34594259 0.93468231 0.0053144419
-0.13400126 -0.3185508 1.3325087 -0.10297363 0.2747691 0.9559803 0.0021555554
-0.30849183 -0.17484707 1.2620676 -0.33560798 0.25002754 0.90821451 0.046869121
-0.14408405 -0.2699725 1.3134947 0.085917331 0.6014477 0.79427892 0.010555488
-0.27216497 -0.25281158 0.88790101 -0.80607885 0.28138575 -0.52063316 0.012352997
-0.30617812 -0.30977604 0.95036489 -0.9720692 0.1895922 -0.13833417 0.00053781091
-0.34136379 -0.31802204 1.2714791 -0.89961398 0.2448829 0.36156201 0.0085024396
-0.34083718 -0.31009758 1.2610781 -0.93067485 0.19906715 0.30694723 0.0098581454
-0.28948092 -0.41871774 0.87052619 -0.51698095 0.42515624 -0.74294871 0.1021726
-0.23252617 -0.22927496 1.2774065 0.22362873 0.61922193 0.75269812 0.017538697
-0.22435454 -0.27890277 1.3058265 -0.072675191 0.43206468 0.89890957 0.0024501397
-0.16789733 -0.38777581 1.3386486 -0.11988695 0.17275041 0.97764224 0.00082495168
-0.15306325 -0.39690387 1.3423405 -0.13278948 0.19173974 0.97242111 0.0030568528
-0.28855512 -0.21337798 1.2730441 -0.083397985 0.37443671 0.92349434 0.041660801
-0.29187205 -0.42199603 0.8683691 -0.59983546 0.55168688 -0.57951623 0.10958001
-0.28877029 -0.14793825 1.2638991 -0.17896374 0.16965884 0.96911705 0.015419247
-0.19644001 -0.10314146 1.2736101 -0.36031836 0.76224154 0.53773469 0.07266067
-0.16666189 -0.3670997 1.3354831 -0.11886812 0.16143715 0.97969812 0.0011981247
-0.11113111 -0.21223497 1.2017968 -0.065286063 0.71652353 0.69450116 0.061923493
-0.16120145 -0.39609736 1.3409808 -0.12383937 0.19274241 0.97340339 0.0018086287
-0.20047605 -0.22142555 1.257075 0.17588288 0.70402986 0.68804592 0.017362656
-0.15256524 -0.33597276 1.3324437 -0.13313 0.14525738 0.98039615 0.00068482169
-0.23747776 -0.33467278 1.3215009 -0.1280015 0.15586269 0.97945011 0.00035739498
-0.061310694 -0.1872547 1.2046118 -0.62123346 0.087546386 0.77871984 0.081271306
-0.12210156 -0.17488334 1.1950867 0.27204841 0.21419565 0.9381417 0.027096041
-0.29252863 -0.12661184 1.2560159 -0.34239897 0.39105061 0.85430813 0.031801995
-0.18898259 -0.24997202 1.289022 0.025862293 0.73442006 0.67820221 0.0041705184
-0.25566369 -0.31365761 1.3158526 -0.093661077 0.21973769 0.97105253 0.0015264353
-0.25719517 -0.10925271 1.2611133 -0.23785427 0.29392755 0.92576015 0.067130484
-0.15522754 -0.23624943 1.2563536 0.18241195 0.90338731 0.38809446 0.0029307141
-0.27498311 -0.18331236 1.2618237 0.17882246 -0.073479161 0.98113376 0.021395339
-0.2341232 -0.27991077 1.3050423 -0.065200754 0.44472009 0.89329326 0.0027331028
-0.18832876 -0.22566789 1.2565706 0.2209377 0.82210791 0.52471435 0.0092714047
-0.28098831 -0.17020832 1.2616328 -0.0064129331 0.026089486 0.99963903 0.013653215
-0.15583967 -0.31705034 1.3292388 -0.1213462 0.20183052 0.97187424 0.0051986305
-0.18851058 -0.25894043 1.2976494 -0.07596954 0.59741586 0.79832506 0.016632652
-0.20608956 -0.25065607 1.2904109 -0.044957001 0.65734345 0.75224894 0.0064930622
-0.30562821 -0.16779047 1.2606313 -0.37442765 0.25151438 0.89249337 0.061701074
-0.28872496 -0.09134721 1.1985209 -0.46093526 0.88735861 -0.011551703 0.013347316
-0.11499007 -0.18970306 1.1889082 0.12879923 0.34026128 0.93146819 0.025131626
-0.11009385 -0.20386402 1.1972091 -0.025088031 0.4419775 0.89667529 0.024311524
-0.12068016 -0.19998896 1.1967243 0.11011892 0.39011449 0.91415787 0.028604327
-0.23249684 -0.16187927 1.2523112 0.41788831 -0.41994098 0.80561703 0.048976775
-0.14763273 -0.27111939 1.3129042 0.0628336 0.60548532 0.79337221 0.013751654
-0.10668049 -0.21170563 1.200228 -0.15540989 0.64016885 0.75235075 0.063886464
-0.11105852 -0.21631905 1.2081931 -0.19532454 0.80386651 0.56182468 0.042938113
-0.093078174 -0.22017477 1.2288706 -0.22212227 0.932832 0.28370088 0.0046280404
-0.13867937 -0.24959038 1.2939494 -0.036281392 0.89305663 0.44847909 0.017969105
-0.19870493 -0.32670081 1.3254201 -0.11761621 0.16887373 0.97859496 0.00052467955
-0.292918 -0.22875345 1.2793032 -0.14753138 0.34552017 0.92674172 0.0061296877
-0.30446017 -0.15826026 1.2593882 -0.47951478 0.29523709 0.82637799 0.056298651
-0.041845545 -0.2062511 1.2506659 -0.61029238 0.54908437 0.57100749 0.017602207
-0.094497971 -0.20628224 1.1998255 -0.26218814 0.52253205 0.81130606 0.046384577
-0.27911016 -0.11327125 1.2572212 -0.31861266 0.32847145 0.88915265 0.028039347
-0.098349452 -0.1943094 1.1958812 -0.15746236 0.38932678 0.9075408 0.028661687
-0.22437431 -0.22206628 1.2634128 0.24306729 0.6412468 0.7278192 0.010772616
-0.30432418 -0.15173039 1.2583394 -0.49878776 0.2506322 0.82969534 0.045150321
-0.26491106 -0.13885653 1.263539 0.15539479 -0.0078031006 0.98782158 0.023238566
-0.2754944 -0.15817365 1.2621725 0.10889573 0.00078638719 0.99405283 0.010105397
-0.11291606 -0.4132683 1.3521228 -0.14809708 0.21620373 0.96505088 0
-0.32269365 -0.29127485 1.2850399 -0.55681223 0.25306547 0.79114985 0.0087461937
-0.23285834 -0.22909421 1.2747911 0.21582368 0.62337029 0.75155145 0.016769301
-0.27534571 -0.1822902 1.2632411 0.16979712 -0.064558364 0.9833622 0.022846103
-0.11506315 -0.22572909 1.2380177 -0.14595474 0.90122819 0.40802577 0.00427682
-0.2222389 -0.2720032 1.3021994 -0.099118836 0.48766044 0.86738849 0.0019147373
-0.15440589 -0.33295569 1.3318758 -0.13419066 0.15089558 0.9793995 0.0016244382
-0.2909725 -0.15770788 1.2625471 -0.22352889 0.13563716 0.96521366 0.027790071
-0.2183139 -0.16661167 1.2321367 0.51841098 -0.21882132 0.82666034 0.049219754
-0.133191 -0.24470811 1.2725848 -0.034222845 0.9478296 0.31693491 0.0028101404
-0.28031433 -0.14155316 1.2635056 -0.16082446 0.19293009 0.96794283 0.014693218
-0.25785708 -0.30919054 1.3147347 -0.1005039 0.26349762 0.95941025 0.0020400479
-0.27821586 -0.092270933 1.2257369 -0.34937435 0.9113909 0.21749519 0.012314444
-0.10314367 -0.39518362 1.3498491 -0.14848267 0.20294392 0.96786702 0.00077552447
-0.12566409 -0.24998802 1.2945474 -0.061874852 0.9576897 0.28107288 0.0039499314
-0.052515492 -0.21366462 1.2509193 -0.41689157 0.84062386 0.34576437 0.017677527
-0.10463317 -0.34154478 1.3403984 -0.16684859 0.14294548 0.97556549 0
-0.070448294 -0.22263214 1.2632644 -0.23426871 0.88254541 0.40771529 0.0047539263
-0.11294773 -0.22644538 1.238694 -0.14886816 0.90116751 0.40710637 0.004678221
-0.092634432 -0.34162709 1.3427263 -0.17669004 0.14414652 0.97365409 0.0015136979
-0.2400741 -0.1542806 1.2519754 0.21819974 -0.3006593 0.92843562 0.026303593
-0.24806832 -0.090294145 1.2507024 -0.24363025 0.87823617 0.41151622 0.055105343
-0.14726989 -0.095004007 1.2914226 -0.19883524 0.85087359 0.48629081 0.0016081177
-0.13375022 -0.096937515 1.2997195 -0.13140705 0.87546223 0.46507862 0.0017086203
-0.12987457 -0.25056723 1.2928007 -0.057254933 0.95761132 0.28231636 0.0039952854
-0.20313834 -0.10032746 1.2704076 -0.24923623 0.65736097 0.7111665 0.068429656
-0.33400643 -0.26908514 1.2614297 -0.9604913 0.19662441 0.19696492 0.0085993288
-0.25852874 -0.13256158 1.2572989 0.16104633 -0.038631573 0.98619044 0.02778057
-0.22032787 -0.18123192 1.2273095 0.4889985 0.043078147 0.87122035 0.099148728
-0.33361304 -0.27597734 1.2676529 -0.8721627 0.17034042 0.45860261 0.017783841
-0.25642809 -0.090778761 1.2387406 -0.21790874 0.9172129 0.3335211 0.025597647
-0.27845052 -0.089149125 1.2108692 -0.3329441 0.93646914 0.11033514 0.0090308981
-0.28055426 -0.24575698 0.98048747 -0.69974178 0.7119785 0.058719628 0.0074483594
-0.20507978 -0.10214379 1.2675236 -0.24923623 0.65736097 0.7111665 0.068429656
0.0053194757 -0.076518968 1.1704683 0.08326833 0.99150175 0.099953718 0.002198708
-0.1443526 -0.074988924 1.1698617 0.0087153018 0.99975282 0.02045422 2.8336181e-05
-0.12385063 -0.35054189 1.3385606 -0.15979855 0.14486396 0.97646248 0
-0.16661178 -0.33745703 1.3309528 -0.12442643 0.14886868 0.98099756 0
-0.28056017 -0.088219568 1.1871362 -0.422272 0.90470326 -0.056553517 0.0096973702
-0.18275155 -0.15403622 1.2154226 0.45836356 0.13512726 0.87843233 0.062943749
-0.23651341 -0.077942453 1.127372 -0.18096463 0.98336315 0.015768703 0.00045199256
-0.056195874 -0.19186747 1.2049429 -0.79112434 -0.08868596 0.60519183 0.13195993
-0.1191725 -0.22280346 1.2215397 -0.11458525 0.9249534 0.36239672 0.0071915789
-0.10731827 -0.074410155 1.1445625 -0.00027470317 0.99995881 0.0090691503 2.4184656e-05
-0.22073805 -0.091018185 0.91821355 -0.19312108 0.90350455 -0.38260126 0.014086205
-0.24807933 -0.089946531 1.2508497 -0.24363025 0.87823617 0.41151622 0.055105343
-0.080384076 -0.07434725 1.18174 0.019333445 0.99946374 0.026431985 0.0019216961
-0.11238085 -0.074243449 1.1382495 0.001207008 0.9998588 0.016759437 3.7968293e-05
-0.10855479 -0.17789231 1.1890714 -0.03257484 0.26194137 0.96453387 0.051777177
-0.11238012 -0.29529402 1.3273821 -0.19406196 0.28076497 0.93995261 0.0042694048
-0.14118685 -0.16980469 1.1995243 0.14091234 -0.17091623 0.97515708 0.024705097
-0.15830511 -0.23420228 1.2542382 0.20652467 0.89605248 0.39298534 0.0028705152
-0.056864247 -0.20358199 1.2340891 -0.56348127 0.57945979 0.58882523 0.023051914
-0.21998896 -0.23702815 1.2765663 0.15856357 0.6820097 0.71394706 0.0096523697
-0.27782741 -0.25084463 0.90565771 -0.90355581 0.3150599 -0.29038626 0.0058482485
-0.095715642 -0.19998638 1.1993854 -0.22091277 0.44646624 0.86710179 0.032395788
-0.09837085 -0.074436374 1.1824516 0.02007046 0.99951482 0.023820113 0.0018198609
-0.2175394 -0.077083021 1.0480062 -0.16750152 0.98511368 -0.038654827 0.001128997
-0.17678119 -0.074080661 1.1542366 0.0081999796 0.99969333 0.023364112 0.00076079072
-0.18557483 -0.39223981 1.3374881 -0.11309 0.18842605 0.97555435 0.001834651
-0.13700804 -0.33381814 1.3341777 -0.12288807 0.16472177 0.9786548 0
-0.28099886 -0.14993735 1.2630607 -0.11621227 0.14358971 0.98279029 0.013494612
-0.14562817 -0.25229982 1.2962762 -0.086665958 0.78328997 0.61558574 0.020169873
-0.029256023 -0.074309587 1.1187435 0.010372838 0.99994409 0.0020665133 1.2012597e-05
-0.097726539 -0.38791302 1.3490766 -0.16548347 0.18025027 0.96960044 0
-0.13255155 -0.073676042 1.0450054 -0.0001828314 0.9999705 -0.0076733404 4.6089193e-05
-0.27724904 -0.086886711 1.1953055 -0.34240457 0.9370206 0.068931684 0.0083717676
-0.23739891 -0.2134113 1.2638623 0.20781839 0.65014017 0.7308414 0.038453087
-0.26477459 -0.12882599 1.2618167 0.036831517 0.033799712 0.99874973 0.030724799
-0.0033174516 -0.16412242 1.2643296 -0.65213662 -0.27030075 0.70827633 0.035488572
0.0035149239 -0.20315157 1.289784 0.058877371 0.99825764 -0.0039074472 0.03486754
-0.11872181 -0.41891202 1.3525586 -0.15250267 0.22075786 0.96333218 0
-0.088860996 -0.34504658 1.3437066 -0.17727035 0.14361985 0.97362655 0.00094782299
-0.2009595 -0.10069519 1.2654997 -0.24923623 0.65736097 0.7111665 0.068429656
-0.23030068 -0.28044927 1.3053596 -0.066260003 0.43353799 0.89869595 0.0026900419
-0.089601301 -0.36794364 1.346891 -0.17607273 0.15289775 0.97243029 0
-0.14847463 -0.32072234 1.3310865 -0.12057877 0.21953602 0.96812433 0.0034939975
-0.28775838 -0.23157379 1.2787029 -0.081808701 0.34594259 0.93468231 0.0053144419
-0.036176607 -0.27807245 1.3386843 -0.1697372 0.34314826 0.9238174 0.00069402752
-0.012218897 -0.32830745 1.3542067 -0.14616641 0.17874567 0.97297758 0.00076486514
-0.3316457 -0.29087818 1.2762797 -0.783234 0.15168762 0.60293895 0.024217168
-0.30749559 -0.17004049 1.260563 -0.38645142 0.25602803 0.88606143 0.056974448
-0.060025897 -0.24722055 1.3111042 -0.200588 0.75588769 0.62321603 0.0061485255
-0.31281361 -0.39282304 1.312704 -0.34106287 0.12089543 0.93223411 0.00079963758
-0.31435204 -0.20830821 1.2639283 -0.60344315 0.010347138 0.7973389 0.054841876
-0.29884771 -0.098845989 1.1881027 -0.56892651 0.82232904 -0.0098747509 0.0043968312
-0.30264944 -0.1229139 1.2253571 -0.98146772 0.17228347 0.083902225 0.057826348
-0.2881898 -0.093686186 1.077527 -0.43282035 0.89986533 -0.053936239 0.0022733815
-0.34266761 -0.35348517 1.285588 -0.73469985 0.18802032 0.65181619 0.0063202609
-0.30478224 -0.26422414 1.0920116 -0.85643637 0.49842119 -0.13451052 0.015900109
-0.072137438 -0.28793201 1.3346392 -0.18283202 0.22822618 0.95628721 0
-0.31584698 -0.3590183 0.96713018 -0.98218 0.13821954 -0.12734914 0.00010542271
-0.34891617 -0.39647749 1.2931942 -0.6716305 0.23870736 0.70137817 0.0055304719
-0.2900683 -0.091833219 1.2045273 -0.49614489 0.86561269 0.067489535 0.015361147
-0.2617619 -0.21769436 0.95536071 -0.70806557 0.67579883 0.20479046 0.027119102
-0.30464858 -0.12553395 1.2173384 -0.96514016 -0.076001652 -0.25045624 0.079232022
-0.27705875 -0.24342287 1.0469121 -0.31990233 0.94744992 0.0011185802 0.0038296832
-0.34945333 -0.33091331 1.2357862 -0.98473513 0.15873785 0.071407944 0.0051444611
-0.31566688 -0.18557405 1.254153 -0.50737882 0.28258136 0.81407285 0.053470101
0.0019774293 -0.10112178 1.3031315 -0.068371072 -0.3885003 0.91890854 0.084116012
0.0034053833 -0.20524731 1.2950277 0.058877371 0.99825764 -0.0039074472 0.03486754
-0.33433798 -0.28682008 1.2712771 -0.84386456 0.14927927 0.51537204 0.014870214
-0.31650168 -0.3887746 0.93708307 -0.96824408 0.15997562 -0.19212295 0.00039448476
-0.2467543 -0.20367117 0.95302492 -0.67724913 0.44018075 0.58955455 0.023378016
-0.24483629 -0.20237947 0.95052981 -0.66726154 0.42812043 0.60948747 0.026848888
-0.3042675 -0.10243436 1.1617153 -0.67334527 0.73215264 0.10275557 0.004930573
-0.29987633 -0.09853939 1.2052988 -0.7535513 0.64045334 0.14825642 0.030934704
-0.23243032 -0.1736102 0.97292143 -0.8395347 -0.46487787 0.28119385 0.037391808
-0.31236365 -0.18700559 1.2654921 -0.23714049 0.1811057 0.95444489 0.028677573
-0.043838996 -0.33220759 1.3494295 -0.16043487 0.16548003 0.97307611 0.00051076862
-0.17384332 -0.39398089 1.3391111 -0.11598741 0.19122806 0.9746685 0.0008147647
-0.11921842 -0.29920337 1.3271068 -0.18445727 0.35225099 0.91754824 0.0040906533
-0.22448169 -0.21055338 1.0122852 -0.31737259 0.88448244 0.34200212 0.043512613
-0.34212801 -0.31739378 1.1770051 -0.95799071 0.24695486 -0.14583252 0.0013625672
-0.1914297 -0.25876763 1.2977642 -0.080021344 0.61987484 0.78060985 0.016851064
-0.32798114 -0.32448223 1.0887094 -0.97652787 0.13643871 -0.16666672 0.00010833899
-0.22013696 -0.19039483 0.97221744 -0.83643132 -0.24504609 0.49023962 0.053663801
-0.33218345 -0.27410156 1.1919185 -0.92988259 0.31966862 -0.18201737 0.00099766732
0.0044402792 -0.31483737 1.353359 -0.093684003 0.17157046 0.98070735 0.00098219723
-0.21479227 -0.20512579 0.99822253 -0.48627487 0.63396066 0.60135722 0.05580489
-0.29105055 -0.10145091 1.0282192 -0.51194304 0.83910632 -0.18388818 0.0082141459
-0.26522756 -0.10078208 0.97011584 -0.74002743 0.59043342 -0.32209903 0.075044394
-0.2468372 -0.095614322 1.2620587 -0.18663187 0.68753433 0.70175856 0.10648789
-0.023893664 -0.39310512 1.3623378 -0.15514623 0.17255718 0.97270429 0.00041388904
-0.30373409 -0.12075285 1.2263793 -0.93863362 0.30686903 0.15747486 0.037708022
-0.14185856 -0.24987482 1.2927889 -0.056564901 0.86308515 0.50188082 0.022365397
-0.33489698 -0.28363246 1.1906654 -0.9327358 0.3104943 -0.18329528 0.0015237585
-0.34524471 -0.40915969 1.1088674 -0.9660762 0.2025405 -0.16023132 7.0220514e-05
-0.19422792 -0.21385437 1.0383904 -0.43176612 0.8560285 0.28424177 0.093701191
-0.30432123 -0.26285118 1.0867988 -0.85221153 0.50684154 -0.12979667 0.019396819
-0.34993848 -0.42042312 1.1212966 -0.96384376 0.21133493 -0.16230452 0
-0.31763431 -0.22927222 1.2145522 -0.69252598 0.57250851 -0.43890965 0.017812189
-0.3428914 -0.30510649 1.2530595 -0.9546259 0.23208722 0.18661407 0.0049821483
-0.33508289 -0.31525612 1.1347638 -0.97390217 0.14852606 -0.17162345 0.00045364338
-0.32258669 -0.24368539 1.2102015 -0.76777631 0.56002778 -0.31126907 0.017839201
-0.21381624 -0.2103011 0.99357456 -0.41701207 0.73074621 0.54047292 0.044179097
-0.31904989 -0.34070843 1.0121118 -0.98403049 0.13061662 -0.12092691 0
-0.34321496 -0.32239679 1.1759419 -0.97742265 0.14844662 -0.15036142 0.00054347987
-0.29418057 -0.25799724 0.95769411 -0.86196363 0.5065431 -0.020802718 0.01121324
-0.35394081 -0.42056066 1.1457287 -0.96756214 0.18932804 -0.16726786 0
-0.19733839 -0.38867155 1.3354951 -0.11159666 0.17513405 0.97819948 0.0015551458
-0.14241868 -0.26935202 1.3131813 0.085467935 0.60142124 0.79434735 0.010611071
-0.112065 -0.41480103 1.3526455 -0.15006132 0.22041363 0.96379429 0.00223879
-0.20991163 -0.24793048 1.2889036 -0.011057589 0.68307382 0.73026562 0.0044921422
-0.2379813 -0.22568294 1.1200051 -0.24927382 0.94225597 -0.22364302 0.0011859924
-0.2768147 -0.2210889 1.2755222 0.23751773 0.31030616 0.92048651 0.010087805
-0.33259949 -0.30714718 1.1364955 -0.94349313 0.28918293 -0.16184551 0.001018722
-0.32831416 -0.368754 1.0519742 -0.97759312 0.14490463 -0.15269023 1.8072193e-05
-0.12417506 -0.34731314 1.3379787 -0.15738066 0.13712606 0.9779712 0
-0.075466111 -0.34978017 1.3470651 -0.17816526 0.14439854 0.97334796 0.0022659788
-0.32167643 -0.22488339 1.2460368 -0.9424482 0.32514155 -0.077937305 0.017383318
-0.32229576 -0.34180397 1.0364577 -0.98250109 0.13674159 -0.12646525 7.7389574e-05
-0.30264044 -0.27637738 1.2914119 -0.36353922 0.31176093 0.87786359 0.002724845
-0.15181357 -0.35819149 1.3359125 -0.1290765 0.15382273 0.97963154 0
-0.32438543 -0.29345056 1.2844914 -0.58290792 0.24068543 0.77607268 0.01125526
-0.087388806 -0.076338597 1.2153606 0.065963656 0.99400556 0.087187909 0.003662843
-0.14685452 -0.25049731 1.2917469 -0.050499655 0.86042446 0.50706959 0.021563193
-0.21947423 -0.10518089 1.2593777 -0.15147376 -0.55589503 0.81733495 0.064488597
-0.30040556 -0.098378547 1.2052978 -0.73875511 0.65905905 0.14100379 0.029348552
-0.21210444 -0.22498134 1.0885966 -0.34514102 0.93597376 -0.069502741 0.0047787949
-0.25492939 -0.23717779 1.056541 -0.34887609 0.93041784 0.11228632 0.0032367886
-0.21373934 -0.21495949 1.0186871 -0.32414272 0.89079314 0.31846371 0.040280059
-0.17169634 -0.29058674 1.3187467 -0.072968245 0.34958228 0.9340598 0.0013399194
-0.049489792 -0.075033031 1.0106531 0.030152488 0.99841374 -0.047547806 0.0012983019
-0.34664336 -0.36663094 1.2831372 -0.93975943 0.18555255 0.28709325 0.016333232
-0.35186568 -0.41026461 1.1455147 -0.96744454 0.18934409 -0.16792808 1.9766629e-05
-0.21305738 -0.077036321 0.98603582 -0.20151022 0.97848976 -0.044175472 0.0015860475
-0.32771519 -0.36672205 1.050481 -0.97799033 0.14355901 -0.1514128 0
-0.32350278 -0.27380362 1.149588 -0.87074941 0.45850983 -0.17766336 0.0036068158
-0.35203233 -0.36448097 1.1956904 -0.98005462 0.15715727 -0.12163269 0.00026152533
-0.32851803 -0.28522098 1.1611031 -0.9318428 0.32073829 -0.16969329 0.0012499206
-0.27385226 -0.27350959 1.298267 -0.21185695 0.38172922 0.89966631 0.0019967521
-0.32276797 -0.23011036 1.2593745 -0.96447951 0.26352641 0.018249528 0.013262189
-0.28690174 -0.35968062 1.3168679 -0.2634905 0.14912054 0.95306659 0.00050631427
-0.24076845 -0.41384467 1.3342608 -0.19434135 0.24856114 0.94891983 0.00092340569
-0.36176935 -0.40051746 1.2816418 -0.84934491 0.27580407 0.45005029 0.017481914
-0.24180567 -0.13184276 0.93964493 -0.96328908 -0.032022912 0.26654971 0.044176605
-0.3018032 -0.3760601 0.89384705 -0.92406815 0.10991741 -0.36608228 0.002364991
-0.29215196 -0.41451514 0.8684811 -0.59324139 0.34534994 -0.72718495 0.095834702
-0.34945625 -0.41672564 1.1241415 -0.96437663 0.20878986 -0.16243288 0
-0.30404299 -0.14607857 1.2561437 -0.55130845 0.24911763 0.79624075 0.036909167
-0.12205917 -0.42621246 1.3546 -0.15502663 0.23086327 0.96055651 0
-0.30464116 -0.26315486 1.1063364 -0.85192108 0.51243514 -0.10789228 0.0098206652
-0.28700778 -0.095929474 1.0426984 -0.48782158 0.86606514 -0.10936759 0.001983922
-0.33597344 -0.31615233 1.1393018 -0.97383356 0.15090242 -0.16993155 0.00046497493
-0.32786828 -0.39430583 1.0206044 -0.97929657 0.15808558 -0.12644032 7.2451039e-05
-0.31110573 -0.28323582 1.0749092 -0.92855686 0.35870197 -0.095472455 0.016387831
-0.28657991 -0.098255143 1.0331639 -0.44400293 0.88171977 -0.159473 0.0065875668
-0.21519631 -0.22244629 1.0295587 -0.23739648 0.94933134 0.205944 0.025043661
-0.27843273 -0.19802102 1.2253315 -0.92377859 -0.20668608 -0.32235694 0.10326662
-0.19236083 -0.20808525 1.1257821 -0.17777222 0.94422001 -0.27721038 0.0095806932
-0.24853995 -0.23076743 1.1116323 -0.25834894 0.94191831 -0.21458267 0.00087015511
-0.28326684 -0.090986997 1.0858647 -0.40242958 0.91411978 -0.049349818 0.0011688756
-0.32433772 -0.31997514 1.0722352 -0.97398764 0.15279107 -0.16734071 7.7940647e-05
-0.29970807 -0.25859094 1.0781875 -0.70356989 0.7074976 -0.066606373 0.035475131
-0.29244629 -0.094520755 1.1725703 -0.58004767 0.81285501 0.053024583 0.0070964289
-0.32805705 -0.32477069 1.0889604 -0.97637391 0.13618504 -0.16777274 0.00014030449
-0.3310082 -0.36150175 1.0741467 -0.97459161 0.155296 -0.16141379 0
-0.32137185 -0.31869096 1.055045 -0.97093195 0.17901291 -0.15888818 0.0011569744
-0.32826504 -0.28107095 1.1639189 -0.9291845 0.32832667 -0.16975807 0.0013220846
-0.30567893 -0.26260588 1.0914885 -0.85545313 0.49965531 -0.13617776 0.017609829
-0.26939034 -0.21763976 1.1972841 -0.56016541 0.49226636 -0.66624957 0.02212657
-0.29553023 -0.25772473 0.98682016 -0.8411687 0.52525914 -0.12860049 0.022234131
-0.32262433 -0.34243274 1.0383065 -0.98224199 0.13781564 -0.12730883 0.00010105408
-0.32512173 -0.37024918 1.0283384 -0.98038507 0.14596227 -0.13243902 0.00010077169
-0.22326554 -0.21774031 1.1483569 -0.1985234 0.89715648 -0.39458689 0.029833443
-0.18960054 -0.20720907 1.1184908 -0.16586605 0.95017767 -0.26391432 0.0078822179
-0.26021266 -0.10126273 0.95642215 -0.7764318 0.45048627 -0.44069907 0.086913355
-0.25605699 -0.22238357 0.98238534 -0.56726253 0.8107 0.14484045 0.03794406
-0.31914231 -0.34185189 1.0119711 -0.98389232 0.13139372 -0.12120913 0
-0.26486424 -0.23173738 0.99269748 -0.64924377 0.74739933 0.1409851 0.016645905
-0.26533499 -0.22640426 1.1477455 -0.36163881 0.88553905 -0.2916128 0.0026245601
-0.32678133 -0.39675787 1.0081049 -0.97961682 0.16462646 -0.11510452 4.6917859e-05
-0.32721177 -0.41830438 0.98062801 -0.98072094 0.14687943 -0.12889145 9.937564e-05
-0.30852914 -0.25890759 1.1204586 -0.83658677 0.53098959 -0.13480598 0.013375041
-0.32277951 -0.27339172 1.1470068 -0.87074941 0.45850983 -0.17766336 0.0036068158
-0.29584613 -0.23300366 1.1965826 -0.51920146 0.82002544 -0.24080729 0.0073303138
-0.34090307 -0.35630909 1.1353645 -0.97370678 0.14191265 -0.17820171 3.6577472e-05
-0.29966995 -0.27692726 0.97485751 -0.94996858 0.29957736 -0.088391095 0.011071432
-0.28858545 -0.25011593 0.94777709 -0.83789593 0.54211879 -0.063542828 0.0090648644
-0.35518447 -0.41327086 1.1608096 -0.96834236 0.18629703 -0.16615222 0
-0.22436613 -0.21775416 1.1384007 -0.32747686 0.91611409 -0.23128729 0.0080067841
-0.23546006 -0.20326248 1.1791602 -0.20018409 0.8220219 -0.53311014 0.013811518
-0.2646797 -0.099704497 0.97597849 -0.68767929 0.66634023 -0.28824982 0.049514346
-0.27101973 -0.24134557 1.1014929 -0.28331554 0.94723219 -0.14994484 0.0016270204
-0.31623551 -0.35566524 0.97318 -0.98269331 0.13474688 -0.12711054 0.00010927118
-0.31807932 -0.38923755 0.9463464 -0.97536063 0.15107185 -0.16077633 0.00029839051
-0.2951262 -0.097210817 1.2071216 -0.71182495 0.6814186 0.17021726 0.029492427
-0.29055879 -0.26637062 0.92041022 -0.9257611 0.26829171 -0.26643196 0.0033363332
-0.24916506 -0.20017861 1.1825594 -0.35427955 0.77963376 -0.5163886 0.016515877
-0.25369361 -0.16069897 0.91164529 -0.85985279 0.16448295 -0.48332039 0.125539
-0.25858083 -0.13556202 0.92070264 -0.96279234 0.25417051 -0.091805987 0.040497124
-0.3135207 -0.39052883 0.92084688 -0.95999664 0.1536319 -0.23410192 0.0014724667
-0.28419712 -0.33248913 0.86659896 -0.63917875 0.28830752 -0.71297216 0.021601619
-0.26870582 -0.23115289 0.89615154 -0.87383747 0.29519972 -0.38634849 0.011040978
-0.26810446 -0.22979704 0.89413756 -0.87194926 0.2903378 -0.39421868 0.010426361
-0.34129262 -0.30257818 1.2576365 -0.93848968 0.21182658 0.27270257 0.0093928007
-0.30081812 -0.25598395 1.0194888 -0.80405742 0.58880359 0.0824745 0.032485645
-0.18542752 -0.21356143 1.1008458 -0.070035383 0.98688191 -0.14546174 0.008374257
-0.18286274 -0.21440911 1.0957268 -0.024231886 0.99033779 -0.13654245 0.011689943
-0.30787951 -0.38439444 0.90374106 -0.93674934 0.1210987 -0.32838383 0.0016323691
-0.27850145 -0.24951199 0.89593315 -0.884036 0.29486662 -0.36267602 0.0097276419
-0.35339177 -0.37525111 1.1932813 -0.97928768 0.1561532 -0.1288871 0.0001471429
-0.29414511 -0.29085234 0.915169 -0.93670911 0.20841348 -0.28131816 0.0011416725
-0.28720549 -0.2618894 0.91151541 -0.92489946 0.2410664 -0.29402053 0.0022268815
-0.32272813 -0.34113377 1.0399859 -0.98139077 0.14296207 -0.12819546 0.00010973676
-0.25481728 -0.23768118 1.0872101 -0.31013855 0.94689173 -0.084912412 0.0019519016
-0.31741318 -0.39836317 0.93360782 -0.96922123 0.14887637 -0.19607645 0.00032925076
-0.29302824 -0.096990503 1.0744967 -0.47058651 0.88034934 -0.059441198 0.0014985581
-0.22552504 -0.20715122 1.169084 -0.20634599 0.85782725 -0.47069496 0.016156776
-0.29870227 -0.26833239 0.95260096 -0.93110758 0.35500628 -0.083721273 0.0050816196
-0.2815108 -0.26242271 0.89502871 -0.89431107 0.22124515 -0.38891935 0.00997971
-0.23632638 -0.22602089 1.0373074 -0.28710818 0.9376964 0.1956894 0.018609243
-0.30530933 -0.24328782 1.1745665 -0.5693059 0.79534388 -0.20813169 0.0036941729
-0.28685233 -0.24865684 0.98514724 -0.68358201 0.72959679 -0.020106148 0.0066770404
-0.23422693 -0.22985414 1.0973272 -0.24078578 0.96250373 -0.12493546 0.0021171344
0.13623938 -0.35499352 0.90897554 0.69920468 0.18892117 -0.68950826 0.010718184
-0.25010726 -0.16902216 0.90010291 0.29284605 0.28647 -0.91223687 0.10683944
-0.17807609 -0.073503651 1.0078338 0.00084941689 0.99996817 -0.0079355063 0.0020102193
-0.25948673 -0.10988387 0.96116453 -0.8198694 0.072834015 -0.56789911 0.096851081
-0.29869255 -0.25615934 1.0775055 -0.57829046 0.81566602 0.016404796 0.026794791
-0.35136119 -0.37451556 1.2532624 -0.97401422 0.18928638 0.12436642 0.0028594506
-0.34374592 -0.38120946 1.1308023 -0.97210193 0.15438783 -0.17658485 1.7073995e-05
-0.31480542 -0.37142903 0.94449472 -0.97454828 0.16239773 -0.15454027 0.00033716304
-0.24801835 -0.13511164 0.90355211 -0.89122039 0.11563884 -0.43858165 0.045679849
-0.29396382 -0.27523351 0.92214572 -0.9318977 0.22414935 -0.28517315 0.0016300636
-0.31248543 -0.35035598 0.95049459 -0.98433232 0.12135208 -0.12792018 4.4126267e-05
-0.27557305 -0.33613586 0.86054558 -0.59121144 0.22772057 -0.77370048 0.020980297
-0.17712986 -0.20990792 1.086128 -0.36212903 0.92916769 0.074229449 0.0060908813
-0.33544746 -0.31602219 1.1362021 -0.97390217 0.14852606 -0.17162345 0.00045364338
-0.30430922 -0.2628803 1.0871665 -0.85221153 0.50684154 -0.12979667 0.019396819
-0.34374645 -0.31633666 1.2579714 -0.9718253 0.16679275 0.16654047 0.0065159756
-0.35031667 -0.41786644 1.127574 -0.96493691 0.20363766 -0.16561551 0
-0.35471731 -0.39164731 1.1859614 -0.97572362 0.16640216 -0.14238603 0.00016818996
-0.33131298 -0.26937416 1.2000771 -0.90394151 0.3821632 -0.19194017 0.0027634313
-0.26648888 -0.23218133 0.98231769 -0.65588063 0.75034475 0.082482465 0.018647814
-0.27880871 -0.38518193 0.85695332 -0.46903628 0.054665983 -0.88148546 0.018859064
-0.26317438 -0.21222039 0.88421494 -0.26899514 -0.0063268533 -0.96312076 0.049220107
-0.32093021 -0.37217081 0.99058139 -0.98182404 0.14635219 -0.12084189 7.4674339e-05
-0.23395576 -0.23191775 1.0764151 -0.26513165 0.96359253 -0.034564503 0.00098501518
-0.31145653 -0.3040446 1.0080173 -0.94468302 0.31496364 -0.091497332 0.00023206371
-0.32611582 -0.25479171 1.2700776 -0.93875551 0.26790094 0.21671923 0.006541058
-0.3447434 -0.32474735 1.1846004 -0.97966528 0.14818113 -0.13527115 0.00060916488
-0.3043085 -0.33814561 0.9160006 -0.94044644 0.13478738 -0.31207839 0.0004010406
-0.27867743 -0.2723569 0.88471216 -0.82303786 0.19902462 -0.53197551 0.014244872
-0.27764654 -0.40526164 0.85471952 -0.51604724 0.16662735 -0.84019667 0.040603049
-0.26180542 -0.16708417 0.88271487 0.22379382 0.16650981 -0.96030766 0.070275553
-0.25703055 -0.19658396 0.88939834 0.18601592 0.06009059 -0.98070747 0.060863078
0.014982034 -0.23818353 0.92525929 -0.14771573 0.69421458 -0.70444733 0.007879925
-0.26628613 -0.31905264 0.85781592 -0.3895345 0.25554696 -0.88484943 0.0093029011
-0.25927278 -0.33159494 0.85313714 -0.33283618 0.20569807 -0.92027628 0.009984687
-0.21167898 -0.35641178 0.84743267 0.1096468 0.12952976 -0.98549461 0
-0.21171832 -0.39312109 0.84357721 0.074767716 0.045911383 -0.99614352 0.00069777569
-0.1282388 -0.28676379 0.87497234 0.09811987 0.44016808 -0.89253825 0.0031433406
-0.29090849 -0.32345489 0.87831217 -0.75416577 0.29710591 -0.5856297 0.015289863
-0.25608808 -0.23813067 1.0760448 -0.29560164 0.95527631 -0.0081756525 0.0012180497
0.05479626 -0.24165207 0.91914713 -0.067619443 0.50174809 -0.8623668 0.00068296812
-0.19369009 -0.2022371 1.1459814 -0.28201029 0.9301129 -0.23528726 0.019113664
-0.26773044 -0.27640709 0.86964566 -0.51696754 0.28741455 -0.80631095 0.043288186
-0.34407753 -0.3263725 1.1777773 -0.9779495 0.14680043 -0.14854088 0.00047292295
-0.121193 -0.073332071 1.0661509 0.0018553573 0.99999487 -0.0026054091 3.8293976e-05
-0.047157541 -0.38919789 0.86749673 0.1421867 0.14179316 -0.97963136 0.0012543054
0.12305567 -0.25724617 0.9329468 0.65120858 0.34505937 -0.67591518 0.032529235
-0.2789346 -0.24229142 0.96777922 -0.75018579 0.65466416 0.092930645 0.0071801697
-0.013912139 -0.23654585 0.93967962 -0.27754682 0.82683259 -0.48919886 0.0054389439
0.048154358 -0.2362365 0.92312616 -0.077763386 0.48119467 -0.87315774 0.001942691
-0.31364331 -0.39522004 0.91907227 -0.95987028 0.15203394 -0.2356579 0.0016119279
-0.27853459 -0.24905816 0.89478439 -0.88396329 0.29583254 -0.36206624 0.010003663
-0.30944985 -0.17418414 1.2599193 -0.37729195 0.27090368 0.88558573 0.058442615
-0.34139386 -0.40563414 1.0888385 -0.96642226 0.20884335 -0.14970826 0.00012232945
-0.23851727 -0.22562061 1.0274457 -0.29108521 0.92945337 0.22668459 0.020191109
-0.24160387 -0.24559717 0.87476534 -0.057158753 0.33669516 -0.93987721 0.018481957
-0.28209549 -0.3409819 0.86131781 -0.63136184 0.22163074 -0.7431432 0.026829543
-0.24393138 -0.13129453 0.89853585 -0.82186568 0.22542199 -0.52318418 0.048469845
-0.056320395 -0.26265538 0.9084326 0.086018041 0.73118049 -0.67673928 0.017732941
-0.30686873 -0.25925747 1.1214322 -0.83639586 0.53069741 -0.13712159 0.013869393
-0.083319843 -0.30164856 0.87528253 0.15148966 0.19228086 -0.96957672 0
-0.31671804 -0.2819787 1.1021039 -0.87184155 0.45488337 -0.18158577 0.0066657444
-0.29537067 -0.25370011 1.0002977 -0.83633268 0.54372662 -0.070063829 0.032110456
-0.27786696 -0.090288438 1.0604323 -0.37656128 0.92302561 -0.07890103 0.00092349888
-0.2970551 -0.11808188 1.2282113 -0.88488472 0.4079178 0.22490482 0.030958403
0.01291449 -0.24104418 0.92501658 -0.157822 0.688492 -0.70786375 0.0082681971
-0.32149822 -0.23394617 1.2446489 -0.94844079 0.30603167 -0.082490444 0.0056464374
-0.18766686 -0.099289261 0.90337849 0.11458478 0.55735445 -0.82232982 0.053535804
-0.17766798 -0.076808311 0.98369491 0.043230113 0.99517924 -0.0880308 0.0032378344
-0.24706431 -0.13913086 0.90083307 -0.88980937 0.12343293 -0.4393217 0.038410809
-0.21075681 -0.2955415 0.86116147 0.14714226 0.35626879 -0.92272514 0.0026929774
-0.2517733 -0.19538131 0.88770539 0.21846038 0.07920599 -0.97262603 0.053276766
-0.18985391 -0.39769357 0.84614855 0.13101572 0.06840919 -0.98901713 0
-0.046485774 -0.24361093 0.94049942 -0.047196608 0.93413901 -0.35377491 0.0038376739
0.036709741 -0.35102451 0.88296014 0.14786747 0.13176076 -0.98019099 0
-0.26747683 -0.12611587 1.2199173 -0.41606534 -0.43071228 0.80085993 0.0010735809
-0.28298283 -0.19569583 1.231811 -0.99215335 -0.04081586 -0.11817694 0.061648298
-0.32966608 -0.42051685 0.9961381 -0.97853577 0.16788694 -0.11950607 0.00010524331
-0.36610895 -0.42807803 1.2876421 -0.74687767 0.15549371 0.64652568 0.01764429
-0.037896655 -0.25031376 0.92111146 -0.11120415 0.89022338 -0.441742 0.002518181
-0.24590203 -0.30558088 0.85738164 -0.075293161 0.19687027 -0.97753417 0.004379855
-0.19033198 -0.085057117 1.2015765 -0.068215527 0.98098934 0.18167712 0.009075325
-0.26447839 -0.3283549 0.85482842 -0.40836927 0.26518792 -0.87344712 0.010162626
-0.16026618 -0.30296001 0.86519003 0.12847146 0.32425058 -0.93720686 0.0018632201
-0.31119299 -0.20959678 1.265059 -0.55888522 -0.0036602071 0.82923692 0.053353298
0.060915034 -0.18980117 0.94835305 -0.31344047 0.40617633 -0.85835648 0.053805213
0.13574788 -0.421395 0.89266688 0.43824303 0.24777913 -0.86403042 0.016070567
-0.28134346 -0.34857655 0.86112177 -0.57906002 0.19347523 -0.79199541 0.02914747
-0.25207797 -0.23655692 1.0685878 -0.29319468 0.95588422 0.017950002 0.00069345051
0.045710847 -0.1461212 0.94948995 -0.30795226 -0.032385286 -0.95085049 0.062490277
-0.011930945 -0.28123966 0.89470261 0.078450583 0.51521355 -0.85346383 0.0025127868
0.044809416 -0.19013911 0.95327139 -0.5868718 0.35168105 -0.729316 0.088481121
-0.2860744 -0.095016398 1.0511429 -0.4530021 0.88723028 -0.087244086 0.0010657381
-0.26063234 -0.28590453 0.86279827 -0.20510854 0.24496248 -0.94758838 0.011395867
-0.12331263 -0.094214275 0.90165764 -0.068129644 0.93463987 -0.34900817 0.019659793
-0.29895708 -0.16049179 1.2636005 -0.29111028 0.17335834 0.94085163 0.043970421
0.11745761 -0.4099029 0.89212292 0.35740206 0.21539372 -0.90877354 0.0053393696
-0.30686024 -0.16665259 1.2600917 -0.44097915 0.28027028 0.85263473 0.064523548
-0.12347861 -0.081477113 1.2510962 -0.013618717 0.9898662 0.14134876 0.00030078588
-0.31759948 -0.22433388 1.2501439 -0.96289927 0.26618481 -0.044391453 0.019341623
-0.33613327 -0.27210447 1.2214713 -0.94574511 0.31104046 -0.093914516 0.0029262013
-0.33315182 -0.34026721 1.106624 -0.97451591 0.13853931 -0.17642458 0
-0.3122499 -0.21941674 1.2719469 -0.56920648 -0.047610801 0.82081503 0.063344002
-0.24922283 -0.22514828 1.010161 -0.46794209 0.86115605 0.19859609 0.0050263098
-0.34686336 -0.33619982 1.2422016 -0.98396146 0.16717985 0.06221582 0.0040133148
0.021426845 -0.15124737 0.96058875 -0.59918416 0.1683799 -0.78270465 0.070532471
-0.1876232 -0.35061258 0.85111535 0.12389618 0.13130884 -0.98356891 0
0.082928129 -0.28739437 0.90351242 0.21831109 0.2679126 -0.93838322 0.00023851263
0.036557224 -0.19144399 0.95212656 -0.55070335 0.39007378 -0.73794872 0.093660422
0.057289813 -0.25015566 0.91372532 -0.035251822 0.52930647 -0.84769809 0.001968073
0.042898122 -0.15765654 0.95601571 -0.44383842 -0.064827882 -0.89375883 0.055297632
-0.13088396 -0.37950438 0.85561663 0.185188 0.11439542 -0.97602206 0
0.13117999 -0.39729843 0.90006697 0.5096817 0.19948906 -0.83691627 0.012389448
-0.30131233 -0.27303419 1.0130727 -0.97485703 0.20852369 -0.078559197 0.0085892836
-0.30582392 -0.42404768 0.85856438 -0.2308277 -0.86158353 0.45209762 0.082014345
0.14121298 -0.39462897 0.90648741 0.65970671 0.19418758 -0.72600156 0.013807469
-0.32258087 -0.35206711 1.0274508 -0.98290461 0.13433416 -0.1259087 4.4864897e-05
0.062418047 -0.14085354 0.9518348 -0.17422695 -0.1259248 -0.97662061 0.027251849
-0.11836091 -0.096616916 0.89780563 -0.011859895 0.87455362 -0.4847838 0.0029958545
-0.047510743 -0.27911353 0.89161164 0.12902477 0.57119423 -0.81061077 0.0059228982
0.016507411 -0.4099665 0.87172461 0.11583789 0.17028609 -0.9785623 0.00042770823
-0.11878178 -0.30446222 0.86910272 0.13282365 0.30184257 -0.94405985 0.0027250703
-0.043637063 -0.38535544 0.86856937 0.14377013 0.14277996 -0.97925681 0
-0.20881107 -0.34840077 0.8487733 0.11056209 0.13172205 -0.9851017 0
-0.3030231 -0.37165919 0.89979148 -0.92999053 0.13178733 -0.34314689 0.0020155944
-0.20513657 -0.23758027 0.88315558 0.30713704 0.67015737 -0.6756891 0.026313707
0.019952562 -0.27872425 0.89857739 0.057549842 0.44430956 -0.89402288 0.0028038239
-0.33312339 -0.26535219 1.2202888 -0.91828638 0.38041693 -0.10969505 0.0045973728
-0.29408708 -0.23780373 1.1704707 -0.53704673 0.80902249 -0.23887937 0.0018702791
-0.30417237 -0.25363463 1.1058307 -0.78271961 0.61377209 -0.1031203 0.011058202
-0.3286978 -0.25318012 1.2673531 -0.94974786 0.26707691 0.16324468 0.0084787458
-0.26006737 -0.17535001 0.89765805 0.24968825 0.27685165 -0.92790574 0.12606472
-0.29863515 -0.096984446 1.1670711 -0.64738905 0.75682169 0.090046689 0.0063890382
-0.12374045 -0.39470908 0.85554534 0.18252711 0.11491099 -0.97646266 0
-0.20771042 -0.22282808 1.0631226 -0.33818457 0.93469846 0.1094072 0.0063140919
-0.17650071 -0.31089479 0.85860389 0.1246093 0.31350717 -0.94137442 0.0033922766
0.068752483 -0.29678035 0.8974216 0.17750163 0.26914778 -0.94660056 0.0013988176
0.040948525 -0.18555376 0.96701247 -0.66906095 0.11760704 -0.73384333 0.078952849
-0.33892214 -0.36982346 1.1134068 -0.97410089 0.14532529 -0.17322831 0
-0.082084589 -0.24707945 0.93109137 0.097638868 0.87895685 -0.46679923 0.0042292527
-0.32494244 -0.35751951 1.0417619 -0.97959769 0.14210683 -0.14210549 8.577187e-05
-0.23158126 -0.39817536 0.84294099 -0.11008208 0.088156313 -0.99000531 0.0021131507
-0.3193258 -0.35898095 0.99388152 -0.98292279 0.13810702 -0.12161118 0
-0.27099097 -0.21148311 1.1969963 -0.58528262 0.42666355 -0.68949431 0.02107667
-0.14761607 -0.2860882 0.87285149 0.054923784 0.45699415 -0.88777232 0.0026182451
-0.17657828 -0.24233447 0.89784634 0.38915613 0.70597523 -0.59174019 0.010033149
-0.2754539 -0.24419963 1.0680367 -0.33650446 0.94117343 0.03094043 0.0054512704
-0.32448485 -0.2785607 1.149573 -0.89280993 0.41829836 -0.16708347 0.0040003662
-0.21799639 -0.35229859 0.84811658 0.086356245 0.14310168 -0.9859333 0
-0.038899623 -0.074120678 1.1285129 0.0031704335 0.99998367 0.0047528795 2.9154602e-05
-0.21498688 -0.29045874 0.86207509 0.16173276 0.32395533 -0.93214566 0.0039680186
-0.25383714 -0.38115993 0.84833813 -0.2661463 0.023976093 -0.96363443 0.0032182399
-0.1840243 -0.2878035 0.86870873 0.15187828 0.41023293 -0.89924514 0.00052469247
0.035627771 -0.26715118 0.90394962 0.0701546 0.41464394 -0.90727538 0.0022922531
-0.042226832 -0.32481918 0.87652278 0.1159922 0.14939441 -0.9819507 0
-0.23797312 -0.16908734 0.94841129 -0.86626709 -0.40163285 0.29710668 0.02464696
-0.15755598 -0.2436949 0.90615624 0.35903817 0.71000803 -0.60578889 0.0082221031
-0.045422755 -0.34868535 0.87280446 0.12223127 0.13956818 -0.98263943 0
0.047754649 -0.28993404 0.89635229 0.12151465 0.32824767 -0.93674308 0.0020050998
-0.054163501 -0.397753 0.86505413 0.14564824 0.14921111 -0.97801977 0
-0.075132832 -0.081237905 1.2496094 0.0077201845 0.99178618 0.12767325 0.00052988465
-0.28547427 -0.093329094 1.0701624 -0.41399732 0.90812528 -0.06256751 0.00096042489
-0.21402349 -0.074533656 1.0821813 -0.10196488 0.99472654 -0.011053408 0.00045088783
-0.28234327 -0.24058232 0.94961798 -0.79583347 0.6025098 0.060258422 0.0075014881
-0.35071337 -0.36780456 1.2504617 -0.980874 0.14881596 0.12545881 0.0034189974
-0.28862292 -0.24915396 0.96293002 -0.77708292 0.62808996 0.040559769 0.0083940765
-0.32636413 -0.41694024 0.97552538 -0.9807654 0.14206828 -0.13385002 0
-0.31855223 -0.3396751 1.0088974 -0.98408681 0.13101581 -0.12003379 2.3995741e-05
-0.27633527 -0.24369749 1.0353142 -0.38162312 0.92411 0.019608729 0.0072572022
-0.31632692 -0.3540279 0.97530711 -0.98262429 0.1358837 -0.12643243 4.6649253e-05
-0.29329428 -0.30149609 0.90123254 -0.94138283 0.21129151 -0.26297218 0.00075611053
-0.30962732 -0.32280093 0.9530434 -0.97871399 0.14974269 -0.14034241 0.00050164573
-0.32569474 -0.42489594 0.96333975 -0.9808256 0.14266089 -0.1327748 0
0.040347647 -0.17583966 0.95950544 -0.67872065 0.015608993 -0.73423064 0.057450615
0.041120622 -0.14572178 0.95298088 -0.41707596 0.061174259 -0.90681052 0.076126814
-0.072637424 -0.074276477 1.1489797 -0.0041254372 0.99993026 0.011068619 6.4066197e-05
-0.066691577 -0.39046186 0.86397636 0.14811449 0.14300065 -0.97857702 0.0017385202
-0.26270744 -0.17562653 0.88187742 0.2395671 0.15855253 -0.95784587 0.065848179
-0.31944078 -0.39760363 0.94692308 -0.97706532 0.13952962 -0.16085722 0.00014425228
-0.30076405 -0.1223552 1.2315155 -0.89714301 0.38521403 0.21620491 0.044689391
-0.30096671 -0.27850962 0.9630236 -0.95622432 0.27773309 -0.092191741 0.0037858053
-0.11093574 -0.38191211 0.85946929 0.17808649 0.1120698 -0.9776122 0
-0.064778708 -0.30327466 0.87765217 0.17912653 0.2951794 -0.93850034 0.0019776965
-0.22751245 -0.0819242 0.9635756 -0.21144927 0.96948743 -0.1240293 0.00080746395
-0.26241812 -0.28716254 0.8637085 -0.20925272 0.24320744 -0.94713432 0.011596866
-0.2870324 -0.27062258 0.90957445 -0.92901987 0.23607646 -0.28493857 0.0019557923
-0.1978063 -0.074013054 0.97667366 -0.072051369 0.98889625 -0.12997259 0.0077144513
-0.10767001 -0.38468173 0.85954422 0.17850056 0.11173616 -0.97757488 0
-0.31762058 -0.31505334 1.0314665 -0.97307736 0.19837117 -0.11734267 0.0020787599
-0.058420766 -0.36703521 0.868761 0.14065467 0.13460228 -0.98086613 0.00016673676
-0.12194633 -0.25650939 0.90083152 0.10001285 0.72807914 -0.67815804 0.0056419726
-0.24460486 -0.3049092 0.85685265 -0.062815547 0.20355268 -0.97704685 0.0041171364
-0.10098555 -0.29127756 0.87488443 0.1407866 0.26154742 -0.9548676 0.0023616236
0.06458053 -0.35875264 0.88680458 0.17152485 0.11448665 -0.97850496 0.00029038652
-0.32278818 -0.40180042 0.96607608 -0.97956145 0.15668491 -0.12613161 0
-0.14127646 -0.34431645 0.85924625 0.17606871 0.15416719 -0.97223055 0
-0.26024133 -0.10813019 1.0218893 -0.051596403 0.88358027 -0.4654285 0.059465792
-0.055936061 -0.28491536 0.88935322 0.12308838 0.55302733 -0.82402056 0.0063019814
