# .PCD v0.7 - Point Cloud Data file format
VERSION 0.7
FIELDS x y z
SIZE 4 4 4
TYPE F F F
COUNT 1 1 1
WIDTH 1450
HEIGHT 1
VIEWPOINT 0 0 0 1 0 0 0
POINTS 1450
DATA ascii
-0.1477914 -0.2263443 0.91088569
-0.1796364 -0.36138889 0.8207956
-0.31166011 -0.3321217 1.006865
-0.072045028 -0.1580255 0.94710678
-0.17268901 -0.235614 0.86008191
-0.1751585 -0.2344912 0.93953621
-0.006201088 -0.2497867 1.267139
-0.28950271 -0.26515439 0.99028099
-0.1855149 -0.35408029 0.81849182
0.0021719339 -0.38980389 1.3170069
-0.2951009 -0.2497856 1.003219
-0.1617181 -0.16656829 0.98786122
-0.33956829 -0.39619249 1.054038
-0.26023099 -0.2542882 0.95764959
-0.3259922 -0.38198641 1.019731
-0.09467411 -0.29453599 0.72258288
-0.1408799 -0.2340558 1.167327
-0.1769515 -0.31223139 0.82338142
-0.27572101 -0.36191279 0.95511591
-0.1260051 -0.40194571 0.72264302
-0.062561989 -0.1504766 0.84370953
-0.1897812 -0.1929502 0.85004407
-0.1317949 -0.16787951 0.97418118
-0.1107894 -0.2342349 0.78806561
-0.07212013 -0.21621729 0.85974717
-0.071408302 -0.3242729 0.68340617
-0.065999418 -0.3322638 0.67952383
-0.058050621 -0.1163878 0.72399592
-0.059387729 -0.20198619 0.70835698
-0.0383716 -0.32364529 0.68228579
0.17233209 -0.2373265 0.89939219
0.115969 -0.080044881 0.84740198
0.0037925991 -0.087260768 0.76271892
-0.05825372 -0.1590278 0.71656138
-0.059363078 -0.1832688 0.71285123
-0.04376401 -0.3201755 0.68218642
0.045524709 -0.29332751 0.74905342
0.1946314 -0.1617288 0.92351812
-0.03681872 -0.26411709 0.69614708
0.072527193 -0.2750358 0.76948428
0.03464599 -0.3462027 0.7220788
0.074522488 -0.3752853 0.76063859
0.05226915 -0.090447627 0.7919243
-0.0074497499 -0.3910735 0.69183761
0.020847989 -0.33445549 0.72176331
0.1790684 -0.1839333 0.92835307
0.15330391 -0.1121688 0.8843863
0.060597781 -0.078054123 0.80112851
-0.03056979 -0.3735913 0.68333668
0.0071091349 -0.3434734 0.71453512
0.1436538 -0.31559291 0.81734699
0.1297293 -0.35863081 0.80517131
-0.00033083191 -0.344497 0.70907718
-0.024096459 -0.25418979 0.70595789
0.00041401389 -0.28023899 0.718521
0.2208152 -0.28145799 0.8794542
0.083198793 -0.38757011 0.75814271
0.083077706 -0.3660906 0.76852071
0.1278697 -0.38590911 0.79839402
0.092503227 -0.37408069 0.76443231
0.056968741 -0.2750366 0.76618898
-0.003405724 -0.26986441 0.71782172
-0.02693931 -0.29659581 0.69933587
0.1429884 -0.1489168 0.93502492
0.16227929 -0.1672101 0.92798632
-0.0091362149 -0.079160757 0.75184011
0.17720219 -0.090360887 0.88859743
0.02016123 -0.2742711 0.73773497
0.05607786 -0.25594401 0.76148468
0.1880969 -0.36622611 0.84260201
0.1395708 -0.3871806 0.80095428
0.15299261 -0.2693783 0.83316249
0.069357507 -0.271314 0.76165092
0.1007772 -0.33762321 0.79317689
0.205341 -0.3485522 0.85505819
-0.02191579 -0.38641569 0.68564337
0.1654458 -0.1293339 0.92812222
0.1068102 -0.08524102 0.83964628
0.1110895 -0.073455893 0.84695327
0.0060012639 -0.352404 0.7100265
0.095385633 -0.2976096 0.78378421
0.14144421 -0.33940631 0.81267011
0.081447929 -0.28255031 0.77724999
0.06973692 -0.38283691 0.75868553
0.01773634 -0.22910731 0.78657591
-0.02025965 -0.1760442 0.7522077
0.040147688 -0.077817433 0.79080749
0.13091519 -0.07964243 0.8545872
0.1004257 -0.1979768 0.94165152
0.03296959 -0.39111719 0.7202518
0.101813 -0.30006471 0.79132491
0.1473266 -0.3253938 0.81015003
0.049807429 -0.2269405 0.90937692
0.05213315 -0.1667303 0.93408722
0.042988669 -0.092655458 0.7816304
0.01676972 -0.34922421 0.71741009
0.2029468 -0.3349382 0.85263908
0.2401371 -0.28446841 0.89078319
-0.02783039 -0.16697431 0.7354371
0.026049741 -0.169128 0.9253667
0.035521019 -0.18016461 0.9292556
0.1052531 -0.092688851 0.82665062
0.21465801 -0.3412523 0.86130661
0.099700183 -0.375689 0.76357073
0.01433776 -0.36573991 0.71035701
0.094805658 -0.28374869 0.78839791
0.1358085 -0.14921179 0.93785572
0.045835812 -0.31159711 0.74102122
0.0081793414 -0.34427181 0.70995349
0.022724491 -0.38278469 0.70603639
0.06313701 -0.28559339 0.76742637
0.2116981 -0.32782739 0.85451448
0.1412179 -0.34186509 0.80750543
0.2249272 -0.3819389 0.85031867
0.1236896 -0.35618159 0.80724478
0.122818 -0.071438931 0.84938997
0.1376674 -0.27173811 0.83039379
0.074961103 -0.29179081 0.76718491
0.1956965 -0.1748964 0.92403072
0.033064671 -0.1501054 0.93449342
0.1201922 -0.2462717 0.81141549
0.01336821 -0.2187645 0.84915882
-0.03157166 -0.3812131 0.68199342
0.1325808 -0.37781119 0.79924822
-0.0086355433 -0.1699048 0.77942502
-0.2251634 -0.1789225 0.99064833
0.1920564 -0.39808881 0.83369923
0.0162565 -0.23769251 0.7598201
-0.046975169 -0.27056769 0.68285108
0.1756162 -0.3299799 0.84205729
0.1573794 -0.25165239 0.84420621
0.2036981 -0.07954637 0.91311091
-0.01258689 -0.27650389 0.70605743
-0.045759931 -0.30948219 0.68278778
0.13127179 -0.3149662 0.81476682
0.25683659 -0.25695911 0.90455502
0.25656709 -0.2734527 0.89863652
0.2032682 -0.066731803 0.9556489
0.2372108 -0.066347517 0.93967688
0.27004561 -0.30883381 0.90860021
0.27268931 -0.31321529 0.90855998
0.244423 -0.27482581 0.89685088
0.24064679 -0.29375309 0.8892622
0.28142619 -0.23611011 0.94216567
0.2779727 -0.2373364 0.94286191
0.24571709 -0.36304989 0.89246088
0.2394639 -0.06680949 0.94928819
0.28080791 -0.2494209 0.94078052
-0.02070299 -0.06047412 0.90662938
0.13011441 -0.2618739 0.81771803
0.016454181 -0.27705359 0.73586738
0.023691099 -0.35219541 0.71774727
0.02126652 -0.3349835 0.71846682
-0.01417507 -0.1511362 0.77757192
0.1727529 -0.33863169 0.83737892
0.1292941 -0.3962492 0.7783305
0.1995068 -0.24891239 0.86857551
0.1850663 -0.26453379 0.85494411
0.1061862 -0.2358609 0.81073081
-0.1107278 -0.2322187 0.77593303
0.001250152 -0.22785041 0.81213307
0.13375171 -0.37465289 0.8052184
0.1300545 -0.23847909 0.83195227
0.073884107 -0.29057041 0.76712418
0.088799849 -0.092415653 0.82605439
0.29171649 -0.3606979 0.91383642
0.027019531 -0.39058411 0.71868199
0.043774359 -0.31300771 0.73479092
0.1600696 -0.2669366 0.83903068
-0.004539106 -0.16097391 0.80037481
0.099929452 -0.22667091 0.90659869
-0.081695408 -0.2331664 0.70772809
0.04027481 -0.22282051 0.93406188
-0.14645331 -0.2306595 0.84112418
-0.044663161 -0.2706387 0.68673599
-0.046628829 -0.2497634 0.68941772
0.13126209 -0.095394403 0.86125761
0.1814844 -0.13496619 0.92405421
0.2118305 -0.36201659 0.86001903
0.1728985 -0.1947294 0.934587
0.02799972 -0.29515931 0.732153
-0.1170379 -0.23734529 0.76035631
-0.1504828 -0.2377142 0.80644017
-0.16522039 -0.2268838 0.88828683
-0.058652211 -0.1558754 0.71958178
-0.1036448 -0.0877956 0.75340432
0.1640459 -0.2058959 0.93161428
0.037131619 -0.18832371 0.92853081
-0.036229782 -0.1792649 0.71403801
-0.057095092 -0.32094619 0.6802032
-0.048233889 -0.1740713 0.70748478
0.02168221 -0.3131569 0.72636032
-0.090017043 -0.28384861 0.71113849
0.1109577 -0.29043099 0.79281372
0.30760151 -0.41032031 0.94029927
-0.217411 -0.2072894 0.99711549
-0.1634625 -0.4045743 0.76787782
-0.1160091 -0.2465997 0.77636129
-0.239572 -0.3060613 0.90977818
-0.2163593 -0.39624211 0.86736017
-0.063879952 -0.30168569 0.68001801
0.030404991 -0.37594321 0.71465391
0.067155503 -0.095953912 0.81668538
0.02051561 -0.2146482 0.91602808
-0.17920379 -0.38734001 0.81098157
0.01094355 -0.23422439 0.77393788
0.026714681 -0.2168832 0.92459911
-0.1092955 -0.080883428 0.79411578
-0.165501 -0.29500231 0.80460232
-0.28458351 -0.21094561 1.009714
-0.2181078 -0.2290608 0.89138949
-0.0094821341 -0.2388037 0.73931688
-0.28166819 -0.14832979 1.028639
-0.1566437 -0.2895861 0.78750098
-0.04667617 -0.2343879 0.6986323
-0.1002676 -0.2916784 0.73607641
-0.1926198 -0.2396533 0.87002909
-0.1295072 -0.29600221 0.75823653
0.039086372 -0.23214979 0.92717129
-0.249836 -0.3720206 0.91054863
-0.1336977 -0.37648499 0.74593931
-0.28414071 -0.25410101 0.98856598
-0.0056744111 -0.14925469 0.81770641
0.020036509 -0.090586632 0.76928848
0.045607671 -0.1683227 0.93800062
-0.1626986 -0.33170781 0.804371
0.2563636 -0.1815438 0.93850768
0.18870971 -0.235679 0.85662192
-0.0036845771 -0.28202581 0.71847272
0.090378471 -0.30015051 0.77943158
0.16952179 -0.33072999 0.83676791
0.2048427 -0.2829994 0.85264212
0.2034062 -0.38399261 0.85388172
0.0031443611 -0.38003939 0.70122331
0.1691599 -0.30417469 0.83183479
0.01282845 -0.2140255 0.8733992
0.19222119 -0.4070878 0.82706338
0.22300249 -0.28781721 0.86496329
0.2446011 -0.34603599 0.88711327
0.038555142 -0.3229059 0.73870641
0.057173312 -0.060710009 0.92289013
0.2456436 -0.27931571 0.89333302
0.23250981 -0.2185059 0.91697288
0.22102989 -0.1575024 0.91815507
0.25487691 -0.1871931 0.92866242
0.13700821 -0.06118745 0.8879807
0.1118833 -0.064190447 0.84711307
0.044043969 -0.063840121 0.87203062
-0.096007451 -0.2641153 0.71408713
0.13871101 -0.2279011 0.87154752
-0.00092628598 -0.3456752 0.71041822
0.2465433 -0.1818884 0.92724901
0.01328611 -0.061949659 1.070677
-0.01773411 -0.066051193 1.087527
0.1036386 -0.064252824 1.0588239
0.06190145 -0.065336868 1.068787
0.05511215 -0.061230931 0.99974817
-0.003803194 -0.067844182 1.0139591
-0.0057137609 -0.067245923 1.140609
-0.02029017 -0.060977519 0.92901951
0.00084257132 -0.061629701 1.171433
0.02021417 -0.069189258 1.176084
-0.0092093349 -0.065121502 0.99659997
-0.022998691 -0.062445659 1.022017
0.089823566 -0.062594652 1.156687
-0.001653582 -0.062409159 1.145111
-0.1534764 -0.22781651 0.85089761
-0.17299619 -0.2251213 0.866974
-0.15860461 -0.2314011 0.89553863
-0.20514759 -0.3538596 0.85204059
-0.2104007 -0.34117669 0.86322308
-0.021495249 -0.067240387 1.083042
-0.1688935 -0.22945 0.85845691
-0.064697772 -0.06230763 1.0187629
-0.1561964 -0.2239002 0.89748383
-0.0449703 -0.059904251 1.015689
-0.1380724 -0.2281203 0.8655014
-0.015930589 -0.05971837 0.99723059
0.049329281 -0.062293019 0.97725409
-0.17347831 -0.2258959 0.87292588
-0.1633257 -0.2291467 0.89352208
-0.1538261 -0.226538 0.92849708
-0.019353541 -0.063390523 1.1157531
0.06324774 -0.060885489 1.1575921
-0.0008610189 -0.062217832 1.017032
0.073898882 -0.060631391 1.173057
-0.15487459 -0.2215443 0.91970682
-0.1785906 -0.22538351 0.95841372
-0.19418859 -0.22931699 0.95076323
0.094073333 -0.067930549 1.155085
-0.17123429 -0.38738921 0.79948372
-0.1460834 -0.22464851 0.9211449
-0.1996254 -0.2681821 0.86156207
-0.2404519 -0.3532584 0.90126818
-0.2450854 -0.35066229 0.90769821
-0.19356669 -0.090876311 0.90325332
0.01130787 -0.060661942 1.2044621
-0.1163289 -0.06191197 1.007987
-0.1681359 -0.2292103 0.9510206
-0.26011911 -0.35158229 0.92550468
-0.19346049 -0.071071059 0.90184808
-0.18788929 -0.2278031 0.94885957
-0.073679663 -0.061219841 1.109442
-0.246557 -0.3056404 0.91582209
-0.2313436 -0.25693521 0.90987289
0.01354563 -0.065478712 1.233014
-0.067931741 -0.062890947 1.132367
-0.071916521 -0.064023823 1.07936
-0.1385929 -0.060522411 1.030751
-0.1645212 -0.060816079 1.000996
-0.1431116 -0.064384043 1.024323
-0.070318073 -0.061340392 1.089983
-0.088872701 -0.068320863 1.131682
-0.1006755 -0.063247383 1.126922
-0.097976796 -0.061812911 1.135042
-0.1410834 -0.060034811 1.022699
-0.068021327 -0.06436649 1.103386
-0.23412231 -0.092473947 0.96366549
-0.2498627 -0.35680851 0.91274011
-0.224518 -0.093276039 0.94903409
-0.1914648 -0.35321599 0.83080888
-0.070370048 -0.05990902 1.111384
-0.2345507 -0.2260716 0.98525077
-0.1481235 -0.062821418 1.011999
-0.26597309 -0.2507143 0.9533605
-0.1959355 -0.065093867 0.99009287
-0.04847208 -0.060973879 1.040632
-0.25974491 -0.2295192 0.98738682
-0.2569561 -0.26913461 0.94327712
-0.2366195 -0.2313654 0.97366297
-0.1693892 -0.06486854 0.99331647
-0.1933094 -0.064612538 0.9892844
0.017875461 -0.06102043 1.042954
-0.28987041 -0.33803561 0.96748292
-0.1072926 -0.2261727 0.86407071
-0.17729659 -0.38871849 0.80622989
-0.2443087 -0.080630451 0.98278588
-0.083640337 -0.06887044 1.127014
-0.1228102 -0.2291375 0.89287782
-0.29507831 -0.2143766 1.017578
-0.28556839 -0.2606805 0.98028308
-0.28219929 -0.25653401 0.98164618
-0.312549 -0.2954309 1.011611
-0.3323321 -0.36419791 1.038399
-0.2421343 -0.17156211 0.99029613
-0.2119668 -0.358751 0.86431092
-0.2171247 -0.3569749 0.86985701
-0.19408379 -0.34274551 0.84098071
-0.19581801 -0.35419109 0.83998138
-0.31321701 -0.2806333 1.032135
-0.2652497 -0.1128047 0.99867159
-0.03064796 -0.062149491 1.12718
-0.1132001 -0.065965347 1.027261
-0.31791371 -0.3002966 1.015463
-0.2890515 -0.25955671 0.98592508
-0.30874699 -0.28355831 1.0113519
-0.29429549 -0.341481 0.97376889
-0.2585324 -0.1025021 0.99306631
-0.31086689 -0.25143969 1.027837
-0.29242039 -0.173678 1.025818
-0.25644991 -0.2318763 0.98403108
-0.24703839 -0.16951521 0.9956305
-0.2757099 -0.2050361 0.99351609
-0.27119941 -0.1114896 1.005991
-0.2432235 -0.231538 0.97404683
-0.29550129 -0.364829 0.96745968
-0.29873729 -0.34545851 0.97865409
-0.29270321 -0.32037771 0.97728622
-0.1799521 -0.063179173 1.034143
0.023345049 -0.070138417 1.246393
-0.20096441 -0.069346637 1.0531451
-0.26181361 -0.059771478 1.015216
-0.0099636614 -0.065646261 1.138705
-0.29256269 -0.2177974 1.016484
-0.28384471 -0.2110558 1.005128
-0.28878921 -0.27016389 0.98231947
-0.26488131 -0.1088361 1.002875
-0.2222984 -0.33590859 0.88404793
0.016517131 -0.066657662 1.163083
-0.25541091 -0.1104109 0.99323702
-0.2657257 -0.1523125 1.002241
-0.29835561 -0.25243679 1.002223
-0.13728569 -0.2112515 0.91444218
-0.061759531 -0.063037664 1.029929
-0.2464277 -0.054023359 1.0238039
-0.2438399 -0.063257463 1.028581
-0.2430113 -0.2284795 0.98662829
-0.1740154 -0.063602753 1.076584
-0.26538211 -0.086586267 1.006742
-0.2728875 -0.090170532 1.008985
-0.05819482 -0.065132022 1.17936
-0.179943 -0.060112 1.0793279
-0.21702909 -0.066544563 0.96835148
-0.2024111 -0.067874037 0.97899443
-0.27536079 -0.105105 1.008891
-0.13705941 -0.061510861 1.106741
-0.1696354 -0.06109637 1.080119
-0.18125249 -0.35508451 0.81942248
-0.040843189 -0.064726412 1.099818
0.01894271 -0.067269951 1.247726
-0.32869959 -0.3502081 1.029541
-0.1948808 -0.073803723 1.045913
-0.232618 -0.1798823 0.99128968
0.09762457 -0.061773092 1.143981
-0.074550062 -0.060018752 1.12898
-0.19425669 -0.35328829 0.83902299
-0.25863671 -0.2332799 0.97756219
-0.26880339 -0.1208361 1.001163
-0.1948383 -0.23147289 0.86381888
-0.30933869 -0.2584298 1.015337
-0.2286661 -0.2333511 0.9800064
-0.147751 -0.2305434 0.90836078
-0.055172201 -0.060796771 1.162452
-0.1982148 -0.063762903 0.97870672
0.097762503 -0.064238101 1.080272
-0.14207511 -0.26066989 0.87027991
0.097472101 -0.071718752 1.032184
0.037648048 -0.077613592 1.007381
-0.1857512 -0.32904071 0.83062392
-0.31960589 -0.30567849 1.028216
-0.32495919 -0.36220029 1.047231
-0.33752111 -0.37930191 1.041703
-0.30240491 -0.3226065 0.99017727
-0.1335005 -0.2317998 0.89019972
-0.25552711 -0.3533493 0.92009389
-0.3007451 -0.2434911 1.0058661
-0.039667308 -0.06062305 0.9220832
-0.3023881 -0.2259202 1.0284311
-0.1816279 -0.059879839 0.9140588
-0.1440829 -0.2231113 0.90676558
0.096497923 -0.065052897 0.99687803
0.043721709 -0.058179501 1.023773
0.0559971 -0.062314238 1.021203
-0.009082377 -0.063693263 1.0260921
-0.2342055 -0.090184093 0.96595103
-0.22577129 -0.12962539 0.99659431
-0.18006501 -0.082846723 0.89167953
-0.1857774 -0.233652 0.95467877
-0.1093626 -0.081620052 0.79936332
-0.15755171 -0.07749103 0.86505878
-0.20286369 -0.073544897 0.98669982
-0.022075711 -0.067964837 0.96894008
-0.085283339 -0.067294247 0.84492809
-0.1212858 -0.23323689 0.89983732
-0.2107475 -0.2110011 0.99619132
-0.099171817 -0.2383029 0.85674739
0.073895603 -0.065434933 0.85731351
0.049799409 -0.066519476 0.92867351
-0.0021140431 -0.066485643 0.93776911
-0.1451434 -0.074268311 0.89607519
-0.1177051 -0.066348597 0.9309364
-0.090870619 -0.06936568 1.090301
-0.1593523 -0.18578561 0.98481309
0.054082658 -0.068316162 0.84256577
-0.091862783 -0.22946399 0.8804456
-0.092598967 -0.2315363 0.86600381
-0.1202004 -0.243431 0.76581031
0.23913001 -0.07000111 0.93917549
-0.2439561 -0.3167983 0.92607498
-0.02040267 -0.064305387 1.025856
0.095061511 -0.067139417 1.091256
0.1815889 -0.065415502 0.93693399
0.1693038 -0.063690722 0.98338878
0.001792714 -0.062709048 1.027723
-0.029368119 -0.06698285 0.91995817
-0.001183242 -0.067823082 1.199102
-0.1274676 -0.067984298 0.91692519
-0.045465969 -0.064777426 1.025269
-0.2209499 -0.096965604 0.95864469
0.094334513 -0.067356743 0.94022387
0.064163797 -0.062087659 0.94151407
-0.05764633 -0.065098509 0.78756922
-0.070458017 -0.070826687 0.74651903
-0.007667169 -0.0678671 1.135039
-0.113367 -0.2291697 0.90725827
-0.074099243 -0.068254232 1.0781929
-0.03801566 -0.068540037 1.019552
-0.2016639 -0.2513079 0.91648132
-0.083908409 -0.06649746 1.021192
-0.2136742 -0.24681561 0.89670688
-0.1366325 -0.2327355 0.86959738
-0.1736377 -0.08595252 0.88750303
-0.098115668 -0.066965371 0.99860853
-0.21668351 -0.071646512 1.015427
-0.1303094 -0.062589757 0.88809431
0.060267512 -0.064995773 0.9248051
0.05888376 -0.077655427 0.80358452
0.041773319 -0.081826359 0.79328072
0.1063067 -0.08760339 0.84059978
0.13244081 -0.081410021 0.85785931
0.01039848 -0.23746701 0.78070712
0.0133033 -0.2386104 0.77386397
0.0044171792 -0.23154721 0.79294097
-0.00043892319 -0.2319604 0.7568748
0.02080657 -0.2244096 0.78006268
0.058945298 -0.066004276 0.85509819
-0.0076533719 -0.081732839 0.75454313
-0.025999689 -0.066928297 0.78358632
-0.025839901 -0.069768853 0.78422791
-0.056644998 -0.068534337 0.80596149
0.046917949 -0.061354339 0.90473819
-0.056541719 -0.1654059 0.71976608
0.1191533 -0.22797211 0.88173223
0.1612415 -0.2336634 0.87776971
0.073579617 -0.063759908 0.85824299
-0.057739578 -0.12916429 0.72694987
-0.05830406 -0.15916871 0.72188419
-0.1204323 -0.2364042 0.79115868
-0.045143429 -0.1202565 0.72517729
0.044710848 -0.069329172 0.87516707
-0.049123179 -0.1201519 0.7249704
0.054738998 -0.077447772 0.87452549
0.042474389 -0.22675671 0.8329187
0.1008749 -0.2402005 0.82730329
-0.1077402 -0.23754141 0.77312249
0.1003264 -0.2428845 0.82223982
-0.1532176 -0.2351269 0.85839152
-0.1713707 -0.2366302 0.87518668
-0.039198261 -0.1396727 0.72930598
0.1071662 -0.075905032 0.84770381
-0.1524238 -0.23604859 0.84954321
-0.075508907 -0.069129258 0.830935
-0.068974867 -0.2033115 0.71801758
-0.1284463 -0.241758 0.76977032
-0.1718671 -0.232208 0.87985528
-0.1459824 -0.2342765 0.8477059
-0.16897731 -0.08916539 0.87936538
-0.04693361 -0.064180426 0.78818828
-0.13785741 -0.2328514 0.87057942
-0.05504914 -0.1140421 0.72919339
0.078789279 -0.063022763 0.89779979
-0.095860422 -0.091510467 0.77210778
-0.16711161 -0.2294081 0.86011028
-0.1212386 -0.2396019 0.79958808
0.136953 -0.2139125 0.894279
0.1300126 -0.078798711 0.85100847
0.2212818 -0.28597021 0.88193017
0.08270359 -0.38624299 0.75695139
-0.04241557 -0.186948 0.71629041
0.1834126 -0.15296561 0.92891371
0.2479182 -0.16870169 0.92920578
0.043891791 -0.31001189 0.73717219
0.042613968 -0.31836161 0.74001849
0.20310371 -0.079782464 0.91060179
0.19418751 -0.40066019 0.83862633
0.1437057 -0.31625429 0.81878638
0.13475069 -0.3804189 0.81270629
0.1840072 -0.13809679 0.93369651
0.1806791 -0.1656988 0.93171608
0.075617313 -0.3801401 0.76702231
0.1962821 -0.16419201 0.92650092
-0.001017392 -0.27946541 0.71621662
-0.056250621 -0.1192206 0.7280547
-0.1087177 -0.080572493 0.79683071
-0.05739814 -0.1609977 0.72036242
-0.05809474 -0.2038383 0.7103914
-0.074518166 -0.2192518 0.71910012
0.128447 -0.2614347 0.81814033
0.1657678 -0.1479179 0.93771958
0.1807895 -0.1815035 0.92831171
-0.1137868 -0.24279501 0.76923192
0.16326471 -0.16993099 0.93437821
-0.1665242 -0.23639791 0.91211933
0.16717421 -0.2059067 0.93029553
-0.081392974 -0.23809551 0.71458381
-0.17432439 -0.39173621 0.80872601
-0.084358022 -0.2387137 0.71585
-0.1636883 -0.33744839 0.81317228
-0.057513181 -0.1837294 0.71425372
-0.0034110721 -0.2825664 0.71675372
0.20401859 -0.3407957 0.85870981
-0.1469875 -0.35160589 0.77846539
0.2414069 -0.2759566 0.8926723
0.04659098 -0.2954084 0.75155342
-0.044727061 -0.314228 0.68628889
-0.1254337 -0.38411981 0.73118722
-0.1047292 -0.2090321 0.97590917
0.1122726 -0.3469336 0.79943478
-0.13370749 -0.38121051 0.75149572
0.1154602 -0.29282269 0.80100381
0.0019694611 -0.38959569 0.71193302
-0.1347947 -0.3780534 0.75427657
-0.16882861 -0.38770181 0.80415201
0.075726032 -0.29261729 0.77237219
0.05766812 -0.25971279 0.76503801
-0.070642918 -0.3247931 0.68331999
0.23553 -0.2953766 0.88621348
-0.04208881 -0.3219983 0.68403018
-0.072384432 -0.1585976 0.94855672
-0.1090707 -0.2042218 0.97570938
0.225816 -0.40856129 0.84986502
-0.065561049 -0.33631319 0.68501741
-0.041590441 -0.1970765 0.71344072
0.050792139 -0.28016669 0.77050811
-0.1098228 -0.3797332 0.72370148
-0.085425213 -0.21784469 0.95183778
-0.1039682 -0.33089119 0.72653651
0.1034739 -0.30295971 0.79637891
0.1558191 -0.26562369 0.83216792
-0.080590352 -0.1542732 0.7458995
-0.1462364 -0.2400298 0.81920189
-0.055125669 -0.3277615 0.68651497
0.2485279 -0.1737674 0.93200427
-0.1231989 -0.1813079 0.98223531
0.16838109 -0.20082919 0.9243567
0.021118831 -0.33233291 0.72003269
-0.085544318 -0.152024 0.75314432
-0.085582688 -0.23074131 0.84386468
-0.164308 -0.33758369 0.8144449
-0.1181386 -0.38691071 0.72786647
-0.074042439 -0.1797062 0.84224319
-0.1021104 -0.2787649 0.72762281
0.27563289 -0.2388159 0.93172091
0.1776595 -0.18673749 0.92842668
-0.1200569 -0.39571011 0.72404051
-0.1228245 -0.37249899 0.7343865
-0.156434 -0.1877033 0.98589158
-0.12771299 -0.2480316 0.77519572
-0.1551832 -0.40671831 0.77000332
0.01731253 -0.27437741 0.73252863
-0.15915041 -0.29901439 0.80243158
0.21877749 -0.2294461 0.89316481
-0.076652057 -0.1669668 0.72975057
-0.073598981 -0.1613597 0.72460979
-0.1219259 -0.40607581 0.72352022
-0.081620812 -0.37539151 0.68561679
0.1429325 -0.15033481 0.93697637
0.1651143 -0.1312858 0.9327848
0.2415185 -0.34681329 0.88120168
-0.051821951 -0.1747029 0.71236467
0.1443273 -0.13017149 0.93892491
-0.026537981 -0.3782346 0.69420421
-0.1019133 -0.36454341 0.71673131
0.024169151 -0.292061 0.72860968
0.01902014 -0.3373397 0.71923089
-0.062891163 -0.34371001 0.68429899
0.058340009 -0.27747881 0.77034819
0.003437757 -0.38358361 0.70437598
0.1201619 -0.35612911 0.79680359
0.1124073 -0.2937257 0.80003673
0.098924279 -0.33000451 0.78120971
0.1373461 -0.095702358 0.86293519
-0.13962319 -0.37578061 0.76171821
0.1037772 -0.086390004 0.83999312
-0.007457763 -0.1110558 0.75397319
0.1351482 -0.15006781 0.9396407
-0.1038387 -0.1624054 0.97172451
0.1190308 -0.082689501 0.84643573
0.1005111 -0.1977091 0.9380064
0.1065991 -0.3424868 0.798105
-0.01963258 -0.1668773 0.74576592
-0.066844091 -0.1645588 0.71844763
-0.038288351 -0.18046141 0.71319538
-0.02357143 -0.1931971 0.72882432
0.20512921 -0.094350539 0.91005379
0.022115409 -0.096603557 0.78145337
-0.02712062 -0.2949661 0.70337749
0.1980409 -0.1088984 0.90920973
-0.089244828 -0.21409179 0.96105069
-0.075618491 -0.33279929 0.69083738
-0.17020801 -0.2295325 0.95711821
-0.18542901 -0.2401541 0.86362052
-0.14383601 -0.2421964 0.79444629
-0.1098108 -0.079567522 0.79810047
-0.1735619 -0.08214768 0.88764608
-0.1539958 -0.34052989 0.81001621
-0.1581663 -0.2322367 0.895028
-0.2164333 -0.2085059 0.9900012
-0.2145292 -0.2422795 0.89017761
-0.1693041 -0.08322186 0.88211852
-0.095809758 -0.2361156 0.85888553
-0.1487096 -0.3697072 0.77530551
-0.1917838 -0.094448797 0.90725309
-0.081081986 -0.22120909 0.95290053
-0.1754515 -0.33908591 0.83815181
-0.18168101 -0.234228 0.95864052
-0.093364239 -0.2305084 0.86483222
-0.2365078 -0.087843113 0.97974283
-0.2497085 -0.083639577 0.98555082
-0.1674858 -0.22994579 0.95456082
-0.2111893 -0.096012093 0.94299358
-0.2239597 -0.232364 0.9592731
-0.1659195 -0.1802669 0.98819119
-0.098842502 -0.16345049 0.97241139
-0.156817 -0.076895729 0.8646397
-0.172617 -0.091507263 0.88119757
-0.08360517 -0.1691944 0.8220939
-0.068716653 -0.1936819 0.85107791
-0.051173571 -0.18101691 0.86600459
-0.06859386 -0.1721608 0.8254475
-0.06157786 -0.15822031 0.84403121
-0.25457671 -0.1170741 1.0008579
-0.084726147 -0.2320603 0.81204617
-0.2294542 -0.093263946 0.96823841
-0.2430802 -0.18102659 0.99482942
-0.2160714 -0.1802671 0.99609113
-0.21904039 -0.34925419 0.88643807
-0.1581661 -0.3535527 0.7969774
-0.1468576 -0.33482581 0.78496122
-0.1674715 -0.083896682 0.8749814
-0.16815139 -0.076249301 0.87877649
-0.1639609 -0.19594499 0.98288178
-0.1774275 -0.1996274 0.98273689
-0.15096121 -0.2295842 0.90275759
-0.064465113 -0.1533436 0.84565192
-0.2008308 -0.2440739 0.8760851
-0.2333563 -0.1283 0.9955281
-0.16525599 -0.34472391 0.81141949
-0.1389948 -0.2255387 0.9770782
-0.14751691 -0.24904969 0.7935918
-0.07291913 -0.1751184 0.86747777
-0.1946913 -0.2476653 0.8761431
-0.2266558 -0.27602521 0.90784037
-0.2180765 -0.095238581 0.953933
-0.1359171 -0.23276 0.91324461
-0.2113905 -0.35083941 0.8739481
-0.1546839 -0.3456099 0.79294813
-0.1991021 -0.27451861 0.8696261
-0.2348408 -0.1241579 1.001125
-0.079847932 -0.2286122 0.87226492
-0.20902459 -0.32075849 0.87734318
-0.2147014 -0.347462 0.88050878
-0.03837806 -0.069727689 1.015057
-0.2078954 -0.24406891 0.88128042
-0.1907482 -0.23865721 0.86674732
-0.1606707 -0.08295399 0.86643738
-0.25832269 -0.1150388 1.0059839
-0.2109284 -0.2736783 0.88933718
-0.2091932 -0.2417998 0.90771282
-0.2307218 -0.2315214 0.99093789
-0.25354019 -0.27326009 0.94571829
-0.25341779 -0.1075216 0.99643672
-0.01298404 -0.066276953 0.94196159
-0.1212552 -0.2316428 0.78856999
-0.064246587 -0.19218069 0.87056023
-0.058881879 -0.2058949 0.89119363
-0.1171403 -0.25108799 0.7715106
-0.1736495 -0.27279311 0.83383548
-0.2008931 -0.34620881 0.86137289
-0.1279278 -0.1112578 0.83141297
-0.1725996 -0.1942382 0.98760498
-0.22337639 -0.27528071 0.90346742
-0.2419399 -0.3473708 0.91804552
-0.25557071 -0.3619028 0.93257219
-0.24947339 -0.35856301 0.92166728
-0.13977639 -0.1854497 0.97465128
-0.25297081 -0.36782259 0.92997301
-0.13128009 -0.37858099 0.75106359
0.053892199 -0.065048717 0.88929069
-0.19575579 -0.27175289 0.86615092
-0.1283834 -0.38135841 0.74601239
-0.2129963 -0.27768061 0.88825679
-0.19583739 -0.3479524 0.85604447
-0.25670421 -0.1060264 0.99615121
-0.27745941 -0.1087518 1.03049
-0.23572031 -0.071255513 1.036262
-0.2747463 -0.1109635 1.0284849
-0.085947752 -0.23206501 0.88387108
-0.062509298 -0.1893051 0.88775671
-0.17344619 -0.34693781 0.82374048
-0.1758991 -0.34658381 0.82337302
-0.060451921 -0.1918827 0.88790822
-0.2343241 -0.2386405 0.95737427
-0.24716491 -0.31217381 0.92724681
-0.13000029 -0.064763859 1.021927
-0.30315739 -0.2551088 1.0374171
-0.2761718 -0.093596794 1.037859
0.003394604 -0.06213386 0.88933378
-0.2555736 -0.27224651 0.94672441
-0.2682071 -0.117133 1.011127
-0.26715499 -0.121555 1.004711
-0.079565048 -0.233713 0.77163363
-0.26026481 -0.16216239 1.004032
-0.25643599 -0.2599082 0.94951117
-0.2079087 -0.27245331 0.88400477
-0.247878 -0.36344919 0.91726512
-0.29072189 -0.19086049 1.044454
-0.32483241 -0.35282731 1.047583
-0.32261699 -0.34738791 1.047322
-0.1698088 -0.31510031 1.180019
-0.31112099 -0.28201711 1.0413001
-0.093276829 -0.3525658 1.2381819
-0.042768199 -0.238075 1.209625
0.047617849 -0.2654427 1.292436
-0.2262321 -0.079642281 1.085385
-0.01073779 -0.2038537 1.216383
-0.22656099 -0.080065943 1.090169
-0.27998561 -0.18711139 1.057575
-0.2068619 -0.3895002 1.161217
-0.177545 -0.3661837 1.168308
-0.1848142 -0.39575449 1.174266
-0.1576532 -0.3849701 1.185814
-0.1550315 -0.26123261 1.17643
-0.2044533 -0.37008759 1.17154
0.0044001942 -0.3476347 1.2983741
-0.231544 -0.27006081 1.138836
-0.022164701 -0.3101981 1.297341
-0.075633049 -0.081384324 1.2070169
-0.19513351 -0.093918182 1.1084239
-0.032219648 -0.086730003 1.23672
-0.01175869 -0.1524629 1.186368
-0.017039411 -0.1548634 1.192179
-0.24829981 -0.3241905 1.113638
-0.2147689 -0.2731376 1.130201
-0.1654021 -0.31496811 1.180182
-0.070374787 -0.32996029 1.2441781
-0.13386419 -0.28681859 1.2052701
-0.17146841 -0.3608335 1.166326
-0.18910649 -0.3752884 1.169464
-0.04006809 -0.36521479 1.274413
-0.23732939 -0.093692943 1.074645
-0.25296429 -0.41155481 1.127695
-0.090238273 -0.093831748 1.185922
-0.27249789 -0.1119433 1.050597
-0.02081215 -0.1839608 1.133346
-0.027709721 -0.1875862 1.139112
-0.02066749 -0.1823516 1.105806
-0.01328939 -0.1710152 1.170063
-0.30039111 -0.35818389 1.080246
-0.2959643 -0.34810659 1.092948
-0.1063944 -0.35229459 1.218256
-0.1207507 -0.3620199 1.217243
-0.109846 -0.33404341 1.225202
-0.090884693 -0.34986219 1.2432441
-0.1190444 -0.36883619 1.217028
-0.27635041 -0.36256039 1.1059951
-0.25702941 -0.27161771 1.104218
-0.2292541 -0.4112044 1.146595
-0.1333115 -0.09363316 1.15573
0.037490189 -0.070347518 1.256641
-0.100772 -0.28067449 1.221285
-0.1533027 -0.37940359 1.198897
-0.1880257 -0.39555421 1.176765
-0.019511281 -0.2369127 1.268667
-0.111231 -0.23702981 1.155182
-0.02628183 -0.1682633 1.1026779
-0.29127651 -0.1815654 1.044933
-0.062056661 -0.26691401 1.254359
-0.018887579 -0.30723819 1.276363
-0.2564581 -0.1436923 1.062171
-0.2005956 -0.23429359 1.079746
-0.065154493 -0.26846051 1.244361
-0.2965188 -0.27178511 1.073091
-0.018336531 -0.1698031 1.148603
-0.04803431 -0.2220853 1.0781
-0.0080934167 -0.091311634 1.2507221
0.04044253 -0.21611699 1.284573
-0.080487907 -0.09671016 1.1984921
-0.1429121 -0.082425997 1.145682
-0.2288335 -0.1228694 1.062945
-0.27519751 -0.18484379 1.060829
-0.19815411 -0.2398473 1.0890861
-0.01416969 -0.1526694 1.135452
0.05003196 -0.26503801 1.297851
-0.28270051 -0.1485045 1.049974
-0.1360203 -0.35313219 1.17996
-0.067454338 -0.27261981 1.2383699
0.004833281 -0.28894091 1.290843
-0.04983205 -0.17067669 1.063638
-0.075383373 -0.3307023 1.2424051
-0.28076291 -0.3289637 1.0994051
-0.1399841 -0.1540466 1.055723
-0.02555144 -0.1545721 1.102433
-0.26009741 -0.34313229 1.118264
-0.1313246 -0.2372584 1.137518
0.043396119 -0.1922332 1.279982
-0.01475567 -0.1555236 1.1364191
-0.1572483 -0.099169597 1.145146
-0.16613141 -0.1006224 1.128392
-0.0211429 -0.25590289 1.275339
-0.2761704 -0.1042723 1.041401
-0.3340278 -0.39389059 1.0522079
-0.093843699 -0.28377119 1.210897
-0.0044836402 -0.20403869 1.208679
0.038931672 -0.159573 1.267835
-0.24569079 -0.1326918 1.0755481
-0.01817685 -0.17226329 1.118278
0.002689153 -0.34736291 1.315438
-0.0108282 -0.33878791 1.295893
0.040200111 -0.36142591 1.323719
-0.084070504 -0.23202179 1.107971
-0.17444751 -0.2371949 0.89442068
-0.1978648 -0.156045 1.070349
-0.063483603 -0.22228649 1.050958
-0.0074184542 -0.1446771 1.199811
-0.051855329 -0.2346552 1.152627
-0.0081214309 -0.1430441 1.207093
-0.13017251 -0.1481723 1.075232
-0.018767091 -0.081279337 1.247535
-0.31199309 -0.3044863 1.036782
-0.054576751 -0.22811849 1.069604
-0.25164029 -0.3152149 1.123757
0.063724764 -0.4073126 1.335404
-0.104716 -0.21446609 1.0530061
-0.1099644 -0.23474319 0.78990412
-0.1020504 -0.2364171 1.135475
-0.1569359 -0.1695832 1.064696
-0.1649152 -0.1107188 1.13368
-0.30958229 -0.28547329 1.041324
0.033280909 -0.071999423 1.251724
-0.01520008 -0.23863541 1.236974
-0.122923 -0.350014 1.2096241
-0.253795 -0.3284665 1.12567
-0.2218236 -0.29044899 1.120949
-0.079713337 -0.1658069 1.049451
-0.25263721 -0.1515732 1.074012
-0.2646316 -0.1524677 1.061478
0.030718509 -0.077440098 1.271605
-0.05029064 -0.2140929 1.0884351
-0.1425707 -0.2324705 1.096963
0.05112493 -0.2441604 1.293503
-0.25105891 -0.25970709 1.103739
-0.30027279 -0.26002419 1.038785
-0.05146569 -0.21341591 1.122317
-0.33421481 -0.4086048 1.0463279
-0.23546401 -0.1325691 1.069409
-0.077001989 -0.07946007 1.198987
-0.054021891 -0.2139428 1.067791
0.034174379 -0.2019482 1.286146
-0.1998128 -0.3911472 1.156076
-0.13403 -0.34922549 1.194041
-0.054991782 -0.33070549 1.249036
-0.28962699 -0.28840399 1.078346
0.00083756453 -0.1759932 1.168682
0.04858011 -0.1722877 1.283725
-0.1563888 -0.1738451 1.06985
-0.1473399 -0.1416999 1.058956
-0.15991969 -0.15112381 1.0492361
0.03574663 -0.30115131 1.31845
0.05297333 -0.2953403 1.30241
-0.2009832 -0.14063109 1.065753
-0.1983391 -0.2271457 1.069271
-0.17097761 -0.109601 1.1400141
-0.1134968 -0.095070153 1.1828769
-0.26437601 -0.3308731 1.1040649
-0.2841002 -0.1400746 1.042356
0.03706735 -0.3666555 1.3289191
0.04454935 -0.4031325 1.3352391
0.033335332 -0.30237839 1.3166749
0.1035237 -0.39086691 1.277701
0.1381297 -0.35998401 1.213298
0.17496219 -0.27181339 1.1522959
0.1415142 -0.34228069 1.194862
0.1267651 -0.18101691 1.022841
0.148109 -0.1631417 1.0153871
0.147553 -0.13290261 1.018038
0.1451309 -0.2104719 1.0239201
0.1110838 -0.25492701 1.231649
0.1091671 -0.20252819 1.025068
0.1051247 -0.16266359 1.025087
0.087862611 -0.16432969 1.0327049
0.1227623 -0.26883081 1.215567
0.092094243 -0.1846987 1.0324481
0.060201999 -0.33730909 1.311461
0.055925012 -0.40518081 1.332478
0.074802987 -0.3666918 1.301509
0.088160902 -0.210162 1.033702
0.1062111 -0.3921192 1.273652
0.175827 -0.27214319 1.142838
0.1710892 -0.3919751 1.172375
0.1896444 -0.1677627 1.017646
0.05979472 -0.081312791 1.2480969
0.074222922 -0.089815997 1.229176
0.184644 -0.089145087 1.077859
0.04710478 -0.21571399 1.291617
0.1427653 -0.2791822 1.1873159
0.1892831 -0.40768841 1.1533329
0.082952499 -0.2618801 1.268234
0.068042703 -0.2372268 1.23067
0.1143928 -0.2098505 1.029788
0.053169191 -0.40284759 1.33356
0.093963496 -0.23746181 1.195092
0.2014526 -0.23912109 1.041483
0.1073581 -0.1021428 1.182374
0.129033 -0.18138979 1.016041
0.14192811 -0.16222329 1.019069
0.1312701 -0.089189559 1.149112
0.21870209 -0.29861951 1.09436
0.1398253 -0.102574 1.145432
0.058100041 -0.202305 1.0547481
0.081359804 -0.2952742 1.279642
0.1690805 -0.32212201 1.163726
0.21023349 -0.29275271 1.100262
0.1928917 -0.088367917 1.067983
0.084347486 -0.28421631 1.2733231
0.145301 -0.3416613 1.198727
0.1534871 -0.28312919 1.149393
0.2054162 -0.29820889 1.11051
0.1219981 -0.31898639 1.234526
0.1070964 -0.358915 1.264277
0.1757566 -0.32764581 1.156906
0.080099821 -0.3098014 1.281247
0.1035662 -0.1550032 1.022535
0.1924648 -0.1812117 1.019541
0.053791519 -0.32654911 1.313889
0.13418891 -0.097157307 1.150849
0.063876212 -0.22419029 1.044978
0.05417705 -0.171158 1.270469
0.082873233 -0.3828263 1.294336
0.090129793 -0.18489601 1.037365
0.04469407 -0.2120243 1.086769
0.2126278 -0.3064594 1.09909
0.1203114 -0.081577063 1.164987
0.060439531 -0.22734 1.059911
0.067399018 -0.1393885 1.182593
0.090132833 -0.2401267 1.181375
0.1964917 -0.1569898 1.014173
0.1663646 -0.1007065 1.090539
0.2377488 -0.1731558 1.009833
0.2393178 -0.275691 1.064083
0.2456961 -0.2623319 1.0509239
0.1621867 -0.33735111 1.175912
0.2260541 -0.3538799 1.098827
0.21095879 -0.36468151 1.104571
0.2054856 -0.1413061 1.015327
0.054811839 -0.22648489 1.189023
0.05151796 -0.22164319 1.070621
0.20633601 -0.1795394 1.011945
0.2354418 -0.2670235 1.061002
0.17924009 -0.28631109 1.143496
0.019613801 -0.2661882 1.307447
0.1967835 -0.1705164 1.010141
0.2170033 -0.14971849 1.013803
0.0397011 -0.22164281 1.076538
0.058186229 -0.20675901 1.0560811
0.26739591 -0.39425641 1.0514309
0.274955 -0.32603231 1.026376
0.2343836 -0.285281 1.0682451
0.25631839 -0.37372291 1.0641021
0.2389852 -0.32037449 1.073634
0.1086771 -0.18050811 1.02782
0.14822941 -0.234611 1.0405509
0.067916103 -0.2209799 1.042936
0.28936201 -0.35889891 0.99601662
0.055924591 -0.1227577 1.200057
0.222975 -0.093538329 1.02618
0.27379671 -0.31359199 1.016035
0.19194201 -0.36309859 1.129692
0.26267561 -0.31691551 1.027644
0.188224 -0.3070997 1.129982
0.28299299 -0.2432801 0.95318639
0.275787 -0.27966869 1.0107419
0.05315828 -0.14607289 1.192863
0.050062601 -0.27237329 1.303357
0.061987579 -0.22050001 1.269268
0.06241357 -0.167264 1.253719
0.1047139 -0.23394009 1.100208
0.23106331 -0.2783784 1.072716
0.1421192 -0.13708819 1.01562
0.061165571 -0.182034 1.037097
0.1105703 -0.097932473 1.182163
0.1501658 -0.36852759 1.203837
0.1993838 -0.1415199 1.008801
0.1975116 -0.093083009 1.069973
0.066791467 -0.2579107 1.300873
0.2353812 -0.30267319 1.08744
0.071768939 -0.2779946 1.289732
0.27472019 -0.294016 1.016615
0.1966482 -0.3087844 1.115625
0.041723371 -0.1451048 1.126107
0.045900881 -0.13919529 1.157508
0.26796111 -0.27522421 1.009611
0.1273074 -0.1041438 1.149901
0.059688929 -0.082262903 1.245615
0.061549071 -0.3345547 1.310806
0.063484907 -0.35796601 1.304955
0.070130587 -0.31311029 1.2907031
0.1091217 -0.25930649 1.228372
0.1804872 -0.34015521 1.140388
0.12694781 -0.3471432 1.2324671
0.2550846 -0.3884227 1.073485
0.1079063 -0.2455073 1.102824
0.1748153 -0.36234859 1.160815
0.04063499 -0.2704885 1.305753
0.2617586 -0.3634136 1.061148
0.25602779 -0.3969793 1.060464
0.27593309 -0.2833617 1.007336
0.24955089 -0.2883842 1.076234
0.1407813 -0.3114405 1.194834
0.2198967 -0.13771001 1.0052
0.083332963 -0.33767861 1.272696
0.02605891 -0.4076345 1.335158
0.051293429 -0.1602999 1.1946011
0.072393477 -0.38060981 1.291368
0.080370367 -0.26486051 1.26765
0.067466803 -0.38152379 1.30474
0.1905617 -0.080496691 1.061908
0.1499981 -0.2130221 1.024472
0.18031619 -0.09373723 1.0863661
0.2393565 -0.1699415 1.007978
0.18341839 -0.089682132 1.080539
0.23531771 -0.27810261 1.062853
0.24052291 -0.36621591 1.0816309
0.1835824 -0.29053119 1.1405669
0.23812971 -0.36161759 1.074706
0.166208 -0.2252101 1.039647
0.15723559 -0.3258903 1.166678
0.062610149 -0.1970067 1.241096
0.077190578 -0.28683439 1.2770979
0.14726169 -0.1260698 1.016903
0.093785517 -0.404257 1.282257
0.02982712 -0.2088183 1.292172
0.178473 -0.40963599 1.16746
0.15523151 -0.2721304 1.176062
0.20401549 -0.1893651 1.006646
0.1869012 -0.25726089 1.12429
0.27646631 -0.3054527 1.0065759
0.1241444 -0.2280637 1.016415
0.044649541 -0.1688446 1.163256
0.2567932 -0.32468531 1.0325381
0.041146278 -0.1472903 1.189594
0.13443381 -0.086233407 1.151305
0.075396061 -0.226881 1.033344
0.1142775 -0.2340751 1.043065
0.18375809 -0.1015687 1.075846
0.067676663 -0.2375856 1.2308379
0.068407178 -0.2275365 1.06759
0.058656041 -0.16241769 1.249018
0.054720402 -0.16224509 1.201321
0.03711313 -0.3636404 1.328581
0.1515229 -0.31007439 1.1902699
0.1185788 -0.28412661 1.208011
0.073084712 -0.35899711 1.302377
0.065182976 -0.3662076 1.305702
0.12793811 -0.33955681 1.223456
0.1546507 -0.3540341 1.18338
0.069510043 -0.29478049 1.289831
0.22691099 -0.2385231 1.020895
0.21657559 -0.26708531 1.0889519
0.2004921 -0.33966511 1.1166019
0.17612229 -0.40070921 1.168211
0.2335517 -0.35855141 1.084886
0.19000021 -0.37031451 1.140255
0.2049471 -0.36973751 1.121653
0.2772828 -0.3211664 1.010365
0.19696321 -0.35254639 1.128235
0.18693981 -0.35342619 1.1407239
0.2413151 -0.28309131 1.059247
0.072145879 -0.36877841 1.300694
0.079104424 -0.26862589 1.274235
0.082929611 -0.32425189 1.273334
0.074912667 -0.2455553 1.232978
0.077536277 -0.270854 1.276906
0.052388672 -0.118433 1.199682
0.04411006 -0.38964391 1.332552
0.062086049 -0.33192661 1.302613
0.04114968 -0.2048437 1.069555
0.040031549 -0.1454044 1.127288
0.037874222 -0.1109131 1.272632
0.04515994 -0.15757351 1.135522
0.1552376 -0.2295581 1.02522
0.05973142 -0.178094 1.259774
0.03838617 -0.1007378 1.271708
0.092392437 -0.2339392 1.164894
0.2316605 -0.24526639 1.029965
0.058063809 -0.2110924 1.266879
0.05689913 -0.1573021 1.256031
0.04824549 -0.1598205 1.128201
0.040338282 -0.18385211 1.139315
0.066445529 -0.2209366 1.257974
0.23266961 -0.2371432 1.0245219
0.1794448 -0.2658594 1.131063
0.21954431 -0.33603251 1.103246
0.1859103 -0.3623811 1.1464109
0.2010919 -0.3766844 1.172286
0.2285417 -0.36646339 1.090241
0.18083809 -0.1025573 1.077065
0.27476451 -0.40647411 1.040429
0.2071716 -0.28739101 1.097317
0.2986789 -0.4034768 1.0222321
0.2301577 -0.1003762 1.013988
0.03470403 -0.3836157 1.3276761
-0.01350951 -0.41039699 1.33158
-0.00051790482 -0.40118161 1.331795
0.037668761 -0.2156962 1.083598
0.140288 -0.2798492 1.188033
0.044872109 -0.1565844 1.1375639
0.03751481 -0.1447624 1.12772
0.091941543 -0.2345227 1.167973
0.12849811 -0.1038301 1.1546611
0.1167118 -0.08190307 1.16668
0.1308635 -0.098055497 1.150975
0.13270339 -0.2839925 1.183967
0.1094391 -0.25474861 1.233027
0.050102349 -0.2220602 1.07347
0.04797351 -0.1473528 1.192067
0.1192865 -0.27029759 1.216157
0.050826129 -0.1576387 1.134706
0.1063994 -0.1024768 1.184587
0.047410961 -0.1684709 1.1661659
0.04231507 -0.1403304 1.1577359
0.070138752 -0.090773247 1.226851
0.058362961 -0.1581167 1.2011189
0.046109259 -0.14578991 1.19432
0.1170015 -0.32193089 1.231806
0.1068041 -0.3587696 1.264255
0.1034213 -0.3908574 1.278752
0.080975167 -0.3306551 1.2806261
0.060669001 -0.22153489 1.2683769
0.063801773 -0.1677506 1.2552921
0.044495702 -0.21745101 1.290683
0.065782309 -0.0803243 1.255205
0.059823509 -0.122545 1.205062
0.1094978 -0.38822749 1.279739
0.07346034 -0.30015031 1.274328
0.076968908 -0.3124772 1.278126
0.065757267 -0.3560493 1.306218
0.082982957 -0.28663141 1.27302
0.061176661 -0.33710879 1.312843
0.09578824 -0.4006775 1.2847511
0.06098986 -0.1784835 1.260865
0.050866012 -0.32723171 1.313061
0.04078484 -0.1004153 1.273343
0.038074911 -0.3646816 1.32934
0.0354206 -0.30198449 1.318063
0.057313919 -0.14485399 1.176394
0.050556839 -0.19222321 1.16916
0.05426079 -0.38243899 1.327581
0.087542892 -0.33206981 1.277366
0.04607594 -0.40168121 1.335866
0.094792873 -0.2365623 1.187696
0.1031095 -0.4072074 1.287959
0.082365572 -0.26267201 1.26823
0.1266696 -0.3593497 1.233524
0.043304741 -0.26863119 1.309062
0.1640538 -0.26016149 1.169204
0.070550203 -0.23609629 1.234179
0.073470227 -0.36744219 1.301915
0.026340369 -0.150785 1.111202
0.031657159 -0.079708323 1.274163
0.069954753 -0.3084079 1.275337
0.045969129 -0.1186763 1.267996
0.2366585 -0.17325421 1.012025
0.20467789 -0.2992824 1.109665
0.059324279 -0.2244965 1.06493
0.087597057 -0.2099869 1.040244
0.058787201 -0.2064528 1.060771
0.17585801 -0.2713899 1.155159
0.1661188 -0.32044861 1.167483
0.18083771 -0.33442059 1.130569
0.25357649 -0.21696161 1.007329
0.2575202 -0.2180627 1.004051
0.1979295 -0.17739999 1.003404
0.25018629 -0.2144331 1.0135781
0.25779861 -0.15414269 0.99121243
0.1136693 -0.2163454 1.03693
0.170467 -0.3933281 1.175287
0.1720642 -0.37299091 1.167871
0.1376735 -0.28218311 1.190238
0.1051339 -0.3603133 1.266036
0.1088616 -0.25779319 1.236558
0.1412282 -0.4146494 1.218726
0.1226848 -0.2664434 1.221817
0.1047045 -0.38876861 1.282019
0.03734374 -0.30804029 1.3233041
0.072826661 -0.30759251 1.2818
0.080285683 -0.26461291 1.2720079
0.2069526 -0.1838084 1.021096
0.073344126 -0.36864331 1.305706
0.2154967 -0.33787969 1.10633
0.086949378 -0.3388803 1.277952
0.098951012 -0.40867329 1.290961
0.1421199 -0.34022579 1.20285
0.096091673 -0.37056881 1.287451
0.037344519 -0.36381 1.331143
0.044839021 -0.40383029 1.337046
0.1316883 -0.087763511 1.1554331
0.1044827 -0.16323151 1.027733
-0.191835 -0.37765601 1.180045
0.04092503 -0.38215089 1.333694
0.1118126 -0.097138993 1.186435
0.032403391 -0.1330715 1.282894
-0.2108849 -0.2145693 1.0772361
-0.1984589 -0.1569601 1.077527
-0.022247611 -0.23931921 1.260226
0.037401069 -0.35898191 1.329088
-0.20578989 -0.38826859 1.166423
0.1426558 -0.35890031 1.2236561
-0.1161984 -0.33731461 1.216354
0.062143721 -0.39443931 1.340963
-0.015852651 -0.29718381 1.2935981
-0.17628279 -0.3619169 1.176137
-0.21894521 -0.27199781 1.126313
-0.16993921 -0.3177695 1.185541
-0.1879919 -0.1698059 1.073097
-0.076657213 -0.32879609 1.258521
-0.1551718 -0.3878032 1.203354
-0.1909987 -0.3947008 1.181778
-0.1975546 -0.37729859 1.1627049
-0.105174 -0.35173339 1.241713
0.1886515 -0.41013911 1.147459
0.1843584 -0.29311469 1.148751
-0.1510883 -0.1493227 1.081439
-0.1570778 -0.1738255 1.072693
-0.25172511 -0.18096469 1.08336
0.03077394 -0.39889801 1.331223
0.1410246 -0.2278901 1.029305
-0.1348708 -0.097182669 1.161908
-0.064741731 -0.27098459 1.253855
-0.24605151 -0.1346664 1.082446
-0.2495347 -0.31581151 1.126334
-0.151876 -0.1571777 1.0646991
-0.2970598 -0.35218889 1.088128
0.036822021 -0.30281031 1.322086
-0.01160526 -0.34205449 1.304327
-0.1354429 -0.35164201 1.201182
-0.1283249 -0.36377949 1.224046
-0.3256593 -0.41942719 1.0836281
-0.051112331 -0.3703196 1.275189
-0.038365021 -0.31124231 1.282281
0.1734836 -0.27361491 1.149632
0.2149173 -0.1473143 1.013351
0.213164 -0.3038916 1.104607
0.25154039 -0.39495131 1.069229
0.0100879 -0.1653863 1.281765
-0.1472684 -0.1451194 1.069155
-0.1549255 -0.1793275 1.073526
-0.134942 -0.1515597 1.061558
-0.01401537 -0.1147231 1.2519259
0.090162203 -0.23796961 1.188125
0.238998 -0.34147191 1.074343
0.1102186 -0.098111667 1.1905299
0.061175529 -0.2234132 1.270731
-0.024264861 -0.091106929 1.244352
-0.092190497 -0.28775421 1.222616
-0.19046891 -0.098026574 1.113892
-0.15655211 -0.26485351 1.181309
-0.081015997 -0.33131129 1.255934
-0.028764579 -0.3052915 1.294726
-0.1124964 -0.33251521 1.216727
0.062134169 -0.33870041 1.30988
-0.0625358 -0.2847867 1.248624
-0.01823115 -0.25824681 1.286165
0.073530339 -0.27492869 1.275435
0.1554054 -0.31397781 1.187117
0.1350382 -0.313869 1.174407
-0.117355 -0.41040179 1.241549
-0.29705209 -0.2450445 1.05976
0.063857824 -0.1125107 1.244985
-0.2322325 -0.27322951 1.1326261
0.1951613 -0.0901087 1.086138
-0.034149408 -0.08940354 1.240556
-0.0070824712 -0.084608249 1.2558
-0.083264172 -0.1684811 1.0653321
-0.28633651 -0.18690141 1.060576
-0.0069674929 -0.29030079 1.300716
-0.3492915 -0.4112342 1.049763
0.030334171 -0.084101297 1.280504
0.062683351 -0.083769999 1.257931
0.18218181 -0.092199378 1.077149
0.1498964 -0.1372654 0.99979693
0.1244427 -0.28046831 1.211496
0.15414061 -0.3304725 1.177276
-0.1962558 -0.41413629 1.1895519
0.1508078 -0.37256709 1.195583
-0.30239049 -0.243273 1.051147
0.23929299 -0.31557351 1.089282
-0.01921791 -0.084058858 1.247851
0.084143408 -0.35664949 1.270447
-0.0086606229 -0.097213827 1.2542681
-0.081644379 -0.1008229 1.202086
-0.1067946 -0.1027548 1.184365
-0.2394294 -0.13578101 1.078109
-0.2347419 -0.1382059 1.0547709
-0.079730339 -0.084942304 1.2006
-0.05579222 -0.17339429 1.072017
-0.005543509 -0.34736761 1.307808
-0.26836011 -0.3548021 1.111285
-0.04698747 -0.36482781 1.287083
0.032686088 -0.1395741 1.280767
0.03256214 -0.082193866 1.273093
0.2281418 -0.2386394 1.024411
0.2391701 -0.35950711 1.063272
0.081963919 -0.2907986 1.266636
-0.048903979 -0.35030299 1.27529
-0.069973938 -0.22293261 1.067311
0.22424459 -0.1613252 1.0178339
0.054171499 -0.1780609 1.260988
-0.2698043 -0.1468455 1.060055
-0.1721507 -0.35474399 1.174718
-0.1388444 -0.38285649 1.209085
-0.06591437 -0.32641649 1.258278
-0.2461888 -0.41332439 1.137904
0.061696518 -0.33024719 1.314934
0.1594419 -0.2768499 1.1654201
0.1579643 -0.34285861 1.169801
0.057658371 -0.28554651 1.305701
0.085537113 -0.33044469 1.262139
-0.052418459 -0.078358941 1.066455
-0.27474591 -0.40701991 1.116604
0.065394469 -0.38147461 1.2992311
0.01201916 -0.1167901 1.287223
0.18723311 -0.34626591 1.1531661
-0.1849869 -0.24037459 1.093714
0.04248137 -0.069341071 1.2403851
0.019020669 -0.097589843 1.2741359
-0.2157533 -0.1017155 1.100845
-0.078101903 -0.1018023 1.206663
-0.2463719 -0.097177207 1.067902
-0.17082509 -0.1464109 1.071483
-0.2022507 -0.2256588 1.083281
0.1863461 -0.18099 1.053869
-0.02776747 -0.065438643 0.95923901
-0.1915852 -0.2185228 1.0982831
0.16209669 -0.2260672 1.0383821
-0.099605083 -0.2371553 1.139186
0.01958791 -0.1144523 1.273708
-0.056305971 -0.23353229 1.1477081
0.03127199 -0.1095462 1.275659
0.2363757 -0.28011581 1.051883
0.12749361 -0.277722 1.216953
0.22937711 -0.38445619 1.096379
0.19164249 -0.39509639 1.149125
0.2082403 -0.34757769 1.124669
0.0113735 -0.16144291 1.280043
-0.05930502 -0.2333196 1.22771
0.1073844 -0.23977891 1.161638
-0.277843 -0.33711809 1.0957561
-0.0080548758 -0.09986686 1.252511
-0.039386831 -0.208432 1.119566
-0.06866236 -0.2549178 1.261402
0.13191549 -0.18674991 1.0074
0.0091890097 -0.26219171 1.3002549
-0.32399389 -0.3479304 1.058257
-0.28443331 -0.1425736 1.051859
-0.29153341 -0.1945882 1.05273
-0.28826699 -0.1769366 1.052062
-0.31346199 -0.2836602 1.0496711
-0.33085999 -0.38077739 1.055975
-0.32524261 -0.35173959 1.057236
-0.27893841 -0.1062586 1.0510271
-0.33112219 -0.3765941 1.054492
-0.31668541 -0.3113336 1.043891
-0.17778 -0.083095029 0.89915788
-0.2265393 -0.32040569 0.92134053
-0.30597439 -0.2552506 1.040522
-0.2256154 -0.09884274 0.96370733
-0.3082554 -0.30070049 1.025787
-0.26637501 -0.1149442 1.015492
-0.073499016 -0.1750651 0.83923417
-0.33788419 -0.40638229 1.046618
-0.26600531 -0.40963969 0.93413198
-0.2490854 -0.087007873 0.99939573
-0.1799375 -0.084219649 0.89625001
-0.31293511 -0.37642321 1.016645
-0.3155686 -0.28245449 1.055434
0.02349663 -0.40360451 1.343029
-0.30243251 -0.2495243 1.017373
-0.1444502 -0.2396757 1.163622
-0.2217595 -0.239254 0.97959512
