# .PCD v0.7 - Point Cloud Data file format
VERSION 0.7
FIELDS x y z normal_x normal_y normal_z curvature
SIZE 4 4 4 4 4 4 4
TYPE F F F F F F F
COUNT 1 1 1 1 1 1 1
WIDTH 582
HEIGHT 1
VIEWPOINT 0 0 0 1 0 0 0
POINTS 582
DATA ascii
0.078959286 -0.071303859 1.0558894 0.004665948 0.99998844 -0.0011284138 0.0006813056
0.10398015 -0.071440093 1.0795921 0.1267575 0.99043089 0.054581657 0.014615319
0.082148731 -0.071081914 1.0881289 0.038422097 0.99769521 0.05592756 0.0079165958
-0.013412612 -0.071312584 0.89687514 -0.013412667 0.99982756 -0.012841804 0.00022663752
0.10690275 -0.075894043 1.1405342 0.26360184 0.94561601 0.19058995 0.025813367
-0.010938174 -0.071104065 0.89890748 -0.011845237 0.99985594 -0.012154035 0.0002286339
0.1125327 -0.072038755 1.1123258 0.19681573 0.96910012 0.14868936 0.019616317
0.061672341 -0.071402431 1.0159869 0.01350391 0.99988699 0.0066063623 0.00017216134
0.062335622 -0.070358329 1.0852872 0.010368531 0.99994105 0.0032403455 0.00053594186
-0.059215792 -0.19791107 0.7254504 -0.62754416 0.18131328 -0.75717485 0.1041422
-0.055736214 -0.12755963 0.73669004 0.089106396 0.46107212 -0.88287741 0.13163699
-0.056589961 -0.15792795 0.73386443 0.54672974 0.37105662 -0.75060219 0.15282576
-0.05291963 -0.31933746 0.69611263 -0.097204491 0.13210358 -0.98645824 0.064163499
0.0080092931 -0.34926075 0.71830285 0.50486928 0.089196682 -0.85857499 0.0086483518
-0.043014895 -0.18516947 0.73196262 0.53477782 0.19295093 -0.82266796 0.11310329
-0.071542792 -0.32752952 0.69694626 -0.40236413 0.10336421 -0.90962565 0.044780686
-0.074858554 -0.22325569 0.73179048 -0.66101539 0.24858496 -0.70800012 0.07536038
-0.11975242 -0.38922963 0.73707181 -0.73907298 -0.19127287 -0.64589918 0.072889186
-0.050939664 -0.18276438 0.72771353 0.46572989 0.19206935 -0.86383152 0.120229
-0.047088694 -0.31026199 0.69834721 -0.033341218 0.13793109 -0.98988044 0.068921193
-0.04501332 -0.32287911 0.69895786 0.0025185391 0.11418583 -0.99345624 0.063320115
-0.082081594 -0.23913211 0.72573984 -0.67554057 0.26730579 -0.6871627 0.06262929
-0.083266623 -0.24098265 0.72747177 -0.67353839 0.28331634 -0.68269902 0.064028934
-0.056874719 -0.11278924 0.73550349 -0.51334906 0.34977344 -0.7836653 0.094490118
-0.06212391 -0.14485417 0.73735082 0.32596764 0.4495509 -0.83165437 0.13046674
-0.051523991 -0.278245 0.70552129 -0.11981767 0.23794621 -0.96385962 0.071696348
-0.050709318 -0.28511027 0.7044937 -0.11971194 0.23270959 -0.96515036 0.075720631
0.019509608 -0.069978103 1.0010195 0.0018436708 0.99999756 0.0012139687 0.00017706286
-0.019187659 -0.071275547 0.94103342 -0.014553702 0.99983549 -0.01082581 0.00020791547
-0.061397787 -0.070623025 1.0323144 -0.0070167463 0.9999733 0.0020507488 0.00022873539
-0.0016309647 -0.06950812 1.18648 -0.090812862 0.9681018 0.23352057 0.051906701
0.030831626 -0.072408892 1.1970628 0.1527921 0.95442343 0.25637963 0.10894526
-0.022890711 -0.07079719 1.0372847 -0.0035198077 0.999964 0.0077190171 0.00023490969
-0.025481986 -0.069646709 0.99204773 -0.0098455455 0.99992436 -0.0073732198 0.0001920295
-0.0083494764 -0.070183642 1.0135393 -0.0030310929 0.99999326 -0.0020669964 0.00027239736
-0.002988108 -0.070261866 1.0371501 0.0015476356 0.99991333 0.013074606 0.00021331265
-0.035194542 -0.072569795 0.92447305 -0.11927482 0.99044877 -0.069171965 0.029688444
0.056564771 -0.068993971 1.1557004 0.15135342 0.97218645 0.17873353 0.061214477
-0.0046170959 -0.070438072 1.0304027 0.0007953865 0.99994397 0.010552717 0.00021654052
-0.023044549 -0.070804268 1.0395583 -0.0029599715 0.99994427 0.010137055 0.0001920168
0.00031312555 -0.070666455 1.0304978 0.00084607757 0.99994379 0.01056767 0.00021754754
-0.12875733 -0.2457988 0.77952754 -0.72792768 0.54502928 -0.41601005 0.061245661
-0.10674103 -0.23955593 0.78092635 -0.70191979 0.60770327 -0.37149066 0.060623616
0.017466268 -0.072481968 0.86097735 0.012504329 0.99066257 -0.13576196 0.0092003709
0.12788098 -0.071094923 0.97627068 0.15583843 0.98776799 -0.0053687436 0.0839573
0.0461744 -0.072625116 1.1156819 0.01551677 0.99892044 0.043785729 0.028187288
0.039558619 -0.069979437 1.1760973 0.18812974 0.96682388 0.17279711 0.10355885
0.045738034 -0.078826211 1.2281047 0.283077 0.85704893 0.43050507 0.10984758
0.073168293 -0.073654562 0.87126505 0.078091875 0.98141676 -0.17527935 0.016868871
-0.1125574 -0.087307952 0.81335199 -0.56291604 0.57601154 -0.59273624 0.055336654
-0.13057937 -0.2480496 0.78642768 -0.69689566 0.57519048 -0.42836004 0.060781155
-0.1450363 -0.2516652 0.80880857 -0.6302436 0.6510781 -0.42295432 0.062589027
-0.080781721 -0.16147886 0.75606126 -0.93424726 -0.0071435948 -0.35655445 0.12111921
-0.17619231 -0.08618591 0.90268558 -0.32076916 0.92041767 -0.22346929 0.028595472
-0.082629472 -0.23092557 0.79321784 -0.714028 0.66995376 -0.20328785 0.067896016
-0.075199313 -0.13221064 0.76362962 -0.91748983 -0.1214715 -0.37875745 0.12068321
-0.076729752 -0.22639164 0.73202246 -0.6599139 0.25186035 -0.70787007 0.074033514
-0.07674066 -0.22544289 0.73320282 -0.66814148 0.25508192 -0.69894212 0.076227143
-0.074238576 -0.1322836 0.76223743 -0.919649 -0.14229727 -0.36605623 0.11857445
-0.11493868 -0.24136735 0.80377036 -0.59978569 0.73208547 -0.32296765 0.066935696
-0.039284073 -0.070683382 0.79969311 -0.37996814 0.53485984 -0.75468481 0.152225
-0.10473289 -0.23100317 0.9408685 -0.32449362 0.9026956 -0.28256795 0.051501915
-0.12299076 -0.23481913 0.91376901 -0.25144514 0.96478331 -0.077255405 0.017961849
-0.10667402 -0.23925641 0.78301883 -0.70410901 0.60487574 -0.37196222 0.060725283
-0.090366848 -0.23423846 0.82925063 -0.57029253 0.8138063 -0.11173975 0.051554166
-0.12227263 -0.24213378 0.80354601 -0.61044502 0.71116453 -0.34871465 0.065551974
-0.05697158 -0.12480754 0.73801821 -0.3385824 0.34038061 -0.87721324 0.12702243
-0.055543676 -0.16865188 0.73299038 0.48774189 0.2479901 -0.83702374 0.150814
-0.12029475 -0.070985883 0.90907878 -0.14646766 0.94330525 -0.29786307 0.046945412
-0.066648215 -0.20089521 0.88934386 -0.81108707 0.58118862 0.06601198 0.054828197
-0.12553629 -0.24530993 0.78491259 -0.71903378 0.56074351 -0.41055706 0.06025812
-0.1449402 -0.10741851 0.86429495 -0.26984245 0.93666542 -0.22325538 0.03121371
-0.065291062 -0.16886708 0.87600815 -0.8849026 0.41979361 0.20179373 0.034032788
-0.14772069 -0.25180167 0.81123161 -0.62764978 0.65236193 -0.42482886 0.06149755
-0.086500436 -0.230367 0.88678408 -0.48057154 0.8744778 0.065874964 0.057733577
-0.058489792 -0.20931005 0.72286224 -0.59421533 0.219927 -0.77365381 0.099287152
-0.11619295 -0.071193673 0.90855241 -0.13414831 0.94251359 -0.30605969 0.044642851
-0.12623954 -0.23475745 0.91163069 -0.24279694 0.9667387 -0.080410719 0.016179612
-0.072682783 -0.17686073 0.83904803 -0.9180789 0.39154395 0.061842516 0.085105971
-0.087034889 -0.23305464 0.82530218 -0.57298017 0.81252861 -0.10719636 0.051791139
-0.084314957 -0.22978851 0.89676642 -0.45348471 0.89024687 0.042569593 0.050188791
-0.1539079 -0.23634985 0.8686325 -0.26174602 0.95483327 -0.14065038 0.028297592
-0.083264634 -0.2325592 0.81457037 -0.60266 0.79263318 -0.092378192 0.053293444
-0.082077168 -0.12613469 0.79409313 -0.97614384 -0.12998597 -0.17391634 0.11428021
-0.068336986 -0.33650354 0.69518232 -0.34783295 0.070730567 -0.93488473 0.043353934
-0.071821213 -0.17811227 0.84549695 -0.91596669 0.39557388 0.067277923 0.082657717
-0.17317866 -0.23932923 0.89275879 -0.29365259 0.9398331 -0.1745909 0.041654911
-0.15886904 -0.08756277 0.87980908 -0.21250516 0.92721534 -0.30840456 0.051362514
-0.13787553 -0.23623569 0.8799001 -0.28625238 0.95244676 -0.10442563 0.025197158
-0.17154101 -0.23965913 0.88498044 -0.29745048 0.93598998 -0.18827128 0.045041498
-0.085230775 -0.15754519 0.76653588 -0.96548057 -0.040397506 -0.25732341 0.1076577
-0.17835987 -0.27900898 0.84548038 -0.74834216 0.35829794 -0.55821735 0.045435809
-0.066241935 -0.18096171 0.87415546 -0.91057909 0.40195101 0.096338682 0.044513311
-0.11269289 -0.23231328 0.94352627 -0.27913496 0.91563332 -0.28930816 0.045773339
-0.13547958 -0.23627484 0.88436073 -0.29964143 0.94964588 -0.09158507 0.026182529
-0.043463655 -0.072682217 0.9480359 -0.0067502847 0.99994463 -0.0080695283 0.00025213268
-0.082966611 -0.15821446 0.76206595 -0.95606911 -0.042195644 -0.29008862 0.1150233
-0.15455361 -0.23643233 0.87137431 -0.25660631 0.95649105 -0.13884553 0.02993495
-0.10793091 -0.32414779 0.74026144 -0.71392709 0.14104719 -0.68586719 0.0095281666
-0.048852142 -0.071844809 1.0392718 -0.0063584717 0.99997103 0.0041991402 0.00023163483
-0.20122111 -0.24786218 0.89265215 -0.49333587 0.82279223 -0.28219247 0.065198228
-0.21391131 -0.25181457 0.90268296 -0.59918118 0.71766156 -0.35488549 0.067312054
-0.2486145 -0.087710232 1.0059741 -0.76016235 0.62732708 -0.16915664 0.097990304
-0.23696928 -0.095936768 0.98150659 -0.76820302 0.45891839 -0.44638321 0.083130583
-0.15442798 -0.069983847 1.0287699 -0.023663282 0.99807513 0.057323322 0.017453477
-0.21956497 -0.25466841 0.90903199 -0.63056552 0.6820187 -0.37045598 0.069626816
-0.17612219 -0.085231237 0.90368038 -0.32478604 0.91660345 -0.23313574 0.027386459
-0.16788539 -0.23322298 0.96791452 -0.21420093 0.85469788 -0.47287372 0.041899443
-0.15373138 -0.23552327 0.94523877 -0.14792314 0.941881 -0.30162719 0.032236945
-0.24901733 -0.32202515 0.93603134 -0.78871536 0.11319645 -0.60424727 0.0018304266
-0.28276801 -0.26276788 0.9977228 -0.77133739 0.31484771 -0.55309075 0.030788582
-0.23724797 -0.31684998 0.92315906 -0.79804498 0.10873922 -0.59270567 0.0016639372
-0.19996201 -0.071320139 1.0165944 -0.35334745 0.92849332 -0.11421769 0.076044105
-0.17125128 -0.2322928 0.9693222 -0.2140132 0.85204566 -0.47772029 0.041412935
-0.22006422 -0.21311869 0.99951357 -0.27571285 0.47909299 -0.83333802 0.06266807
-0.22467144 -0.099329159 0.96583724 -0.74574715 0.50409418 -0.43560317 0.067477107
-0.19538255 -0.09936247 0.92185187 -0.39632532 0.88544941 -0.24270461 0.019406358
-0.20719704 -0.36417648 0.8749854 -0.82187408 -0.11849146 -0.55720979 0.019059923
-0.19495286 -0.071557082 1.017316 -0.27158028 0.95132202 -0.14570683 0.070259787
-0.2403973 -0.18091288 1.0096071 -0.53599536 0.26422855 -0.80180562 0.13385044
-0.10578966 -0.21438573 0.97986329 -0.23740515 0.70262903 -0.67078406 0.052266564
-0.20921972 -0.075685643 1.0627145 -0.32986417 0.82878125 0.4520081 0.0912714
-0.24476351 -0.35877889 0.92708844 -0.79207313 -0.039714742 -0.60913295 0.018934529
-0.17591217 -0.19642688 0.99672788 -0.1672077 0.73364693 -0.65863788 0.053608328
-0.22950628 -0.27913061 0.91927421 -0.80540735 0.36911672 -0.46375829 0.060471825
-0.17228612 -0.18552586 0.99798393 -0.12120458 0.72264314 -0.68051177 0.079062022
-0.22709343 -0.24088107 0.97383898 -0.44466388 0.70091063 -0.55767226 0.061694644
-0.211173 -0.37070522 0.88040167 -0.80785555 -0.1590825 -0.56750524 0.025891904
-0.16081901 -0.19056816 0.99354815 -0.16456571 0.73574054 -0.65696585 0.048793651
-0.14001898 -0.19068636 0.98648798 -0.21679032 0.64104974 -0.73624539 0.037692722
-0.14914811 -0.2005616 0.98982286 -0.19681588 0.64762264 -0.73610353 0.033177745
0.064063251 -0.071453787 0.90807629 0.07430052 0.99188 -0.10321575 0.011940155
-0.067460045 -0.18186989 0.86884463 -0.91378492 0.3934412 0.10100085 0.045073804
-0.077628493 -0.20809726 0.86696923 -0.67259753 0.73601532 0.076771766 0.082403928
-0.099348113 -0.23593344 0.87076879 -0.43414667 0.90067619 -0.01729252 0.053776864
-0.01382551 -0.071490422 0.89373893 -0.01364686 0.99982536 -0.012766629 0.0002344854
0.18488698 -0.074573778 0.95415777 0.18124291 0.90809435 -0.37751237 0.12861878
-0.078590378 -0.2203103 0.88162106 -0.61278486 0.78048283 0.12385941 0.067108117
0.066163227 -0.070330687 0.96234244 0.019852318 0.99980009 0.0023734779 0.0015026856
-0.098098926 -0.073268525 1.1389194 -0.24164735 0.95643348 0.16383392 0.016909555
-0.11491795 -0.23767821 0.83149052 -0.50249261 0.84755099 -0.17075877 0.049950439
-0.19944879 -0.27961677 0.87704641 -0.67353249 0.34788743 -0.65217197 0.045544203
0.062107008 -0.069956906 0.93658179 0.011305534 0.9999193 -0.0057882792 0.0018519945
-0.18938448 -0.23723698 0.96920383 -0.32057148 0.82254922 -0.46973041 0.047285669
-0.070267871 -0.19291168 0.86509585 -0.83151436 0.55243558 0.058299743 0.07042022
-0.095219791 -0.23269527 0.87985969 -0.43245205 0.90009761 0.053004436 0.057722505
-0.072090223 -0.16731626 0.7454679 -0.92043549 0.12833638 -0.36922646 0.14935854
-0.16270027 -0.35886046 0.80810469 -0.83808142 0.010787268 -0.54543859 0.014075302
-0.095774688 -0.23122853 0.89175475 -0.38508606 0.92248034 0.027177898 0.044725612
-0.01553961 -0.06997554 1.0430259 6.8205758e-05 0.99994814 0.010181357 0.00020518717
-0.070115708 -0.20740627 0.88799155 -0.76291168 0.64174402 0.078297682 0.060261898
-0.074554756 -0.16339931 0.74929988 -0.95394057 0.00029990732 -0.2999956 0.14588274
-0.180292 -0.087023914 0.90509593 -0.33223671 0.91328669 -0.23563994 0.025314214
-0.041697368 -0.28654057 0.70580286 0.048706368 0.25101882 -0.96675599 0.071262993
-0.14783588 -0.10058706 0.86142641 -0.27146849 0.93712503 -0.21932049 0.029161016
-0.00064806134 -0.073293634 0.87668502 -0.0041454225 0.99958915 -0.028362982 0.0011834194
0.13777982 -0.073029168 0.98871171 0.17340346 0.98241538 0.069219217 0.10746691
-0.14400828 -0.074379936 0.909181 -0.22899409 0.92698193 -0.29709652 0.050830554
-0.067781501 -0.16588159 0.85828245 -0.92648113 0.33756268 0.16638581 0.064178593
-0.10522546 -0.27941844 0.74596536 -0.72016418 0.2940166 -0.62842488 0.032724738
-0.0647076 -0.19947335 0.90097845 -0.81800693 0.57157236 0.064573959 0.049488839
-0.24575457 -0.34927988 0.92991799 -0.79521203 0.058791332 -0.60347444 0.0055154841
-0.15915918 -0.35413051 0.80380011 -0.83412683 0.030385278 -0.55073506 0.010601438
-0.095218189 -0.23054571 0.90007359 -0.38030922 0.9247905 0.011281163 0.040993124
-0.092457779 -0.071216367 1.0460725 -0.0013987789 0.99997818 0.0064563332 0.00035827985
-0.20661288 -0.0753657 0.9914887 -0.40175435 0.89159077 -0.20894814 0.082450591
-0.15949143 -0.23632772 0.91006804 -0.2227921 0.96278912 -0.15297315 0.026129717
-0.072842002 -0.13345324 0.75515062 -0.90850961 -0.11725675 -0.40107492 0.12827088
-0.25861922 -0.35794866 0.94474173 -0.79460472 -0.028269202 -0.60646856 0.020037752
-0.088803671 -0.21700157 0.96506858 -0.36917353 0.80457187 -0.46516126 0.066612922
-0.23547301 -0.24534069 0.97293347 -0.46676651 0.67582053 -0.57043457 0.060624946
0.00068612996 -0.070040658 1.0460668 0.001101044 0.99993712 0.011163159 0.00019514236
-0.065112829 -0.083921894 0.76457387 -0.56156713 0.46511534 -0.68433177 0.081220254
-0.025099482 -0.071042694 0.95489752 -0.010413538 0.99991536 -0.0077876663 0.00019246293
-0.25764191 -0.10912758 1.0101012 -0.9160592 0.33450654 -0.22122577 0.11031491
-0.13311654 -0.23509781 0.90823257 -0.21955708 0.97167432 -0.087428354 0.012587588
-0.19130141 -0.072485201 1.0636637 -0.23245503 0.88142216 0.41116861 0.096219048
-0.19246921 -0.23718567 0.96920145 -0.33029357 0.81377655 -0.47819853 0.048292261
-0.084226348 -0.27504832 0.72064376 -0.55497849 0.24342959 -0.79545009 0.050361991
-0.16618364 -0.083077848 0.89548337 -0.26029491 0.92541587 -0.27541241 0.044939183
-0.072136745 -0.21622837 0.73171312 -0.6754818 0.24892181 -0.69409096 0.078803606
-0.027751273 -0.070082963 1.0053411 -0.0095368773 0.99993438 -0.006344391 0.00018185307
-0.067230888 -0.22014414 0.94520867 -0.63761419 0.72745854 -0.25348002 0.076855496
0.047884829 -0.070669092 0.91314626 -0.0084763132 0.99961215 -0.026527625 0.0018304606
-0.17329398 -0.073637784 0.93730158 -0.32619557 0.9287973 -0.17587492 0.011729293
-0.094414979 -0.27689174 0.7319712 -0.63799661 0.25921416 -0.72509879 0.041361373
-0.087224439 -0.099437349 0.78126127 -0.65864509 0.39047486 -0.64320773 0.094106719
-0.19189909 -0.24896277 0.88452065 -0.45435292 0.8474108 -0.27469707 0.070105255
-0.075463325 -0.26782227 0.71697617 -0.47809383 0.26028252 -0.83885586 0.065328695
-0.16550289 -0.082550563 0.89598596 -0.26026773 0.92546821 -0.27526253 0.044952624
-0.23997483 -0.19153023 1.005688 -0.49345213 0.30081898 -0.81609625 0.093272306
-0.1574211 -0.30114317 0.80949157 -0.81802988 0.20439626 -0.537633 0.016344912
-0.010451143 -0.070767328 0.87946337 -0.0021805773 0.99985576 -0.016843563 0.00091135746
-0.17905059 -0.20389104 0.99304605 -0.19298646 0.58599102 -0.78700113 0.027370108
0.03863389 -0.070384368 0.91687107 -0.0087825367 0.99960762 -0.026599033 0.00081419921
-0.12018044 -0.24627224 0.77784705 -0.73640049 0.53374827 -0.41572478 0.05792978
-0.085545652 -0.23189931 0.79056013 -0.73428279 0.63767791 -0.23279965 0.0695379
-0.016986964 -0.071243532 0.91244322 -0.017032184 0.9997713 -0.012937302 0.00027203545
-0.1066777 -0.27238438 0.75031859 -0.73235971 0.3304534 -0.59535688 0.03454164
-0.072138973 -0.087933518 0.76444161 -0.57495481 0.44445562 -0.68693972 0.076247148
-0.067817971 -0.20921826 0.90701109 -0.72629523 0.68634099 0.037830539 0.058223415
-0.16851255 -0.0870087 0.88803256 -0.22896369 0.9270066 -0.29704264 0.050859872
-0.2205992 -0.36895171 0.89302021 -0.79705715 -0.096208751 -0.59619105 0.024608484
-0.045475017 -0.071662992 0.81048179 -0.23889102 0.93086237 -0.27645335 0.17091565
-0.24750626 -0.36416826 0.9289937 -0.79270875 -0.055762179 -0.60704476 0.021871684
-0.2034032 -0.36883479 0.86843312 -0.81379336 -0.16833337 -0.55624115 0.024926422
-0.039128903 -0.2870225 0.70631331 0.082210466 0.25211006 -0.96420014 0.069366097
-0.21601851 -0.2785545 0.89999563 -0.73477864 0.36292341 -0.57305044 0.055533316
-0.063931659 -0.19007441 0.89254975 -0.85196155 0.51907754 0.068703234 0.045657836
-0.083694056 -0.24451958 0.72793758 -0.6674614 0.30432636 -0.67961806 0.062328931
-0.11803635 -0.23394012 0.9224968 -0.24990393 0.96032012 -0.12382786 0.026894061
-0.085594051 -0.21853924 0.96109188 -0.40760532 0.81229138 -0.41718179 0.068843611
0.14944236 -0.071632102 1.0849134 0.18320587 0.97067434 0.15565032 0.017622188
-0.066881038 -0.20316422 0.89457774 -0.78210473 0.61941206 0.068122908 0.056686237
-0.011290763 -0.070812806 0.90132904 -0.011845237 0.99985594 -0.012154035 0.0002286339
-0.10165013 -0.23708144 0.79037046 -0.64227349 0.70196909 -0.30777276 0.058990322
-0.09380798 -0.27058119 0.73315859 -0.65059388 0.27943677 -0.70614648 0.04437799
-0.08719109 -0.23322071 0.78783154 -0.77157044 0.57435942 -0.27347839 0.069847099
-0.18587326 -0.071568377 1.0290034 -0.17125356 0.98156577 -0.084857002 0.04296881
-0.073831476 -0.12474449 0.7623685 -0.79943436 0.10832365 -0.59090662 0.125423
-0.081663974 -0.15838756 0.77727723 -0.97064805 -0.10451562 -0.21660732 0.11032011
-0.10012789 -0.31181332 0.73090875 -0.64430118 0.15795629 -0.7482819 0.02093094
-0.070420563 -0.085968137 0.76535881 -0.57446027 0.44783837 -0.68515414 0.077916935
-0.16569085 -0.068923816 1.0170629 -0.017964713 0.99969053 0.017210023 0.0014369152
-0.21342574 -0.075536899 1.0003629 -0.43881881 0.8792823 -0.18520473 0.081760444
0.017537512 -0.071991175 1.185326 0.016344529 0.97661263 0.21438445 0.078117251
-0.096777536 -0.071378052 1.0164752 0.0019007561 0.9999122 0.013114883 0.00038958827
-0.0970539 -0.074223824 1.1489443 -0.25378442 0.95008218 0.18148659 0.017019773
-0.088105954 -0.073067404 1.1479257 -0.17189254 0.96834075 0.18102247 0.01630923
-0.025719533 -0.070227772 1.1302667 0.00071485591 0.9999823 0.0058990084 0.012751737
-0.073402829 -0.070528567 1.0980324 -0.038896807 0.99903852 0.020225419 0.0023811064
-0.0092171375 -0.070786618 1.153006 -0.016462838 0.9987151 0.047926527 0.0050342106
-0.0714387 -0.069699049 1.1285322 -0.11765541 0.98428476 0.13168411 0.011570117
0.098998085 -0.070905849 1.1084868 0.15817572 0.98006111 0.12025251 0.018196465
-0.086809888 -0.071326889 1.1453 -0.16618519 0.96967447 0.17920335 0.016270956
0.012788007 -0.07305003 1.0854515 -0.0025090778 0.99997276 0.0069456385 0.00023559779
-0.068777509 -0.069251068 1.1197242 -0.085830882 0.99331439 0.077198282 0.0068272715
0.0583467 -0.070923403 1.0830719 0.0088403383 0.99995202 0.0042144442 0.00044216798
-0.071293816 -0.069581777 1.1477545 -0.12314735 0.97703516 0.17388783 0.013105502
-0.074732609 -0.070192695 1.1259971 -0.1275568 0.98347902 0.12844567 0.011196714
0.020735722 -0.070533663 1.0619047 0.0010379385 0.99992949 0.011831078 0.00017531244
-0.044208389 -0.070929483 1.0342462 -0.0060662557 0.99996948 0.0049171294 0.00018333053
0.023247661 -0.070229784 1.0175339 0.0050970209 0.99997699 0.0044645583 0.00019502758
-0.11085671 -0.071318962 1.0396601 -0.00047367465 0.99996102 0.0088221738 0.00037653453
-0.13926058 -0.070784867 1.0409021 -0.028387239 0.99690825 0.073267087 0.034036625
-0.10117465 -0.071697012 1.0501722 -0.0017637115 0.9999665 0.0079959948 0.00041728589
-0.097250305 -0.071249887 1.0469755 0.00039099369 0.99997926 0.0064298338 0.00037387887
0.038945261 -0.073661759 1.2096601 0.21628848 0.92043304 0.32561061 0.098626092
-0.11299129 -0.071161687 1.026368 0.0024238355 0.99993801 0.010867247 0.00040499953
-0.25129086 -0.079090483 1.0478052 -0.68095833 0.70455402 0.19974846 0.12190396
0.07584168 -0.070895761 1.0743614 0.0013460813 0.99997902 0.0063361414 0.00090222224
-0.18858187 -0.072191119 1.0418769 -0.16218586 0.96383196 0.21147971 0.035167754
0.0412312 -0.070667677 0.99627334 0.0058310023 0.99996847 0.005390706 0.00019246693
0.090213612 -0.07147412 1.053884 0.014742047 0.99987972 -0.0048227068 0.0008733123
0.095645957 -0.071968168 1.0446063 0.018985678 0.9997946 -0.0071007297 0.00080026488
0.079150617 -0.07070443 1.0857015 0.015119742 0.99979442 0.013504408 0.0032361057
-0.038677678 -0.070916131 1.0352446 -0.0066575273 0.99996537 0.004984064 0.00017958361
0.075474001 -0.073312476 1.189284 0.36595035 0.81449056 0.45020598 0.1007688
0.014194261 -0.071362704 1.2228545 0.00033795126 0.95330757 0.30200085 0.080304675
0.054182108 -0.071291022 1.015732 0.011344865 0.99991888 0.0057967929 0.00018585188
-0.019428054 -0.24301502 1.2627083 -0.44779298 0.35340706 0.82133114 0.021175202
-0.070616961 -0.081401043 1.2005467 -0.19502088 0.92679065 0.32097659 0.012609839
0.1081037 -0.076494701 1.1386611 0.26036227 0.94748479 0.18569878 0.02485002
-0.046940148 -0.29520735 1.2653419 -0.56413454 0.20810871 0.79902631 0.0082592461
0.15387988 -0.06203926 1.0783229 0.17744502 0.97999346 0.090144478 0.01769061
0.082883433 -0.070955716 1.1712579 0.28168288 0.90615517 0.31549564 0.048957195
0.14682309 -0.064246804 1.0785848 0.17521769 0.98048723 0.08912582 0.016529117
-0.078477629 -0.31611282 1.2464708 -0.60895765 0.13350363 0.78188705 0.00551847
-0.14122325 -0.085255459 1.146174 -0.28694743 0.919011 0.27033326 0.018667152
0.16590038 -0.075023353 1.0778751 0.21520936 0.9668324 0.13755065 0.018835016
-0.1673948 -0.073727623 1.0946052 -0.17588259 0.95797718 0.22659469 0.022212237
0.12587644 -0.073113337 0.98584414 0.1523615 0.98771018 0.034850229 0.0754302
0.010551548 -0.069811851 1.0317069 0.0015186799 0.999933 0.011470313 0.00019525451
0.052010491 -0.070678093 1.043565 0.009060964 0.99994981 0.0042883526 0.00021241279
0.062910929 -0.068841666 1.1366477 0.14704719 0.98107636 0.12596101 0.039401963
-0.063185841 -0.071133904 1.0371704 -0.0065155402 0.99997568 0.0024887305 0.00022295162
-0.11788899 -0.071432769 1.0519463 -0.024105718 0.99948704 0.021084821 0.013548853
-0.075383402 -0.26874945 1.237933 -0.57905024 0.23979174 0.77923083 0.0094123688
-0.055940222 -0.26343948 1.2523184 -0.56416702 0.26500383 0.7819773 0.0080325939
-0.027961632 -0.3057307 1.2778716 -0.53221703 0.21302238 0.81936961 0.0073855198
-0.019777611 -0.2425268 1.2621078 -0.45103297 0.34949645 0.82123166 0.020835036
-0.01712013 -0.24060319 1.267396 -0.43405306 0.36171272 0.82508296 0.02360582
-0.049819447 -0.28383797 1.2619365 -0.56479561 0.22869252 0.79290962 0.0081228763
-0.0092975534 -0.20747046 1.2606784 -0.36745873 0.32672557 0.8707608 0.062393803
-0.0012834624 -0.28491184 1.2969819 -0.28602296 0.27559862 0.91773438 0.037676767
-0.019500492 -0.23907489 1.257952 -0.45185268 0.35851192 0.81688333 0.021912215
-0.011553241 -0.27318019 1.2837186 -0.42862961 0.27699384 0.85997152 0.01752932
-0.010162875 -0.21364218 1.2666212 -0.39957201 0.35004765 0.84723598 0.049222603
-0.13961047 -0.088932678 1.1495929 -0.29666153 0.90982264 0.29019773 0.017709732
-0.070557714 -0.069158003 1.1462833 -0.11945771 0.97791332 0.17150874 0.013079859
-0.13383558 -0.095599525 1.1588182 -0.31533891 0.89678663 0.31037909 0.016278904
0.062079538 -0.070944272 0.87553191 0.075200021 0.98484951 -0.15625748 0.015029719
0.063544862 -0.06977699 0.94143063 0.014062387 0.99989825 -0.0023773103 0.0016583686
0.081426434 -0.068637423 0.93509865 0.041305181 0.99901634 -0.016132357 0.0021740843
0.038732581 -0.070744827 0.99813175 0.0063462751 0.99996835 0.0047999122 0.00018560005
0.055772979 -0.071614377 1.0053625 0.010524993 0.99990368 0.0090455273 0.00023371662
0.05276702 -0.070003815 0.98300612 0.0077192197 0.99995589 0.00534679 0.0002274962
0.034365851 -0.070307344 1.008592 0.0075345053 0.99995631 0.005537983 0.00017907901
0.22941434 -0.080135234 0.95755142 0.5951277 0.74696344 -0.29642639 0.1091988
0.014670537 -0.070227578 1.0324646 0.0022874575 0.99994117 0.010599578 0.00019282068
0.17518042 -0.07051786 0.95664817 0.14525282 0.92944777 -0.33915851 0.12438605
0.046906926 -0.070232376 1.0210443 0.0089857727 0.9999491 0.00458998 0.00019910569
0.15409087 -0.07158488 0.96755779 0.065752767 0.97561407 -0.20941271 0.11387126
0.13855349 -0.072934456 0.98516631 0.18612078 0.98235291 0.018488867 0.12421791
-0.043943305 -0.07088019 1.1113729 -0.010905276 0.99991071 0.0077248872 0.0010235908
0.095890604 -0.071490735 1.0573705 0.025301794 0.99965471 -0.0070815086 0.0014140097
0.13847458 -0.073323749 1.0029049 0.11350513 0.99336582 0.01846303 0.067695297
0.029739046 -0.070138715 1.0594825 0.0035318043 0.99993277 0.011047843 0.00016482871
0.023009986 -0.072151177 1.1896223 0.042383913 0.97380674 0.22339204 0.099706568
0.073213086 -0.070515521 0.96085119 0.023359092 0.99972522 0.0019633011 0.0015605529
0.068401836 -0.070135742 0.93647861 0.016482327 0.99985176 -0.0049774162 0.0018955987
-0.10259822 -0.071950726 1.0144788 0.0041604158 0.99987018 0.015567946 0.00040783323
-0.096421294 -0.071313359 1.0511189 0.00083741714 0.99998701 0.005020028 0.00037242568
-0.020378238 -0.070848003 0.95724869 -0.0099506937 0.99992305 -0.0074107111 0.00017322194
0.047728639 -0.070665173 0.91161621 -0.0084150853 0.99957788 -0.027807334 0.0018731236
-0.0033449831 -0.070112795 1.0391452 0.0021161223 0.99991971 0.012492895 0.00021535854
-0.015952501 -0.070329815 1.0431025 -5.2189152e-05 0.9999485 0.010151932 0.00020286483
-0.088651203 -0.074147575 1.1506802 -0.17189254 0.96834075 0.18102247 0.01630923
-0.084171675 -0.07235799 1.1468219 -0.16268884 0.97010845 0.18006067 0.015915116
-0.10597017 -0.071597144 1.0557824 -0.0052962434 0.99993116 0.010466816 0.00062045531
-0.051235516 -0.071283765 1.0342491 -0.0074514248 0.99996907 0.0025174338 0.00022078298
-0.2461796 -0.086925305 1.0004243 -0.75119495 0.60522074 -0.2634652 0.095450915
-0.15768659 -0.069702335 1.0222303 -0.023890704 0.99766785 0.063938506 0.017652232
-0.23428905 -0.31568635 0.91952854 -0.80069941 0.10850337 -0.5891583 0.0019524809
0.018327443 -0.072842918 1.2265171 0.018010784 0.94757098 0.3190375 0.078721397
-0.0089056129 -0.071171157 0.946383 -0.011364031 0.99989825 -0.0086192656 0.00015585152
0.10687717 -0.066801205 0.94828773 0.10023271 0.99405158 -0.042600114 0.030337689
-0.24822837 -0.36884725 0.92872828 -0.79233986 -0.089681804 -0.60345227 0.027244505
-0.12180654 -0.072470821 0.90158623 -0.1988079 0.92814714 -0.31467161 0.050258838
-0.17402259 -0.085857585 0.89825678 -0.2728321 0.92456043 -0.26598993 0.039791338
-0.19741957 -0.25078097 0.8890664 -0.49126232 0.82073843 -0.29163277 0.071265765
-0.24692459 -0.086689785 1.0023973 -0.75504255 0.61208951 -0.23506844 0.092390954
-0.20434168 -0.071125157 1.0136645 -0.35138577 0.92769998 -0.12609792 0.073858716
-0.083194524 -0.22996873 0.89110768 -0.49500147 0.86678582 0.060464259 0.05729074
-0.081835829 -0.23063332 0.78963643 -0.75624055 0.61290097 -0.22902527 0.075887576
-0.1263084 -0.23674485 0.87373167 -0.33136347 0.93876296 -0.094457977 0.027696408
-0.13206853 -0.23659679 0.88045007 -0.31316826 0.94560719 -0.088048883 0.026849009
-0.093544491 -0.23058468 0.89219683 -0.4036575 0.9140588 0.039459243 0.04761529
-0.095148779 -0.23258542 0.87695551 -0.4463959 0.89365262 0.045996569 0.059666231
-0.22396992 -0.098931566 0.96447855 -0.74111688 0.51976478 -0.42495939 0.063407972
-0.26229674 -0.1187012 1.0134575 -0.93811804 0.19424929 -0.28670841 0.10567943
-0.078882545 -0.21710356 0.87605441 -0.6276443 0.76863414 0.12354791 0.07177408
0.14098857 -0.082850508 0.88624138 0.2648176 0.96041584 -0.086447552 0.088321544
-0.084412403 -0.23164769 0.78809464 -0.76456624 0.58977568 -0.26000622 0.077796459
-0.014355648 -0.070512012 1.0056038 -0.0050674221 0.99997735 -0.0044285166 0.00023761761
-0.10934697 -0.071208768 1.0190587 0.0038273511 0.99989867 0.013713498 0.00042396935
-0.15604822 -0.088050105 0.87880611 -0.23308672 0.93055236 -0.28238779 0.046413124
0.049149025 -0.070439659 0.90095896 0.045364872 0.9928 -0.11086167 0.012061703
-0.079067193 -0.22938973 0.79536963 -0.70107543 0.69406211 -0.16361851 0.067551777
-0.23362245 -0.097506367 0.97830147 -0.76116031 0.45471138 -0.4624635 0.083665662
-0.2449028 -0.31581464 0.93226647 -0.79432708 0.1230933 -0.59488869 0.0035165129
-0.066931069 -0.19683085 0.88349068 -0.82907748 0.55586481 0.060372602 0.055582911
-0.072151639 -0.17413391 0.83979505 -0.91860271 0.38751569 0.077464029 0.089867331
-0.067792602 -0.070212074 1.0996946 -0.021211574 0.99970227 0.012066742 0.0013232017
-0.025858181 -0.070197575 1.1271586 0.0010946628 0.99996483 0.0083104903 0.012766349
-0.29166937 -0.22165817 1.0314622 -0.80806899 0.29702601 -0.50872397 0.051797997
-0.3075839 -0.28107333 1.0498261 -0.96902853 0.22112155 0.10994998 0.055129681
-0.20291138 -0.076622941 1.0689292 -0.30637738 0.81350023 0.49431795 0.10255601
-0.20042607 -0.070840031 1.0087981 -0.34704199 0.92459321 -0.15712821 0.078095093
-0.23288208 -0.12710589 0.99984431 -0.85115629 -0.12305909 -0.51028371 0.15475634
-0.077695884 -0.20830251 0.86647463 -0.67285687 0.73696429 0.064398237 0.083507024
-0.11825158 -0.23721449 0.83059174 -0.5060662 0.84378093 -0.17869174 0.050713476
-0.14467441 -0.071839534 1.0422451 -0.052883428 0.98904145 0.13784234 0.068782106
-0.14326124 -0.076333694 0.90069801 -0.21258762 0.9271822 -0.30844721 0.051350519
-0.27415389 -0.11420932 1.0416538 -0.91769391 0.37491888 0.13142958 0.10294197
0.066425733 -0.069001243 1.1752945 0.22964166 0.94472462 0.23400863 0.073280796
-0.27805063 -0.14913529 1.041945 -0.97086287 0.22902326 -0.070524409 0.11913741
0.067976616 -0.072079748 1.1884052 0.3290717 0.85460269 0.40170389 0.11340208
-0.070465751 -0.1911187 0.86249959 -0.86132371 0.50376713 0.065878838 0.065726146
-0.071866311 -0.19498001 0.85971808 -0.80984825 0.58626854 0.020858301 0.078782476
-0.070163064 -0.20617861 0.88567632 -0.75808871 0.64661258 0.084816471 0.061725486
-0.30663925 -0.29131791 1.0281062 -0.94917434 0.18834403 -0.25217968 0.04068793
-0.14350697 -0.2205236 0.97790724 -0.18296762 0.79645246 -0.57635605 0.046051998
-0.29553872 -0.256093 1.0179979 -0.83155406 0.2669943 -0.48706454 0.048037585
-0.28924757 -0.17888574 1.0399404 -0.9055773 0.2513327 -0.34170401 0.086768009
-0.11127978 -0.081911877 0.80839884 -0.57732373 0.53377008 -0.61788899 0.060895991
0.065429263 -0.070717998 0.86804724 0.088613354 0.98298907 -0.16087285 0.01691567
-0.043103978 -0.071661152 0.79109251 -0.46106392 0.61316335 -0.64144433 0.10419365
-0.14398341 -0.24964266 0.80203259 -0.65196306 0.62770116 -0.42536506 0.06282258
-0.067892745 -0.20853655 0.90537041 -0.73154891 0.6795072 0.055732854 0.058338705
-0.10436488 -0.23098017 0.93899041 -0.324469 0.90507418 -0.27488276 0.051465485
-0.1234 -0.23452348 0.90584731 -0.27211642 0.96112663 -0.046780478 0.019215444
-0.15226145 -0.41295087 0.78588337 -0.79347265 -0.36080685 -0.49012199 0.075261593
-0.11613071 -0.24125549 0.80175155 -0.60558105 0.72049457 -0.33787441 0.06730821
-0.089032695 -0.23386222 0.82382685 -0.56392062 0.8183555 -0.11085059 0.051625188
-0.083653949 -0.12347879 0.7933346 -0.98118645 -0.075800173 -0.17755964 0.10344455
-0.1503119 -0.41057476 0.78362799 -0.7918967 -0.36475477 -0.48974842 0.078408927
-0.073651664 -0.17396921 0.83351046 -0.92327231 0.37461561 0.085037149 0.087702706
-0.13093212 -0.18557198 0.98413962 -0.23468761 0.60423261 -0.76146215 0.037453871
-0.17409137 -0.39819372 0.82277799 -0.84016973 -0.26227579 -0.4746854 0.053493697
-0.15140094 -0.23593339 0.86824661 -0.25496361 0.95663458 -0.14086829 0.026224736
-0.17542575 -0.23942125 0.89113396 -0.3194772 0.93008858 -0.18129992 0.046625126
-0.16981906 -0.23915607 0.88431579 -0.28477076 0.94186497 -0.17831425 0.042578761
-0.21485418 -0.3674624 0.88593692 -0.80546266 -0.10630795 -0.58303386 0.022684682
-0.11212714 -0.23224075 0.93903428 -0.27883336 0.92325968 -0.26427928 0.045533333
-0.16752854 -0.34102988 0.82039648 -0.82889587 0.07755059 -0.55400133 0.0021131625
-0.20633456 -0.36273527 0.87370998 -0.82172298 -0.10312535 -0.56047881 0.016470049
-0.17688498 -0.19595288 0.99671865 -0.16607854 0.719549 -0.67429012 0.057370253
-0.25786737 -0.35971594 0.94319689 -0.79352385 -0.039223433 -0.60727382 0.020347597
-0.21030104 -0.36907515 0.87932748 -0.81368691 -0.14870828 -0.5619604 0.024939116
-0.18795411 -0.23614676 0.9658882 -0.3115555 0.83413798 -0.455134 0.047067646
-0.19020616 -0.097733691 0.92035258 -0.37281412 0.89790922 -0.23402698 0.020244291
-0.18470329 -0.33913302 0.84400517 -0.82556421 0.079430394 -0.55869001 0.0010329173
0.019636322 -0.071975209 1.1915444 0.019259548 0.97376966 0.22671948 0.082747884
0.054890357 -0.071309909 1.1892478 0.25531814 0.93135935 0.25958127 0.14220686
-0.3080411 -0.30326772 1.0243721 -0.96346426 0.16677916 -0.20957446 0.037744835
-0.24995533 -0.077435493 1.0446293 -0.66537398 0.72336823 0.184434 0.12351753
-0.28838691 -0.27916792 0.99829334 -0.79376072 0.28437194 -0.53765839 0.027477041
-0.28087547 -0.26102486 0.99637192 -0.75989509 0.32897606 -0.56065512 0.030622991
-0.24059686 -0.17764181 1.006614 -0.55184954 0.23212552 -0.80098677 0.12469962
-0.30882055 -0.29864678 1.0271124 -0.96336615 0.16193379 -0.21378265 0.035943817
-0.22180726 -0.18504667 1.0032477 -0.30828741 0.40142444 -0.86244839 0.10334944
-0.3097648 -0.28846917 1.0485926 -0.97376204 0.18986133 0.12545982 0.053096313
-0.2633279 -0.113398 1.0148653 -0.93343049 0.27565351 -0.22961421 0.10073367
-0.30303678 -0.33330747 1.0071486 -0.89662004 0.12795933 -0.4239091 0.016307451
-0.21773422 -0.2110516 0.99763411 -0.24454261 0.48083824 -0.84201753 0.068301432
-0.17071696 -0.18561478 0.99712127 -0.11987688 0.72591096 -0.67726129 0.07545507
0.018267186 -0.071999475 0.87485981 -0.014357085 0.99394917 -0.10889933 0.0058990046
-0.15274262 -0.23640704 0.87577617 -0.25243473 0.95897043 -0.1290442 0.030101689
-0.15101184 -0.2109326 0.98189837 -0.20060299 0.7479099 -0.63276315 0.043495007
-0.080608785 -0.070794061 1.1122686 -0.11903509 0.98961264 0.080607094 0.0090318127
-0.18434319 -0.34316218 0.84347624 -0.82590115 0.059721749 -0.56064296 0.0025732738
-0.19837441 -0.27829558 0.87606663 -0.67402619 0.3605116 -0.64476365 0.048337441
-0.17792924 -0.23098424 0.97356999 -0.22005174 0.81331843 -0.53860039 0.044300824
-0.18037356 -0.18238269 1.000668 -0.058811989 0.70058137 -0.71114475 0.096131772
-0.065891586 -0.18225662 0.87758768 -0.90959638 0.40423775 0.096053541 0.036053315
-0.26196423 -0.097605273 1.0187398 -0.85544384 0.51078373 -0.085532717 0.10481089
-0.055558838 -0.069884732 1.1159301 -0.030277874 0.99905849 0.03107 0.0038065109
-0.1152602 -0.23857722 0.82541192 -0.52493268 0.83267832 -0.17633072 0.055896819
-0.069693342 -0.069233224 1.1463941 -0.1202263 0.97869599 0.16643223 0.013163458
-0.25669855 -0.10802196 1.0086398 -0.91242385 0.34589782 -0.21871777 0.11068453
-0.1500688 -0.23554172 0.85954696 -0.28077292 0.94375056 -0.17464705 0.031261273
-0.31378865 -0.32826334 1.0301597 -0.97915953 0.1716115 -0.10861021 0.047725558
-0.17988685 -0.36330682 0.83353025 -0.83381993 -0.061697453 -0.54857802 0.022336422
-0.30204546 -0.32954666 1.0056531 -0.88881361 0.13315548 -0.43849736 0.011648769
-0.15875056 -0.23634493 0.9084031 -0.22181696 0.96368456 -0.14869194 0.025825916
-0.15809934 -0.35053822 0.80335748 -0.83327216 0.047382914 -0.55082875 0.0072821951
-0.25521171 -0.23554496 0.99594742 -0.57127208 0.47989881 -0.66584188 0.038214285
-0.22363418 -0.36778069 0.89884633 -0.79436702 -0.082726531 -0.60177845 0.023836596
-0.2366544 -0.22942589 0.99745744 -0.41856793 0.58007091 -0.698798 0.048388004
-0.30465668 -0.25954181 1.0463319 -0.96456969 0.25803819 -0.054969329 0.069783285
-0.25908551 -0.0928896 1.0172491 -0.81448352 0.57707983 -0.059962351 0.10426451
-0.1548982 -0.41603011 0.79228008 -0.77599949 -0.44425943 -0.44772562 0.084897324
-0.26154608 -0.14767896 1.0149657 -0.92332482 0.072236188 -0.37716496 0.1164382
-0.26066175 -0.092560396 1.0217048 -0.81207472 0.58208853 -0.041323345 0.10463108
-0.17058688 -0.3905682 0.81567109 -0.84136736 -0.21668132 -0.49512655 0.047540624
-0.26843339 -0.11951556 1.0218703 -0.95221299 0.2066758 -0.22488995 0.099546619
-0.13495179 -0.070957065 1.045637 -0.035027277 0.99773026 0.057510015 0.030654646
-0.25887954 -0.23573124 0.99811304 -0.60777396 0.44622901 -0.65687931 0.036621705
-0.31473288 -0.38001829 1.0137922 -0.90460205 -0.11840985 -0.40948048 0.051631644
-0.25752369 -0.23915847 0.99400246 -0.58490956 0.48955396 -0.64669758 0.037568215
-0.072117388 -0.2194265 0.9402535 -0.62351912 0.74629313 -0.23296 0.072688222
-0.26210016 -0.088453144 1.0321614 -0.80994451 0.58643246 0.0093160169 0.11429243
-0.16595665 -0.36124894 0.81287712 -0.84220403 -0.016144428 -0.53891718 0.019866314
-0.14421737 -0.075196713 0.90602607 -0.2290047 0.92696655 -0.29713604 0.05082671
-0.28850168 -0.34420854 0.98244721 -0.82549518 0.09192773 -0.55687249 0.0030303658
-0.26566133 -0.12421113 1.0174601 -0.94970953 0.17915608 -0.25681672 0.10229386
-0.29618028 -0.24919976 1.0217458 -0.83319157 0.25177073 -0.4923448 0.050348632
-0.27351347 -0.38533446 0.95718259 -0.79021794 -0.22595367 -0.56964952 0.05578886
-0.077025607 -0.22098285 0.89987314 -0.62250566 0.78186089 0.0343551 0.062958591
-0.26232481 -0.16386302 1.0151874 -0.83606493 0.083773553 -0.54219681 0.10447665
-0.10999004 -0.23927023 0.81423569 -0.56480074 0.79625714 -0.21673639 0.057828583
-0.083218865 -0.22726125 0.9383688 -0.46814832 0.85388952 -0.22739772 0.064877234
-0.095397122 -0.21832447 0.96520394 -0.33313385 0.81723803 -0.47025925 0.06273111
-0.21362819 -0.35392612 0.88472211 -0.81517911 0.015705323 -0.57899594 0.0081583038
-0.046819735 -0.070674799 1.0197487 -0.007744791 0.99996996 -0.00023920965 0.00017984293
-0.15468524 -0.23547073 0.91335666 -0.20928966 0.96835989 -0.13593006 0.023491111
-0.20419911 -0.071611084 0.99084741 -0.38633767 0.90221059 -0.19172686 0.080707073
-0.25436381 -0.27270162 0.9567948 -0.69466347 0.47915667 -0.53651786 0.047369532
-0.087470055 -0.096962437 0.78019267 -0.62514573 0.41713503 -0.65969008 0.083779491
-0.10361903 -0.2385641 0.78489894 -0.6920886 0.62470824 -0.36159775 0.060937256
-0.042504385 -0.07133165 0.79633355 -0.42924467 0.60071415 -0.67445642 0.12452424
-0.12929718 -0.2465408 0.78521198 -0.70875728 0.56632954 -0.42063528 0.060944278
-0.20100895 -0.24859619 0.89211851 -0.50509137 0.81335533 -0.28867939 0.067374595
-0.07598798 -0.22338246 0.72765785 -0.6559186 0.25237194 -0.71139246 0.077188678
-0.16329429 -0.2327133 0.96833777 -0.20568876 0.85397798 -0.47792637 0.041378368
-0.15082072 -0.2354954 0.94700849 -0.13265556 0.94270247 -0.30612838 0.032433517
-0.16912113 -0.23229112 0.96901321 -0.21559153 0.85026032 -0.48018515 0.042220335
-0.14791293 -0.35644585 0.78668559 -0.82236934 0.030086836 -0.56815797 0.013581152
-0.24158587 -0.3544088 0.92368454 -0.79593349 0.014632639 -0.60520726 0.011711655
-0.13477638 -0.38042241 0.75948417 -0.78984404 -0.084901288 -0.60740274 0.047365893
-0.17715177 -0.27693552 0.84409827 -0.74952358 0.36968425 -0.54913378 0.046564389
-0.2796053 -0.14117496 1.0450153 -0.97864807 0.20549881 -0.0042549851 0.13429426
-0.27277461 -0.10518155 1.04722 -0.87421477 0.43596646 0.21373285 0.10974552
-0.28013721 -0.2146222 1.0170722 -0.63917685 0.35701388 -0.68117106 0.043389793
-0.25072923 -0.074721918 1.0384926 -0.65026683 0.74798322 0.13294433 0.11490715
-0.31297022 -0.36599702 1.01653 -0.93083191 -0.050079033 -0.36199993 0.049768377
-0.33046481 -0.37652755 1.0534537 -0.98891574 -0.01787724 0.14739758 0.083279893
-0.31550398 -0.30643594 1.0408515 -0.98568189 0.16658866 -0.026066892 0.051077507
-0.22348472 -0.23915024 0.97440445 -0.40068516 0.72444123 -0.56092453 0.058538388
-0.30641842 -0.27921286 1.0533392 -0.95498443 0.22761016 0.19025847 0.056817494
-0.31244856 -0.30715883 1.0323949 -0.98120457 0.16211008 -0.104679 0.046486896
-0.1505639 -0.19627096 0.99000716 -0.19372369 0.65941226 -0.72639287 0.033982575
-0.067989595 -0.16983996 0.8580566 -0.93271559 0.338 0.12568866 0.062021147
-0.16746409 -0.23815309 0.90595031 -0.25073954 0.95606554 -0.15188283 0.03036177
-0.16809124 -0.27305806 0.83418936 -0.7653746 0.39137802 -0.5109061 0.04354091
-0.21775351 -0.23915641 0.9672308 -0.3676171 0.78433329 -0.4996787 0.058764521
-0.12847206 -0.23426077 0.9488036 -0.1769376 0.92508352 -0.33602604 0.042785775
-0.1504464 -0.37394783 0.78604341 -0.83061433 -0.049321301 -0.55465961 0.031798936
-0.27455378 -0.21323678 1.0082417 -0.61651576 0.36747399 -0.69632691 0.038380537
-0.11992832 -0.24458358 0.7751568 -0.73985183 0.5337823 -0.40950674 0.058733493
-0.24073595 -0.23272611 0.99392807 -0.44564 0.57989472 -0.68200225 0.04422795
-0.24778007 -0.17646317 1.0110183 -0.62323642 0.21309559 -0.75244045 0.13054438
-0.21825296 -0.35165864 0.89089185 -0.81286788 0.036374271 -0.58131111 0.0067108548
0.053868473 -0.070622817 1.172227 0.19446316 0.95579451 0.22054665 0.10412952
-0.064883925 -0.19733465 0.89600128 -0.83275163 0.54934782 0.068860531 0.046325665
-0.256659 -0.27941588 0.95673966 -0.7607047 0.35743293 -0.54182094 0.036565132
-0.13421446 -0.23529629 0.90518683 -0.22345997 0.97209144 -0.071441799 0.013161316
-0.27983478 -0.39730793 0.96125144 -0.77299988 -0.2860913 -0.56623578 0.064093396
0.06129846 -0.071066372 0.90508336 0.062505402 0.99204445 -0.10927452 0.011218815
-0.27341008 -0.41010624 0.9560113 -0.72521067 -0.39875349 -0.5613066 0.090846382
-0.068077676 -0.16216607 0.85434341 -0.94318694 0.29299051 0.15670043 0.07485348
-0.072903112 -0.2219898 0.94401467 -0.55742592 0.7881009 -0.26110017 0.071229063
-0.10511147 -0.32775262 0.73575741 -0.70052284 0.14251764 -0.69925416 0.01118778
-0.1914348 -0.23618785 0.96307266 -0.33560443 0.83413327 -0.43771151 0.047097426
-0.084530212 -0.21858323 0.96060914 -0.41176683 0.80810326 -0.42120931 0.070637152
-0.25666723 -0.26480171 0.96161294 -0.62323344 0.54832655 -0.55760038 0.04624822
-0.10154628 -0.28357196 0.73868775 -0.68382168 0.24643265 -0.68677419 0.032802381
-0.075271204 -0.26535034 0.71659738 -0.49091199 0.25225234 -0.83389097 0.064204007
-0.10617179 -0.26983562 0.74998909 -0.72667378 0.34035835 -0.59674227 0.035835359
0.088569082 -0.074946254 1.1708736 0.29009843 0.89316547 0.34365436 0.064249776
-0.090467095 -0.093732849 0.78508395 -0.63001031 0.42443278 -0.65034133 0.08264184
-0.075994045 -0.22215851 0.72813529 -0.66767454 0.25826213 -0.69822007 0.076044865
-0.14755222 -0.2463332 0.80571347 -0.63675958 0.64543736 -0.42183861 0.065347821
-0.092003964 -0.23358755 0.82624388 -0.56304634 0.81901836 -0.11039775 0.050113756
-0.095567271 -0.38168204 0.71013373 -0.57155204 -0.12937815 -0.81030208 0.055980336
-0.088223584 -0.3242828 0.7181375 -0.59233606 0.16667086 -0.78826314 0.02462001
-0.08312811 -0.15721905 0.76122367 -0.94266152 -0.031385556 -0.33227119 0.11757751
-0.2199112 -0.36615914 0.89216739 -0.79899436 -0.088109247 -0.59484851 0.021722533
-0.28817058 -0.19169119 1.045682 -0.79999155 0.34019378 -0.4942486 0.071406052
-0.10576353 -0.21288563 0.97632462 -0.25150278 0.7332164 -0.63177526 0.056584958
-0.31307298 -0.29846999 1.0353419 -0.98635292 0.13882743 -0.088515177 0.044209365
-0.16309072 -0.30168456 0.81840694 -0.81481248 0.20795918 -0.54114091 0.014871394
-0.098492749 -0.071418032 0.99983132 0.0049082488 0.99993211 0.010564831 0.0003862658
-0.18892805 -0.22568813 0.97795635 -0.26720929 0.76252192 -0.58920246 0.044364747
-0.20260584 -0.3670046 0.86757338 -0.81480467 -0.16243124 -0.5565154 0.023801576
-0.16217846 -0.35694742 0.80730277 -0.83838505 0.011149299 -0.54496443 0.013827874
-0.12647718 -0.18559466 0.98267055 -0.24152029 0.60655749 -0.75746679 0.035314847
-0.056338649 -0.1652678 0.73278993 0.49491566 0.30639648 -0.81312954 0.1513906
-0.20414427 -0.34880278 0.87208378 -0.82046175 0.055657852 -0.56898564 0.0033730911
-0.14584483 -0.34284925 0.78930545 -0.81938154 0.098967642 -0.56464088 0.0021777896
-0.16224 -0.37496266 0.80413282 -0.84187353 -0.088955827 -0.53229302 0.037919965
-0.24126858 -0.26806712 0.93680805 -0.69041502 0.56134379 -0.45631152 0.048565742
-0.1955252 -0.23749328 0.9515726 -0.35815686 0.85414189 -0.37704808 0.040884294
-0.045277763 -0.28081924 0.70602274 -0.002145495 0.25149336 -0.96785671 0.075125895
-0.30351821 -0.25242111 1.038623 -0.94112068 0.23620142 -0.24186917 0.058663495
-0.2410723 -0.12944311 1.0044333 -0.9043808 0.035132181 -0.42527774 0.14332667
-0.24089245 -0.27410674 0.93326753 -0.75627077 0.44379461 -0.48072973 0.051590577
-0.08233425 -0.24276946 0.72768295 -0.66958022 0.28083608 -0.68759966 0.06505543
-0.23621695 -0.25978574 0.93312997 -0.63373989 0.64455479 -0.42769471 0.057784494
-0.26347953 -0.40404725 0.94372863 -0.73756796 -0.37598184 -0.56091994 0.083479352
-0.14141856 -0.10572653 0.8501901 -0.23600665 0.94470817 -0.22765639 0.029804256
-0.26000056 -0.40481958 0.93897223 -0.71679074 -0.39734551 -0.5729987 0.085510366
-0.1052561 -0.23331977 0.9181515 -0.32969943 0.94295555 -0.046184402 0.032542877
-0.22369169 -0.082411729 1.0785863 -0.51692849 0.61574912 0.59467471 0.096932881
-0.16865079 -0.084388152 0.89078963 -0.22900027 0.92695504 -0.29717562 0.050812364
-0.11153216 -0.38264447 0.72733569 -0.70445937 -0.12373177 -0.69887584 0.05627336
-0.28697944 -0.17570238 1.0477216 -0.94481814 0.25460836 -0.20613903 0.10188691
-0.14028893 -0.18805158 0.98623383 -0.21206306 0.63744855 -0.74073511 0.037205584
-0.15005578 -0.23495768 0.94320792 -0.13231374 0.94450104 -0.30068409 0.031066943
-0.056772754 -0.18865545 0.72634846 -0.38548377 0.19796415 -0.90122825 0.1223428
-0.32129145 -0.3481226 1.0522013 -0.9813109 0.14427377 0.12733452 0.059961762
-0.27849486 -0.15572824 1.0554911 -0.96392471 0.25214419 0.085279107 0.123594
-0.2573418 -0.078594416 1.0365112 -0.7026087 0.70140499 0.11988336 0.11672731
-0.20002411 -0.072916202 1.0446316 -0.35529435 0.90892881 0.21820709 0.10028248
-0.2307401 -0.24172653 0.97382027 -0.45437384 0.68835241 -0.56543386 0.061078005
-0.29457474 -0.22327007 1.036931 -0.83249235 0.29440209 -0.46934423 0.055783175
-0.29379722 -0.34741491 0.98896611 -0.8399961 0.079213515 -0.53677911 0.0057727974
-0.14966799 -0.33722427 0.79705679 -0.82028079 0.10179911 -0.56282896 0.0013905648
-0.24477299 -0.37937567 0.92056078 -0.78621072 -0.13185734 -0.60372704 0.039413515
-0.14484422 -0.21114343 0.98334551 -0.19078198 0.75141066 -0.63165194 0.043338168
-0.25771782 -0.11665594 1.0103629 -0.93406081 0.20930777 -0.28934532 0.11296044
-0.16371769 -0.35116976 0.81164289 -0.83518314 0.04053697 -0.54847598 0.007091532
-0.23549435 -0.27855843 0.92614639 -0.80416185 0.37466037 -0.46146873 0.056914285
-0.22985558 -0.2554656 0.92542738 -0.61038172 0.68801004 -0.39252558 0.062243119
-0.1882811 -0.37175345 0.84620953 -0.83058304 -0.1593979 -0.53359544 0.033259716
-0.1056039 -0.33681643 0.73693788 -0.70525473 0.1354948 -0.69588572 0.010741826
-0.10706933 -0.33137804 0.7407124 -0.71460116 0.13916324 -0.68555009 0.0094115008
-0.15687563 -0.30564502 0.8081969 -0.8140167 0.1535804 -0.56016946 0.0085907672
0.18034418 -0.071883537 0.95704484 0.1728372 0.92719501 -0.33232027 0.12316769
-0.074293181 -0.33969191 0.69791901 -0.40665179 0.071042813 -0.91081679 0.0381088
0.11751406 -0.084149234 0.85934752 0.20339032 0.95503545 -0.21573058 0.039060779
