# .PCD v0.7 - Point Cloud Data file format
VERSION 0.7
FIELDS x y z normal_x normal_y normal_z curvature
SIZE 4 4 4 4 4 4 4
TYPE F F F F F F F
COUNT 1 1 1 1 1 1 1
WIDTH 589
HEIGHT 1
VIEWPOINT 0 0 0 1 0 0 0
POINTS 589
DATA ascii
-0.23641425 -0.42738587 0.81500506 -0.97985941 0.19776031 0.027685529 0.00096108398
-0.23845725 -0.44176507 0.84515733 -0.97284997 0.22742151 0.042922594 0.00093215064
-0.1981151 -0.15656941 0.77827859 -0.38501436 0.92176557 0.045957822 0.0082439138
-0.21821211 -0.34986654 0.81975001 -0.84743327 0.52648419 -0.068345807 0.011852907
-0.22844411 -0.37858033 0.82163364 -0.96687019 0.24577017 0.068985611 0.0020484244
-0.24326216 -0.45162794 0.50043136 -0.76175815 0.31570533 -0.56573385 0.016545359
-0.23748149 -0.42679834 0.78964603 -0.98553687 0.16768301 0.024485547 0.00016583387
-0.2194542 -0.39976031 0.91296101 -0.86170423 0.18800682 0.4712953 0.015670514
-0.23775159 -0.42592955 0.78125352 -0.9843353 0.17383254 0.029431369 0.00021564208
-0.24545251 -0.45990232 0.82728964 -0.92023069 0.36337039 0.14538698 0.0039534504
-0.26081508 -0.51333529 0.89900476 0.39724845 -0.89669448 -0.1952758 0.026813315
-0.24289888 -0.36883256 0.53729278 -0.94072008 0.24465138 -0.23492868 0.012775862
-0.24654837 -0.48969933 0.48849636 -0.65089512 0.1674452 -0.74047124 0.024467133
-0.12361964 -0.14034344 0.5830639 -0.054949638 0.98944205 -0.13410832 0.0016996474
-0.20089261 -0.15860428 0.7791208 -0.39579469 0.91719937 0.045735613 0.0086572208
-0.23484179 -0.41004774 0.75490284 -0.98441094 0.17363249 0.028050853 0.00014622629
-0.24770001 -0.46330956 0.72250116 -0.94472444 0.32478702 0.044822857 0.0070516695
-0.21435536 -0.31927422 0.58505338 -0.72082549 0.60400993 0.33997449 0.027905267
-0.26882905 -0.50568265 0.85566884 -0.68602121 0.72181112 0.091452628 0.090577014
-0.2235087 -0.40536022 0.90742135 -0.88649631 0.18156396 0.42562762 0.01335223
0.019028848 -0.13814402 0.73820621 0.0016905826 0.99982762 -0.018488202 5.915458e-05
-0.23816824 -0.38435012 0.66897893 -0.97749758 0.20435685 0.052314039 0.0034792924
-0.27269506 -0.50456965 0.74651164 0.41189951 -0.90240538 -0.12650411 0.054752834
-0.2472727 -0.38876191 0.55692273 -0.97163886 0.20574301 -0.11656661 0.0049118907
-0.18435961 -0.35867354 0.49206743 -0.31997323 0.31178793 -0.8946538 0.0079936488
-0.15287423 -0.30668482 0.70888948 -0.26674977 0.9504782 -0.15948568 0.0033589536
-0.20048104 -0.27201113 0.5200237 -0.71309471 0.11356119 -0.69180906 0.16013813
-0.17940456 -0.19302794 0.87641478 -0.87414032 0.1927963 0.44576702 0.025517149
-0.24349913 -0.50962013 0.94103277 -0.69858748 0.60813206 0.37702903 0.011778414
-0.22732092 -0.49014789 0.93975049 -0.60816354 0.4691222 0.64036047 0.040472317
-0.22891423 -0.34928739 0.69740629 -0.96380609 0.26357457 0.040078457 0.0073874169
-0.27396864 -0.50301677 0.70900953 -0.79527199 0.606107 0.013290325 0.034418005
-0.23128551 -0.34956858 0.62193447 -0.8718372 0.48432446 0.073005386 0.015596265
-0.2418201 -0.42952952 0.69035721 -0.97966552 0.18264924 0.083034478 0.00044589536
-0.11324612 -0.29605803 0.70555919 -0.34912419 0.89795774 -0.26792592 0.007742736
-0.25069568 -0.48112759 0.49281093 -0.6998328 0.22372164 -0.67836773 0.028549414
-0.23369017 -0.34164038 0.5632962 -0.91236234 0.40706912 0.043471519 0.014361351
-0.18956667 -0.51417071 0.4591777 -0.19039375 0.24323821 -0.95109695 0.0020652744
-0.19367819 -0.31738389 0.62980419 -0.57024312 0.76952595 0.28749362 0.01122294
-0.13621223 -0.27724788 0.79299426 -0.68825829 0.47285098 -0.55019307 0.01289368
-0.16514347 -0.24075525 0.84043807 -0.91573811 0.16265622 -0.36737818 0.082381472
-0.24455714 -0.51036263 0.93954551 -0.69858748 0.60813206 0.37702903 0.011778414
-0.23220783 -0.35670641 0.66897833 -0.95570499 0.28808913 0.060272858 0.013170164
-0.26903707 -0.49864784 0.72088438 -0.79562354 0.60540277 0.021694377 0.029793844
-0.23820233 -0.39911187 0.67796719 -0.97988611 0.18294476 0.079714343 0.0016982916
-0.27189443 -0.51288062 0.68905681 -0.86486173 0.50175482 0.016010454 0.0067115221
-0.21779208 -0.30682939 0.5653587 -0.79794389 0.50973028 0.32165283 0.034449801
-0.22568426 -0.34912413 0.5169788 -0.75385576 0.26854128 -0.59965569 0.045737054
-0.27902251 -0.51748037 0.50661147 -0.87281078 0.10637252 -0.47632563 0.039535504
-0.21999384 -0.29231852 0.53916967 -0.9356699 0.34380654 0.079491094 0.080270767
-0.26998711 -0.51410282 0.65808368 -0.783822 0.60711026 0.13053831 0.033654489
-0.23767851 -0.4386614 0.84453517 -0.97284997 0.22742151 0.042922594 0.00093215064
-0.2566857 -0.45830163 0.53010005 -0.94873118 0.19211468 -0.25100026 0.011853782
-0.11073823 -0.26960859 0.76888609 -0.68329465 0.48798561 -0.54311919 0.046540879
-0.20982003 -0.31344545 0.583767 -0.7053622 0.61862057 0.34608194 0.025800159
-0.19776757 -0.16216078 0.66648233 -0.66762233 0.73914415 -0.089142174 0.016868271
-0.16417371 -0.31473735 0.50591052 -0.10326957 0.56486607 -0.81869519 0.028898478
-0.18817961 -0.41515693 0.47889602 -0.21535012 0.12951171 -0.96791071 0.0027801262
-0.2214601 -0.29489693 0.52523685 -0.91742784 0.39399543 -0.055620931 0.049083047
-0.25310197 -0.44155502 0.53332651 -0.94044119 0.16644411 -0.29642326 0.0095717469
-0.17099051 -0.37255719 0.48230281 -0.22853789 0.25324544 -0.94001973 0.0033187764
-0.24230802 -0.41340593 0.65803653 -0.98178846 0.16089001 0.1010235 0.00036815181
-0.22773013 -0.36792007 0.77835178 -0.96681118 0.24498898 0.072502129 0.0019318343
-0.21979296 -0.35267827 0.82646984 -0.90238422 0.42793944 -0.050700825 0.0088874521
-0.24556857 -0.44490093 0.68076819 -0.9771381 0.19497371 0.08477293 0.0005015576
-0.26585793 -0.50408942 0.86015463 -0.79430795 0.60523224 0.052620921 0.059393544
-0.00099551026 -0.13946505 0.8529377 -0.01749336 0.99481082 0.10022645 0.00039504905
-0.26789808 -0.51775491 0.51924443 -0.91678417 0.17573595 -0.35864133 0.034451008
-0.22813027 -0.34148395 0.52456069 -0.89796013 0.24070667 -0.36841264 0.029497543
0.0079742884 -0.13815516 0.8304224 -0.0072053331 0.99902779 0.043493524 0.00036515924
-0.24985532 -0.44013846 0.63445723 -0.97164774 0.20940359 0.10977613 0.0012503427
-0.23746461 -0.43319997 0.8105346 -0.97696859 0.21189074 0.025191324 0.00095921656
-0.13708045 -0.47088546 0.46326235 -0.052176699 0.22837675 -0.97217369 0.00043145742
0.0035806608 -0.300428 0.58171678 0.0015948281 0.91393834 -0.4058499 0.018168269
-0.22683373 -0.34829676 0.52015972 -0.78531021 0.31411853 -0.53349543 0.050157499
-0.27121195 -0.5079506 0.68810093 -0.87494272 0.48301139 0.034281474 0.0051817666
-0.11432727 -0.27526841 0.7667619 -0.6635859 0.60843354 -0.43527269 0.05156371
-0.20534523 -0.21963449 0.524728 -0.92131013 0.15043217 -0.35854948 0.051524416
-0.12194385 -0.24879842 0.78770953 -0.63369501 0.18464394 -0.75122386 0.021634091
-0.11626259 -0.25065723 0.78547913 -0.68088204 0.27475205 -0.67890424 0.03274633
-0.099408261 -0.28690171 0.72034264 -0.39379176 0.85958493 -0.32564074 0.014987376
-0.1439999 -0.30224282 0.7125122 -0.27403724 0.94750947 -0.16470997 0.0028013866
-0.20366724 -0.27682543 0.5192458 -0.78540176 0.11676008 -0.60787427 0.1682236
-0.21054152 -0.31498292 0.58482248 -0.72082549 0.60400993 0.33997449 0.027905267
-0.20712893 -0.42724776 0.48524126 -0.43276501 0.1982637 -0.879435 0.0039639329
-0.19018479 -0.36267653 0.49196738 -0.35632816 0.30087519 -0.88459271 0.008901977
-0.23518388 -0.34590757 0.52620989 -0.92575723 0.28660107 -0.24664424 0.020543596
-0.18166436 -0.150043 0.79754192 -0.33650818 0.92842233 0.15746184 0.0087026786
-0.24749798 -0.4287852 0.64316636 -0.97880512 0.17571031 0.10519755 0.00034754898
0.12426398 -0.13955852 0.8308264 0.033282708 0.99683684 0.072170816 0.00047910624
-0.15922132 -0.4472096 0.46972838 -0.1037125 0.17029083 -0.97992074 0.00047657493
-0.24075392 -0.45307982 0.85748023 -0.93517286 0.3319149 0.12362963 0.003139195
-0.24777511 -0.49143293 0.48888126 -0.65092999 0.16743717 -0.7404424 0.024480801
-0.1726981 -0.31494945 0.68489909 -0.35215074 0.93412638 0.058290038 0.0017487212
-0.21063755 -0.35817668 0.91324276 -0.69432056 0.23632763 0.67975599 0.0091352584
-0.18899576 -0.49896389 0.46464592 -0.19039536 0.2432504 -0.95109349 0.0020819777
-0.13763143 -0.29005364 0.78073967 -0.75787842 0.6024226 -0.2504144 0.03137669
-0.18863289 -0.51314056 0.45931464 -0.19039375 0.24323821 -0.95109695 0.0020652744
-0.21367303 -0.48174977 0.47283229 -0.38265225 0.21341725 -0.89890504 0.0022694103
-0.10912833 -0.13751267 0.71743876 -0.035677422 0.999354 0.0043279403 0.00057571498
-0.16453035 -0.16465455 0.52446586 -0.43284169 0.74326855 -0.51009804 0.051585019
-0.15209445 -0.16899304 0.5135901 -0.46741983 0.60674649 -0.64294428 0.072881885
-0.15944992 -0.16699761 0.51918 -0.44993314 0.69055289 -0.56630111 0.05883057
-0.15732658 -0.31148845 0.50775123 0.17094326 0.5465427 -0.81979847 0.017641675
-0.084927917 -0.43407717 0.46856871 -0.018701794 0.13492574 -0.9906792 0.0003767387
-0.2015494 -0.15907215 0.77597034 -0.38721532 0.92093295 0.044121545 0.0081518544
-0.25381187 -0.48586929 0.49437943 -0.72561467 0.22940381 -0.64873511 0.026770173
-0.11602759 -0.39928085 0.47291094 -0.061433733 0.1192537 -0.99096137 0.0011821064
-0.22977899 -0.37569782 0.73751599 -0.97887093 0.20316514 0.02314527 0.0036692533
-0.089905433 -0.13887709 0.61280292 0.010976696 0.99956703 -0.027298803 0.00016663554
-0.010591018 -0.30169809 0.57323968 0.13662706 0.92829293 -0.34584007 0.01773518
-0.19312017 -0.4137347 0.48075944 -0.23958239 0.14601523 -0.9598332 0.0029282086
-0.094366543 -0.31457818 0.52040565 0.19495006 0.64801866 -0.73625147 0.0034665747
-0.15953529 -0.38231269 0.47821504 -0.1673248 0.2289802 -0.95894241 0.0044797775
-0.20910127 -0.23874122 0.52894288 -0.96407199 0.062149953 -0.25826854 0.060729522
-0.10945303 -0.13816419 0.7249651 -0.035461396 0.99936593 0.0032091176 0.0005407756
-0.21505493 -0.42966485 0.48559856 -0.52126372 0.36730185 -0.77030742 0.0066450858
-0.043030977 -0.13731959 0.76224399 -0.0016922617 0.99999541 -0.0025200201 7.0973329e-05
-0.2032858 -0.16451882 0.78419888 -0.39654532 0.91637123 0.054914858 0.0091713052
-0.13242669 -0.33921501 0.49201083 -7.3630188e-05 0.49161613 -0.87081206 0.010829022
-0.19542038 -0.15645368 0.79434013 -0.37009808 0.92069429 0.12389275 0.012597164
-0.10259531 -0.27324316 0.74570161 -0.56208992 0.66974854 -0.485275 0.039197829
-0.22774419 -0.33791041 0.57611954 -0.88226193 0.45767543 0.11021413 0.015020954
-0.14651515 -0.30258715 0.51274037 0.16437176 0.54967064 -0.81905067 0.012223134
-0.13939366 -0.13945317 0.59824163 -0.10292498 0.99256706 -0.064940184 0.0026800057
-0.17279023 -0.31591344 0.69684774 -0.35519555 0.93335313 0.051846351 0.0019220581
-0.23686261 -0.34870708 0.54991418 -0.91851467 0.37429315 -0.12741829 0.012461921
-0.15187837 -0.43755621 0.4709591 -0.11197826 0.15646952 -0.98131454 0.0004310373
-0.19714803 -0.51850128 0.46043631 -0.26885712 0.17639363 -0.94689018 0.0052983458
-0.25343221 -0.44290012 0.53407472 -0.94044119 0.16644411 -0.29642326 0.0095717469
-0.17367955 -0.14812782 0.67104495 -0.45160767 0.89198208 -0.020455163 0.019082876
-0.26154491 -0.48482051 0.64499241 -0.95169026 0.30367935 0.045436099 0.0029508735
-0.1224703 -0.48108175 0.4592405 -0.10810968 0.27486178 -0.95538646 0.0041902857
-0.013943783 -0.13908541 0.68088746 0.013676933 0.99958742 -0.025256969 6.4841341e-05
-0.042811152 -0.49760321 0.45198441 -0.20508079 0.42803627 -0.88018566 0.0077558607
-0.051461626 -0.16084357 0.50472766 -0.053806055 0.87262493 -0.48541793 0.014858623
0.11162755 -0.39144677 0.45648035 0.056476537 0.36564282 -0.92904019 0.0043034996
0.00015503047 -0.30965784 0.53048158 -0.032315873 0.9572053 -0.28759965 0.0074548819
0.16221146 -0.22791049 0.49679968 0.17348701 0.11274482 -0.97836125 0.041434869
0.17853594 -0.25355113 0.49274367 0.19132006 0.044269398 -0.98052889 0.049214784
0.17651254 -0.17882779 0.50719619 0.57372862 0.38133049 -0.72486037 0.075972572
0.18390723 -0.2133632 0.50201708 0.55661106 0.22071409 -0.80091786 0.053453926
0.089167371 -0.3504104 0.4762814 -0.078161351 0.53503519 -0.84120637 0.015161857
0.12132312 -0.16297655 0.50758266 -0.008145785 0.73311961 -0.68005091 0.04695024
0.02456704 -0.43997636 0.46200633 -0.12502097 0.13581744 -0.98281401 0.0022215731
0.21948566 -0.33462736 0.54186517 0.93864095 0.33772546 -0.069962211 0.0097888289
0.20248546 -0.30901539 0.72701287 0.39069951 0.9204967 -0.0062933424 0.025757456
0.19191502 -0.19195753 0.53964567 0.91744959 0.31616127 -0.24151231 0.012944745
0.20578426 -0.30912781 0.70270461 0.24665357 0.96395391 -0.099774279 0.0044736448
0.20853803 -0.3098616 0.73353881 0.54402488 0.83906889 -0.00055141264 0.01597376
0.0067018596 -0.45489344 0.46023846 -0.050195809 0.19397983 -0.97972041 0.00089286227
0.030309742 -0.46484703 0.45720217 -0.12309448 0.24450184 -0.96180379 0.0050770207
0.18447132 -0.18511221 0.51233959 0.75981081 0.33258197 -0.55863839 0.061956961
0.22241476 -0.37645307 0.50257993 0.8308236 0.28082791 -0.48048714 0.02232595
0.11642651 -0.39256486 0.45657289 0.056490049 0.36562249 -0.92904741 0.0044056084
0.18032344 -0.23325142 0.49517623 0.31021664 0.16432151 -0.93635678 0.07303562
-0.023966162 -0.42501378 0.46635553 -0.053757623 0.12221391 -0.99104691 0.00051582645
-0.10164258 -0.31602874 0.51507694 0.17507969 0.66575962 -0.7253353 0.0065228189
-0.053147696 -0.43952084 0.4664093 -0.03821506 0.12509613 -0.99140841 0.00058414316
-0.052657329 -0.41514638 0.46883699 -0.035309002 0.10092191 -0.99426758 0.00029653977
0.16625944 -0.41930696 0.45673126 0.21989979 0.19657941 -0.95551074 0.00122068
0.22000247 -0.33635238 0.54078585 0.94336784 0.31752518 -0.096098721 0.010463189
0.2238806 -0.35398045 0.5335108 0.95374757 0.23347802 -0.18935041 0.0024356062
-0.033521261 -0.13990536 0.59442383 0.0088075027 0.99882871 -0.047575779 0.00063484383
0.054580014 -0.45189115 0.45445019 -0.17848456 0.18436114 -0.96651649 0.0039259633
0.16783103 -0.34813038 0.47107634 0.15828182 0.37961274 -0.91150486 0.0094389478
0.16184831 -0.17117909 0.50343394 0.34354696 0.4188973 -0.84053594 0.06115314
0.097523496 -0.35021535 0.474769 -0.10218459 0.48813063 -0.866768 0.014630446
0.19742411 -0.36689267 0.47498971 0.53929222 0.21927218 -0.81307048 0.016269565
0.17973801 -0.24149854 0.4946906 0.25747386 0.12648584 -0.95797104 0.077518828
-0.024839893 -0.48320588 0.45563966 -0.21483229 0.36422497 -0.90619379 0.030446034
0.11087342 -0.38378027 0.45814279 -0.01776862 0.363006 -0.93161738 0.0064022304
0.17360841 -0.37543365 0.46680731 0.27976421 0.22351268 -0.93368846 0.01104119
0.098977149 -0.34433776 0.48123688 -0.12282231 0.60511172 -0.78660947 0.011775279
0.21457992 -0.3852722 0.48536873 0.62667692 0.18733369 -0.75642717 0.035398744
0.18766415 -0.16436237 0.55302984 0.70834875 0.68758911 -0.15957214 0.027023898
-0.097262666 -0.24336168 0.56512892 0.70311946 0.17404543 -0.68944275 0.0046549183
-0.021031342 -0.15651052 0.50874215 -0.11092637 0.90567523 -0.4092038 0.010116349
0.099756807 -0.34993556 0.47481117 -0.10218459 0.48813063 -0.866768 0.014630446
0.14844303 -0.26505557 0.78056705 0.39028612 0.59457558 -0.70296276 0.036534104
0.24101727 -0.41429386 0.63008952 0.98835319 0.14393225 -0.049411893 0.00070622639
0.12346595 -0.21142821 0.74082953 0.94489038 0.03606848 -0.32539394 0.00088622468
0.21547839 -0.38936156 0.48617667 0.6513015 0.180254 -0.73709893 0.035785932
0.00054104754 -0.34545243 0.48737642 -0.15577605 0.5638876 -0.81102681 0.014921308
-0.0047075651 -0.32120988 0.51012027 -0.13497967 0.87175083 -0.47098926 0.030200772
0.15842763 -0.24526937 0.80285913 0.59540099 0.38533786 -0.7049911 0.055230565
0.20666899 -0.16354218 0.65724647 0.50135028 0.86140543 -0.081416316 0.004210745
0.019168833 -0.50778884 0.43912596 -0.17585979 0.60569966 -0.77601624 0.04080217
0.00096599763 -0.50664115 0.43838748 -0.13053605 0.52749938 -0.83946693 0.024380809
0.15279505 -0.23485808 0.79099286 0.59890074 0.39439884 -0.69697016 0.052103031
0.23831229 -0.42974317 0.53852469 0.98947477 0.12609151 -0.070996784 0.00036161058
0.1843541 -0.16045959 0.55097139 0.69839114 0.7013222 -0.14281811 0.030479422
0.23716593 -0.41949928 0.53957772 0.98754936 0.13364477 -0.082977712 0.00072410476
0.18589672 -0.24955204 0.49911293 0.45027474 0.098772049 -0.8874101 0.077661686
0.18714207 -0.25877467 0.49825743 0.44760603 0.042348228 -0.89322752 0.069516167
0.19193991 -0.25370157 0.50461674 0.57252944 0.11305346 -0.81205231 0.070662007
0.1905859 -0.23889218 0.50592571 0.45755869 0.11838397 -0.88126343 0.099293791
0.15661857 -0.16786665 0.5077731 0.253923 0.45701325 -0.85244471 0.062368453
0.17027865 -0.21284527 0.49261698 0.25062671 0.16630524 -0.9536922 0.031978719
0.21546184 -0.33697617 0.50629479 0.90574938 0.17452118 -0.38621297 0.020775784
0.22957195 -0.34902757 0.5858497 0.96827191 0.24081506 -0.066765346 0.00096545077
0.14704469 -0.13891511 0.80146879 0.064040631 0.99723148 0.037790857 0.0011371211
0.14176169 -0.29364207 0.74894708 0.30217287 0.79059994 -0.53258169 0.052317917
0.19120723 -0.2739526 0.49689874 0.38429898 -0.11199924 -0.91638988 0.089810565
0.19114919 -0.29165632 0.80097485 0.61771452 0.75496161 -0.2201402 0.012614757
0.013163282 -0.15849318 0.5073458 0.016319221 0.93163812 -0.36302099 0.0034716239
0.063945837 -0.43444058 0.45684022 -0.19694477 0.14975083 -0.96891052 0.0031357235
0.20111553 -0.29963583 0.50276428 0.9338519 0.30242991 -0.19093664 0.010836464
0.15631449 -0.40359768 0.45587504 0.12772314 0.23803313 -0.96282238 0.0019695794
0.20116659 -0.166168 0.60059005 0.59356588 0.79458117 -0.12775116 0.019137595
0.12242763 -0.25201795 0.77599484 0.50722122 0.4616223 -0.72775787 0.047239855
0.23556608 -0.44697601 0.49958506 0.91532236 0.2388334 -0.3242586 0.0040705809
0.14309968 -0.26125306 0.78626662 0.39135438 0.57033151 -0.72219366 0.039563257
0.19670257 -0.30776137 0.7009061 0.24686664 0.96377397 -0.10097849 0.0050441953
0.19324864 -0.30488291 0.59139127 0.53809518 0.79248327 0.28709567 0.022168316
0.20634934 -0.29313052 0.50211143 0.93161893 0.29046386 -0.21844192 0.011429407
0.094592042 -0.51100284 0.42790452 -0.037471406 0.13214304 -0.99052215 0.14026901
0.15102474 -0.23388439 0.79607528 0.59917819 0.39448807 -0.69668114 0.052223682
0.17430468 -0.37851003 0.46651918 0.29329127 0.20744337 -0.93324572 0.0092764497
0.13301295 -0.25798395 0.78357613 0.47662452 0.49058551 -0.72948951 0.043845069
0.13349925 -0.16135289 0.51050848 -0.041179411 0.68249029 -0.72973359 0.038491081
-0.010097703 -0.13845591 0.71154839 0.0072978702 0.99962807 -0.02627803 6.3289757e-05
0.13405652 -0.26457965 0.76278692 0.32793728 0.60231316 -0.72778827 0.043339018
0.11968306 -0.27531865 0.7418614 0.49034518 0.70508444 -0.51226705 0.05055508
0.20119628 -0.22394712 0.53551048 0.97280979 0.10560779 -0.20612666 0.01129562
0.18450773 -0.43447405 0.45618105 0.35134733 0.23760241 -0.90559381 0.0037089956
0.23672336 -0.38538024 0.61254162 0.98774403 0.15170223 -0.036718149 0.00060260005
0.21776032 -0.37689689 0.49194586 0.82016188 0.25750658 -0.51090586 0.020747287
0.059749108 -0.46458501 0.45046386 -0.18443789 0.2909103 -0.93880451 0.0057073846
0.24217562 -0.4147346 0.65716857 0.98780119 0.14841318 -0.047140568 0.0006484171
0.20490184 -0.15610865 0.71625113 0.30615377 0.94810367 -0.08584471 0.0023974958
0.18931969 -0.21890593 0.50887245 0.69408983 0.1611702 -0.70161492 0.045234911
0.018634306 -0.30851126 0.53383756 -0.0284344 0.96214819 -0.27103922 0.0060630697
-0.055161808 -0.29864192 0.55168647 0.26511616 0.8628003 -0.43045208 0.028109042
0.13000678 -0.27092382 0.76080745 0.35775012 0.63597733 -0.68377459 0.058569781
0.21097943 -0.1661482 0.66115624 0.50135028 0.86140543 -0.081416316 0.004210745
0.11362335 -0.28171673 0.75592977 0.49355066 0.68452018 -0.53650713 0.051603761
0.22455505 -0.33204928 0.62215465 0.60476613 0.74046844 -0.29319707 0.033938505
0.18485394 -0.17891549 0.5282324 0.85733163 0.40819666 -0.31362087 0.026582558
0.20173262 -0.15671217 0.67943507 0.41626462 0.90840429 -0.03905553 0.0060632462
0.11058624 -0.27858829 0.76237184 0.43522289 0.56906354 -0.69767308 0.079271816
0.11834282 -0.29866374 0.71131349 0.34363967 0.90239084 -0.26000503 0.023517786
0.13511327 -0.26477629 0.76663154 0.34337455 0.60508525 -0.7183075 0.041616086
0.20371847 -0.15777865 0.67897528 0.41626462 0.90840429 -0.03905553 0.0060632462
0.09071175 -0.17621593 0.50771141 0.095556036 0.85266346 -0.51364785 0.018388856
0.15677097 -0.29934847 0.63070977 0.46397704 0.85265356 0.24022315 0.011222918
0.25464302 -0.46860555 0.66567534 0.96240288 0.26221126 -0.070893444 0.00042141194
0.20012428 -0.30853081 0.72593439 0.3926906 0.91963184 0.0084520057 0.025180852
0.2220014 -0.39482883 0.49315858 0.85563791 0.19563179 -0.47917849 0.018620558
0.24831025 -0.45724937 0.62696218 0.97448528 0.21678466 -0.058162611 0.00064660551
-0.046916943 -0.1397354 0.58671391 0.013400231 0.99858731 -0.051418148 0.00066759845
-0.03046312 -0.30820584 0.53322899 0.11390912 0.93600976 -0.33303225 0.011235268
-0.043313172 -0.1388147 0.82859129 -0.016381228 0.99808019 0.059729423 0.001885166
0.26448566 -0.51908892 0.60675609 0.96816468 0.24660304 -0.042942669 0.0010047187
0.17056586 -0.25547215 0.48826629 0.17674775 0.08457204 -0.98061597 0.056123052
0.26974282 -0.51613402 0.68739843 0.93885618 0.34071043 -0.049653832 0.00015301543
0.16251437 -0.15496205 0.52086145 0.41376141 0.82197231 -0.39136037 0.0671895
-0.055428851 -0.14236757 0.56685883 -0.019171797 0.98999202 -0.13981491 0.0011540636
0.23812857 -0.4247829 0.53948307 0.98947477 0.12609151 -0.070996784 0.00036161058
0.24552117 -0.44283223 0.63407141 0.97648275 0.20757836 -0.058245808 0.00058587402
0.12139568 -0.295674 0.71186489 0.34363967 0.90239084 -0.26000503 0.023517786
0.24344303 -0.42905629 0.65424222 0.98204631 0.1820628 -0.049378112 0.0011045227
0.24805638 -0.43732733 0.70670432 0.98438048 0.15663742 -0.080372438 0.00029326294
0.26952252 -0.51355809 0.68755168 0.93885618 0.34071043 -0.049653832 0.00015301543
0.19987811 -0.29859883 0.794348 0.70188588 0.67986333 -0.2124664 0.012627272
0.18912807 -0.1890509 0.5235796 0.84733945 0.33327982 -0.41344962 0.037753861
0.17060636 -0.16076896 0.51219094 0.55163401 0.62497157 -0.55236816 0.090448759
-0.041290708 -0.13741927 0.82501429 -0.016671006 0.99854863 0.051211864 0.0017279165
-0.044826929 -0.13769236 0.74865359 -0.0012746755 0.99998522 -0.0052810865 6.3161926e-05
0.050933015 -0.50503296 0.43494433 -0.14585558 0.54011947 -0.82885283 0.040811185
0.20296536 -0.24092658 0.53954881 0.98377389 0.077423126 -0.16184747 0.018239042
0.24166091 -0.42409849 0.61979336 0.98758113 0.1495944 -0.048010863 0.00065704848
0.14663261 -0.43294334 0.44740957 0.17409785 0.21960188 -0.9599297 0.0041942364
0.24366872 -0.44057411 0.61798531 0.97785217 0.20283209 -0.051616419 0.00055318937
0.2536031 -0.48606741 0.58071655 0.96604717 0.25203839 -0.056829043 0.00010650631
0.15785982 -0.2144753 0.49840412 0.15708606 0.16996054 -0.97285014 0.02653987
0.24265696 -0.44122452 0.5992496 0.97636753 0.20964313 -0.052499522 0.00061545771
0.24314539 -0.43269461 0.62638921 0.98672438 0.15479742 -0.049119022 0.00064661819
0.24631329 -0.42184958 0.71097225 0.9865877 0.14310884 -0.078514419 0.00029463344
0.21730503 -0.38343257 0.48863792 0.70148337 0.21286689 -0.68015349 0.027449785
0.087917373 -0.1646942 0.50100076 0.095556036 0.85266346 -0.51364785 0.018388856
-0.095913 -0.26711768 0.5555703 0.47981781 0.31552237 -0.81866997 0.036421437
-0.0329112 -0.16361988 0.49902067 -0.057348255 0.87752992 -0.47608024 0.012799436
-0.016018219 -0.36350784 0.48080611 0.031322405 0.49670485 -0.86735421 0.0085382825
-0.14145572 -0.28314725 0.53142893 0.21628876 0.52376008 -0.82395053 0.015039077
0.11566236 -0.40120137 0.45298618 0.034951132 0.2356814 -0.97120166 0.0020433823
-0.040307555 -0.14614773 0.54285181 -0.023223964 0.96837717 -0.24840753 0.0039398824
0.23816054 -0.45095053 0.50346941 0.90850955 0.26032919 -0.32686242 0.0029617469
-0.11239862 -0.22652717 0.54737347 0.77950448 0.18728228 -0.59774417 0.0083094165
0.024160739 -0.38753438 0.46721908 -0.13734959 0.19926652 -0.97027212 0.0070809084
-0.052949063 -0.31390736 0.53321904 0.038482092 0.87535942 -0.48193881 0.006396757
-0.0034739245 -0.30351609 0.55955631 0.054903541 0.95076549 -0.30500916 0.010286175
-0.032955073 -0.41196314 0.46864557 -0.035621617 0.16521594 -0.985614 0.0019150508
0.083113804 -0.33947867 0.48012295 -0.12174412 0.67407751 -0.72855872 0.012110679
0.25477082 -0.45396253 0.75182736 0.97668236 0.20137651 -0.074424319 0.0007259089
0.050748192 -0.45516786 0.45592412 -0.16993591 0.18745622 -0.96746159 0.0038462556
0.025213085 -0.44550774 0.46134987 -0.1264555 0.13852213 -0.9822529 0.0023362597
0.014697183 -0.31684741 0.50637567 -0.045465823 0.89276552 -0.44822159 0.03385156
0.20409855 -0.15837647 0.68184018 0.41623122 0.90809393 -0.04601112 0.0058573554
0.20380965 -0.15776397 0.67697275 0.41626462 0.90840429 -0.03905553 0.0060632462
0.14313257 -0.29091108 0.74639362 0.37222815 0.78736454 -0.49142992 0.049958616
0.21150494 -0.15363412 0.73390782 0.31941816 0.94480503 -0.072907299 0.0031645072
0.12018778 -0.2749868 0.74298811 0.48419178 0.70651329 -0.51613683 0.04865947
0.13446432 -0.26455954 0.76350343 0.34337455 0.60508525 -0.7183075 0.041616086
0.12413619 -0.29815909 0.6960457 0.25735074 0.95379138 -0.15508935 0.032920983
0.20420824 -0.3091287 0.72390115 0.38882548 0.92124486 0.011072785 0.028134294
0.20100057 -0.30869111 0.72196954 0.37612197 0.92649066 -0.012141299 0.029547781
0.12779218 -0.29887548 0.70023525 0.28335547 0.92363107 -0.25809932 0.032217108
0.14780009 -0.2864331 0.76347804 0.36708474 0.63255209 -0.68200195 0.053391919
0.13573107 -0.25025451 0.76869917 0.72287524 0.24774738 -0.64503688 0.064354517
0.14837351 -0.26524284 0.77856588 0.39028612 0.59457558 -0.70296276 0.036534104
0.15021116 -0.23491688 0.79551983 0.59917819 0.39448807 -0.69668114 0.052223682
0.14255448 -0.23901333 0.79617149 0.59895796 0.39105508 -0.69880271 0.047289412
0.14646037 -0.26105765 0.77827513 0.39033172 0.59458452 -0.70292979 0.03656913
0.12560274 -0.2607294 0.74927086 0.49059737 0.65651608 -0.57297546 0.068676978
0.12266716 -0.27972266 0.74850661 0.49417669 0.68917006 -0.52993774 0.048282199
0.24398959 -0.4385612 0.6297043 0.97973299 0.19094889 -0.060512882 0.00077899994
0.24253471 -0.44243944 0.58579552 0.97571629 0.21479377 -0.042910151 0.00039420117
0.19051169 -0.29366687 0.794231 0.6002112 0.76700139 -0.22683753 0.012910914
0.20732866 -0.28721938 0.82872945 0.65459818 0.62847435 -0.42014426 0.021637868
0.1669206 -0.24385273 0.80350399 0.55263162 0.34577206 -0.75831395 0.037034374
0.2098332 -0.30911145 0.77512926 0.70091301 0.70767844 -0.08895009 0.010379668
0.2219729 -0.30751032 0.79824519 0.68644208 0.68359649 -0.24797797 0.01756867
0.2643033 -0.48372963 0.78768873 0.95050025 0.30207673 -0.072793379 0.0025500644
0.2288329 -0.32589674 0.81108809 0.84796959 0.5116303 -0.13849884 0.020209497
0.25826213 -0.46822849 0.7454657 0.96237874 0.26822102 -0.043413952 0.00077530334
0.26506895 -0.48615447 0.79975331 0.94531983 0.31230545 -0.093998067 0.0024149129
0.24867448 -0.41236505 0.7505818 0.98738426 0.13864174 -0.076490745 0.00022951278
0.26634058 -0.49155027 0.78175557 0.9385432 0.34222069 -0.044964321 0.002763835
0.25108927 -0.4313992 0.75912708 0.98345727 0.16883019 -0.065636955 0.00054563116
0.18819875 -0.16510032 0.55470043 0.70835644 0.68830502 -0.15642039 0.027264724
0.20198008 -0.16656844 0.59894854 0.62784225 0.7627703 -0.15490516 0.01737237
0.11094821 -0.28098366 0.71121645 0.53028208 0.78877169 -0.31086996 0.043073755
0.15961382 -0.30080211 0.62899238 0.46397704 0.85265356 0.24022315 0.011222918
0.21847795 -0.33202639 0.53918171 0.95113802 0.29865244 -0.078378901 0.013374219
0.25425503 -0.46737185 0.66526347 0.9637326 0.25674811 -0.072800763 0.0005280042
0.24259457 -0.42313936 0.64769113 0.98386592 0.17247665 -0.047535069 0.0010521776
0.20392115 -0.16977498 0.83080554 0.87344193 0.48054522 0.078584477 0.08040759
0.20396367 -0.30294195 0.5716083 0.92069328 0.31833774 0.22579868 0.0094863465
0.23729473 -0.42250162 0.53735346 0.98628199 0.14283626 -0.082738467 0.00076918141
0.19792464 -0.21740715 0.53638649 0.97466892 0.12051842 -0.18840349 0.010207224
0.19856113 -0.19335623 0.8278299 0.96670181 0.22506014 -0.1218011 0.026719304
0.16252576 -0.24272864 0.79602385 0.59917819 0.39448807 -0.69668114 0.052223682
0.24786489 -0.36924496 0.80792326 0.93164909 0.35879901 -0.057386775 0.0017366111
0.10519433 -0.139532 0.72117007 0.018351875 0.99970496 -0.015912019 0.0003827881
0.22426474 -0.33104345 0.62018812 0.69087088 0.68102646 -0.24269384 0.033366639
0.2529439 -0.48392117 0.57527536 0.96651107 0.25055334 -0.055493541 0.00011230355
0.10786375 -0.13886251 0.74455559 0.021331105 0.99968141 -0.013490889 0.00024878222
0.19949076 -0.15569268 0.69465047 0.32582608 0.94211423 -0.079107828 0.004866417
0.24166898 -0.43520963 0.59488559 0.97797906 0.20174126 -0.053454217 0.00063451123
0.20711343 -0.16091377 0.66787404 0.47364044 0.87903422 -0.054438595 0.0037592065
0.20771791 -0.16641957 0.65352094 0.50128037 0.86037916 -0.092009157 0.0045001665
0.1348654 -0.27301583 0.75797129 0.35797897 0.63679838 -0.68289006 0.06637349
0.13490933 -0.26326069 0.76385164 0.3434135 0.60515207 -0.71823263 0.041658089
0.18341139 -0.30711016 0.68846375 0.2437432 0.96385461 -0.10758022 0.004602279
0.13122845 -0.24737763 0.76350105 0.73375618 0.2438378 -0.63414913 0.068948939
0.24571837 -0.41799781 0.70586109 0.98962569 0.12336429 -0.073636785 0.0003756285
0.26180744 -0.51218951 0.60335714 0.96816468 0.24660304 -0.042942669 0.0010047187
0.26916277 -0.50830472 0.73060787 0.94489491 0.32201234 -0.0590051 0.00042405279
0.249247 -0.37902778 0.80868989 0.97404462 0.21142992 -0.080836177 0.0038452938
0.2186697 -0.15832949 0.73793817 0.34334973 0.93423688 -0.096500546 0.0035630516
0.2018349 -0.28854361 0.8242355 0.64253569 0.65910596 -0.39080322 0.025510423
0.19137621 -0.19367327 0.8268379 0.97096276 0.21267131 -0.10955469 0.029692532
0.21970068 -0.2274951 0.85631472 0.99438834 0.10220411 0.027314419 0.07410375
0.2142192 -0.19695711 0.85517681 0.96797973 0.24492039 -0.055039216 0.018841542
0.19798973 -0.17524332 0.8124153 0.76085997 0.64784789 -0.037218034 0.08336436
0.25957447 -0.4513548 0.82401431 0.97905558 0.19610967 -0.054690536 0.00037191203
0.26750958 -0.49378103 0.77818221 0.94349104 0.32859263 -0.043029547 0.0021695422
0.24959764 -0.40032378 0.88824636 0.90251881 0.1872618 0.38780522 0.015527171
0.26811957 -0.51050884 0.68306124 0.95772415 0.28199089 -0.05697117 0.00056731427
0.25220081 -0.38258407 0.85016614 0.98976827 0.14183532 0.015542577 0.0019314807
0.27833551 -0.50984424 0.80296946 0.90937179 0.40386581 -0.099675864 0.0023941547
0.25050995 -0.37738585 0.86234111 0.97446078 0.14761586 0.16922107 0.017327296
0.14185819 -0.24994332 0.78890228 0.62605846 0.40602803 -0.66572672 0.037423607
0.22127013 -0.31577972 0.70169693 0.46639001 0.88423699 0.024602698 0.022391649
0.21942618 -0.22387558 0.84985489 0.95626432 0.24314605 -0.16259959 0.026603332
0.24960239 -0.48409724 0.9037168 0.33391663 -0.62809318 -0.70285034 0.00057533832
0.15846302 -0.29214007 0.75056928 0.3838805 0.77710426 -0.49874318 0.041243795
0.22389279 -0.32766432 0.63020194 0.61854476 0.74021077 -0.26361048 0.023309797
0.24890266 -0.38547224 0.79642963 0.98657596 0.12861279 -0.10063145 0.00011350809
0.25731686 -0.43694776 0.88015282 0.98358995 0.14944191 0.10108375 0.0019259865
0.022069326 -0.13766868 0.76897728 0.00058453047 0.99998021 -0.0062572933 6.3606334e-05
0.23634322 -0.32342941 0.87772787 0.8349517 0.1738026 0.52215743 0.032684121
0.25275865 -0.48076168 0.59805971 0.96647704 0.25153992 -0.051476125 9.9377699e-05
0.11358866 -0.22851412 0.70999473 nan nan nan nan
0.12824187 -0.28870437 0.6401915 0.48644635 0.87234437 0.048839305 0.0045750905
0.10844717 -0.29425174 0.6883086 0.81285977 0.58233017 0.012270174 0.02888296
0.20307025 -0.2187425 0.8372255 0.95181137 0.092439525 -0.29242104 0.019262942
0.20142087 -0.15935172 0.65746683 0.4993268 0.86293101 -0.077606767 0.0039022693
0.22869125 -0.34720552 0.6162805 0.97557908 0.20287554 -0.084183589 0.0068434714
0.22761089 -0.29091045 0.87723219 0.90199554 0.32700232 0.28191039 0.056920867
0.20653154 -0.15985358 0.70546567 0.33172414 0.93868929 -0.093922727 0.0025209468
0.21429387 -0.22289263 0.84583849 0.95437473 0.25835299 -0.14974168 0.028165985
0.21882631 -0.22801694 0.86098963 0.99151379 0.071932532 0.10828691 0.075694196
0.25897342 -0.44218698 0.87128937 0.98727566 0.15775052 0.02003829 0.0012556578
0.23468229 -0.32532272 0.65392029 0.95625108 0.28364652 -0.071613915 0.006096439
0.26366436 -0.46328163 0.8404566 0.96417683 0.25967512 -0.054146018 0.0024635044
0.25098971 -0.39004907 0.88009953 0.9059509 0.15658462 0.39336276 0.0165998
0.24528565 -0.43114373 0.68260336 0.98229277 0.17927459 -0.05441954 0.0013001087
0.25415072 -0.45065591 0.76575369 0.97726405 0.19885615 -0.073561035 0.0008013653
0.24485688 -0.40491179 0.71806991 0.9889791 0.12607719 -0.077619627 7.9581689e-05
0.25435823 -0.43924958 0.78697532 0.98126644 0.18032251 -0.067822635 0.00047280284
0.24114567 -0.41905391 0.6150949 0.98838598 0.14446765 -0.047142074 0.00054111582
0.24279371 -0.43479654 0.61279941 0.98365796 0.17238376 -0.051971402 0.00079210964
0.25387421 -0.40060756 0.85356402 0.98596668 0.15976036 0.048439026 0.001738184
0.23224649 -0.3492457 0.63317209 0.97659689 0.20336638 -0.070003919 0.0047306777
0.25554726 -0.45755911 0.7483086 0.97623324 0.20332567 -0.075015672 0.00073851598
0.2458217 -0.35462156 0.88167864 0.86591709 0.17939778 0.46690887 0.019372931
0.24568798 -0.35058355 0.8552857 0.97340292 0.22884874 0.010724384 0.0017732601
0.094148234 -0.23629761 0.66311997 nan nan nan nan
0.20477132 -0.28367829 0.5267731 0.95044285 0.30253589 -0.071626946 0.018820761
0.21941343 -0.33338469 0.53775448 0.95395297 0.28853562 -0.081981651 0.012493629
0.20535415 -0.28630406 0.53080779 0.95959312 0.27965903 -0.031177057 0.013262223
0.23398905 -0.31121123 0.87949377 0.90717405 0.29244009 0.30251274 0.035547636
0.22183289 -0.34458351 0.52993059 0.95138574 0.25679389 -0.17006469 0.0038233483
0.22826622 -0.31603494 0.82090569 0.76603168 0.61875439 -0.17417946 0.018116543
0.24306618 -0.36685997 0.7702148 0.94412559 0.32304537 -0.065334804 0.005728309
0.21053216 -0.16229007 0.68347633 0.49313548 0.86825889 -0.054257087 0.0037864172
0.23626707 -0.41580257 0.53749478 0.98702705 0.13480225 -0.087212563 0.00080162211
0.2104051 -0.29755014 0.82626414 0.65587169 0.64166725 -0.39761215 0.022758612
0.093908608 -0.13798481 0.79015309 0.013924167 0.99985301 0.010012559 0.00046270512
0.20925416 -0.3046619 0.54886067 0.93589544 0.33678329 0.10332844 0.011274198
0.26484978 -0.47070256 0.84769386 0.96674097 0.2548781 -0.021189664 0.002850665
0.12042283 -0.13859871 0.75101966 0.024948461 0.99954146 -0.017154956 0.00031498721
-0.032201309 -0.13789755 0.81254178 -0.015484827 0.99940747 0.030739186 0.0016201341
0.2446848 -0.38440162 0.89321482 0.88255364 0.12287418 0.45387325 0.026473543
0.26214603 -0.45287356 0.864564 0.98498553 0.17253384 0.0059732818 0.0014988446
0.23832937 -0.3339341 0.88882911 0.8011083 0.19272208 0.56664246 0.032953139
0.20630917 -0.22272037 0.84045595 0.95968384 0.1746504 -0.2202367 0.027829168
0.18525465 -0.16153781 0.54827029 0.72487009 0.67397135 -0.14256945 0.029598042
0.22806029 -0.32339776 0.67454034 0.33058149 0.92253619 -0.19910482 0.013883475
0.16199932 -0.30088288 0.63196301 0.46397704 0.85265356 0.24022315 0.011222918
0.2620014 -0.50913489 0.52862322 0.86488342 0.50197077 0.0013758952 0.0031055894
0.24325539 -0.42159161 0.66170353 0.98230499 0.18055099 -0.049780469 0.00092204049
0.1978182 -0.2819173 0.81700277 0.61701077 0.67355281 -0.40696979 0.023553034
0.26276129 -0.51067656 0.61947626 0.96710813 0.25220141 -0.033110667 0.0015199125
0.260039 -0.45540527 0.88252473 0.98411417 0.0019967579 0.17752557 0.0055650291
0.23773278 -0.42551976 0.53630054 0.98881787 0.12833591 -0.075954318 0.00042998456
0.24598603 -0.40960324 0.72099108 0.98899937 0.12603946 -0.07742323 5.4885437e-05
0.19257188 -0.16916041 0.57992315 0.62325257 0.74573392 -0.23545082 0.030411875
0.24748176 -0.45283309 0.62349629 0.97463721 0.21599133 -0.058567021 0.00057061668
0.24492027 -0.43543226 0.66721135 0.98083907 0.18812722 -0.050625019 0.0007853253
0.14745288 -0.28378198 0.76444614 0.36708474 0.63255209 -0.68200195 0.053391919
0.22522384 -0.32615098 0.77433234 0.80490172 0.58236033 -0.11397199 0.016766414
0.25886115 -0.43234226 0.86254275 0.98749197 0.15639681 0.019991603 0.0010713553
0.25110981 -0.42414731 0.77081186 0.98791236 0.13565923 -0.075005263 0.00037631785
0.25026327 -0.4174729 0.76741272 0.98810476 0.13425876 -0.07499022 0.00034900985
0.15031363 -0.138469 0.79547191 0.068117864 0.99739909 0.02356028 0.0014789157
0.24641354 -0.43661976 0.68921494 0.97904599 0.19442737 -0.060555652 0.00097054598
0.24891387 -0.4331798 0.72772133 0.98350203 0.16395028 -0.07644587 0.00041597217
0.24956019 -0.43558711 0.73282647 0.98262292 0.16989067 -0.074761234 0.00056920748
0.2469435 -0.43296793 0.70139641 0.98637545 0.144963 -0.077776842 0.00030893559
0.25785577 -0.47075695 0.73765808 0.9619782 0.26806131 -0.052354306 0.0007655634
0.24094699 -0.39320147 0.66348994 0.9935984 0.098697811 -0.054964736 0.00011938751
0.24898086 -0.44111544 0.71180737 0.98138016 0.17487578 -0.079444133 0.00050225307
0.22793056 -0.34422866 0.6123234 0.97092277 0.21868254 -0.09740115 0.0077387788
0.12019379 -0.29546443 0.71196318 0.34363967 0.90239084 -0.26000503 0.023517786
0.24885838 -0.45142716 0.64764929 0.97680169 0.20724775 -0.053915713 0.00070694578
0.2506237 -0.40337095 0.88809305 0.90251881 0.1872618 0.38780522 0.015527171
0.24190542 -0.42596051 0.61853266 0.98758113 0.1495944 -0.048010863 0.00065704848
0.20773812 -0.30706105 0.76598525 0.69944614 0.71149033 -0.067502603 0.0066124941
0.23283215 -0.33591011 0.79672503 0.89246762 0.43457526 -0.12102035 0.0089005325
0.25256711 -0.40156144 0.88049585 0.92054611 0.19332841 0.33943912 0.011873733
0.27396199 -0.50821 0.7614975 0.93317312 0.35463741 -0.058483437 0.0016036852
0.19359592 -0.25096762 0.56026882 0.98422116 0.059373949 0.16668394 0.0094969207
0.14441127 -0.27573359 0.59263384 0.47130036 0.80910158 0.35104215 0.0059269858
0.19379596 -0.19016288 0.53772521 0.90727466 0.33443704 -0.25496006 0.012888132
0.20815162 -0.29735485 0.50095147 0.9338519 0.30242991 -0.19093664 0.010836464
0.22193612 -0.36881587 0.5037179 0.85392237 0.26335126 -0.44884592 0.020567484
0.20902158 -0.16237804 0.78951979 0.52175516 0.8468976 0.10264562 0.029155767
0.19341111 -0.30248055 0.76614565 0.46270394 0.87758189 -0.12551941 0.017827906
0.21301188 -0.31104395 0.72697514 0.4983848 0.86679488 -0.016706526 0.020196892
0.21479635 -0.3312304 0.504848 0.91921413 0.17139255 -0.35449949 0.016077662
0.19305885 -0.19157502 0.52771807 0.86817986 0.35275286 -0.34904045 0.022399386
0.1869991 -0.17843288 0.52278757 0.85669845 0.38408387 -0.34430683 0.025267342
0.18555051 -0.16646427 0.53406805 0.78474945 0.57628787 -0.22816795 0.037375942
0.23215885 -0.39895016 0.51442003 0.95088917 0.14326696 -0.27437994 0.0039960537
0.20892642 -0.25822064 0.88841492 0.84170008 0.10427348 0.52978104 0.057480857
0.18581758 -0.16510341 0.52635974 0.80478936 0.53568858 -0.25564027 0.03462334
0.20055471 -0.17359743 0.81920195 0.89441693 0.4462781 0.029227925 0.084786266
0.26559868 -0.5058586 0.67272431 0.96449381 0.24174711 -0.10634799 0.0011038169
0.24388437 -0.42006218 0.67723781 0.98472053 0.16561687 -0.053819098 0.0010411707
0.24344586 -0.4216435 0.66823518 0.98233342 0.18110608 -0.047133446 0.00094788772
0.19194876 -0.18902647 0.53668547 0.8790651 0.37080887 -0.29957527 0.018338161
0.20799561 -0.16362025 0.66531783 0.49819997 0.86384559 -0.074616775 0.0035512147
0.17211685 -0.15489657 0.52807909 0.56974691 0.76638305 -0.29672468 0.06518656
0.20589064 -0.28924754 0.52343744 0.95152175 0.29915959 -0.071483709 0.013704458
0.19650966 -0.36209291 0.47589329 0.53919286 0.21933953 -0.81311822 0.016208403
0.22222818 -0.37165877 0.50239718 0.84205377 0.24094693 -0.48258671 0.02142865
0.20421138 -0.28914326 0.49807212 0.86456305 0.30445585 -0.39979678 0.023998326
0.21825863 -0.38311186 0.48542356 0.67522353 0.19940898 -0.71014738 0.034145489
0.22076854 -0.3873159 0.49200663 0.77730829 0.24305797 -0.5802713 0.017996168
0.21810679 -0.37264651 0.49160799 0.80267048 0.24795918 -0.54243553 0.029267428
0.20298685 -0.29610264 0.49765339 0.91394246 0.29995757 -0.27337646 0.0094663268
0.19549127 -0.27004638 0.49814469 0.48017716 -0.051658455 -0.87564909 0.08379636
0.23168615 -0.35455209 0.62588322 0.97493988 0.20046756 -0.096462153 0.0058587715
0.17819373 -0.17198294 0.51039737 0.67091358 0.42982218 -0.60425818 0.069308311
0.18489151 -0.18398656 0.51244968 0.75981081 0.33258197 -0.55863839 0.061956961
0.19220068 -0.24870315 0.50468868 0.55554515 0.10191633 -0.82521671 0.075003445
0.17657323 -0.15362048 0.53351015 0.65915996 0.7291435 -0.18400541 0.049845971
0.24054632 -0.37076899 0.72633195 0.98416895 0.15653706 -0.083112277 0.0014411006
0.2136827 -0.33088711 0.5037756 0.91068298 0.16814469 -0.37733793 0.018271741
0.18646848 -0.1680894 0.52964532 0.81223267 0.52045596 -0.26344568 0.0346894
0.2606411 -0.50721222 0.60970229 0.96729231 0.25017822 -0.041910563 0.00085836742
0.19717157 -0.30030867 0.56668824 0.93360525 0.29904926 0.19735925 0.0091947606
0.20779304 -0.17632775 0.83969647 0.92794323 0.35410649 -0.11631802 0.054107219
0.13051143 -0.28786266 0.74330938 0.38536596 0.79002708 -0.4768126 0.045920689
0.18309446 -0.17605732 0.51331246 0.71581012 0.39681098 -0.57459289 0.066375598
0.19763093 -0.15547752 0.66463774 0.44503772 0.89454764 -0.041545335 0.0065184282
0.19590338 -0.28999627 0.80345166 0.67477733 0.68731046 -0.2688491 0.022439033
0.27800578 -0.50093889 0.82656002 0.91686124 0.37876329 -0.12611015 0.0016977871
0.25224581 -0.4341189 0.77022946 0.98276842 0.1730784 -0.064885482 0.00057620043
0.24770509 -0.41829148 0.73091203 0.98633438 0.1460916 -0.076169737 0.00029959535
0.18626195 -0.18522272 0.51375246 0.78488654 0.33811259 -0.51926196 0.053620398
0.216112 -0.4192774 0.47342113 0.72483724 0.175788 -0.66611522 0.02025757
0.22224812 -0.4477734 0.46919176 0.6821034 0.28938377 -0.67155945 0.026256889
0.23627529 -0.38176546 0.60961157 0.98695445 0.15924089 -0.023731306 0.00071941904
0.2322399 -0.39432079 0.51792961 0.95328581 0.16005561 -0.25618005 0.0038352879
0.21424276 -0.29997191 0.82363003 0.67087221 0.64283401 -0.3697229 0.02272661
0.19323295 -0.21852258 0.50922352 0.77860016 0.1414856 -0.6113621 0.03975245
-0.026867609 -0.13779682 0.79503906 -0.0058595883 0.99993509 0.0097736111 0.0001626364
0.1913503 -0.23468699 0.50643039 0.59359026 0.11736664 -0.79616314 0.0930641
0.20022875 -0.30050471 0.78721648 0.70003635 0.68497503 -0.201887 0.012106034
0.055819318 -0.14104937 0.62823802 -0.01628588 0.99864393 -0.049447935 0.00048984174
0.038219627 -0.13699925 0.81915808 0.015121643 0.99942678 0.03028821 0.00049161079
0.17296077 -0.37443656 0.46666005 0.2536591 0.23629469 -0.93798816 0.010408442
0.21576725 -0.3230074 0.51086307 0.96101719 0.22844005 -0.15575965 0.0046003661
0.25624689 -0.41412693 0.86073285 0.98233813 0.14971045 0.11224309 0.0027793224
0.11832757 -0.13839805 0.72615665 0.041020099 0.99879587 -0.026907723 0.00047435696
0.20641762 -0.32665214 0.49178797 0.77028215 0.19859459 -0.60599142 0.03618497
0.24452469 -0.43645498 0.65833282 0.98057383 0.18966529 -0.050020527 0.00096569775
0.21514332 -0.38111213 0.48345712 0.63034374 0.20380603 -0.74908602 0.031408794
0.15654103 -0.13959421 0.78816843 0.078050442 0.99690574 0.0093299663 0.0014367434
0.15981779 -0.30261382 0.71345955 0.16319174 0.97649193 -0.14082581 0.0027342956
0.26318419 -0.46250656 0.84651965 0.96224141 0.27070263 -0.028490068 0.0027830328
0.22485301 -0.32050371 0.67301667 0.32961661 0.92412686 -0.19324194 0.013512027
0.2440536 -0.41753912 0.69112951 0.99230272 0.1037211 -0.067655116 0.00011172077
-0.15655285 -0.14206438 0.63231641 -0.19076709 0.98159456 0.0089477981 0.001831178
-0.099892691 -0.13733147 0.7157408 -0.025200803 0.99968135 -0.0014630957 0.00046591688
0.15380207 -0.14434627 0.57524288 0.23153332 0.96631438 -0.11237767 0.015250132
0.05978426 -0.13730671 0.75049251 0.013209805 0.99988586 -0.0073381229 0.00011930635
-0.13208359 -0.14141728 0.57875603 -0.06731993 0.9873603 -0.14348443 0.0019004411
-0.01131762 -0.1376832 0.80828142 -0.0055748764 0.99986631 0.01536858 0.00016440851
-0.01212102 -0.14038773 0.59849715 0.024294594 0.99901772 -0.037059795 0.00064300996
-0.040526628 -0.14272285 0.55961758 -0.0029750208 0.98965138 -0.14346182 0.0014713266
0.12655798 -0.13888498 0.7344777 0.047456618 0.9983843 -0.031249713 0.00055512728
0.18647662 -0.19795631 0.50802636 0.65513235 0.23227371 -0.71892315 0.048375733
-0.020565066 -0.13997622 0.6066671 0.022441979 0.99957472 -0.018619601 0.0002200615
0.18518266 -0.20975496 0.50382286 0.59900612 0.23751295 -0.76470864 0.050804123
0.18993899 -0.24566185 0.50095695 0.51459229 0.092321828 -0.85245031 0.085600778
0.0039237561 -0.31777674 0.50592571 -0.096587658 0.87710637 -0.47048417 0.031026246
0.24168091 -0.43785629 0.5792371 0.976466 0.21214564 -0.038838446 0.00028395496
0.16240756 -0.30265081 0.62055051 0.44909787 0.85686934 0.25315204 0.0080056246
0.23813485 -0.3383221 0.73420638 0.83375514 0.55156952 0.024966635 0.021553608
-0.027521679 -0.13771677 0.81434166 -0.0063986564 0.99981946 0.017890681 0.00020034134
0.1849858 -0.30681157 0.68988079 0.24476855 0.96409374 -0.10301235 0.0042738039
0.062689982 -0.1423468 0.60991597 -0.022817854 0.99772775 -0.063393168 0.001079654
0.022530174 -0.13956013 0.67558217 0.0060510407 0.99958938 -0.028007763 4.991849e-05
0.12127382 -0.13921386 0.7124936 0.049514186 0.99860418 -0.018386219 0.00065152615
-0.085446574 -0.30879781 0.53022099 0.28360033 0.60517257 -0.74386621 0.010902023
0.24520002 -0.34549427 0.8692317 0.9328081 0.16001473 0.32289988 0.0092489608
0.022673747 -0.15012641 0.53604972 0.19802782 0.96031445 -0.19642086 0.025547333
0.21594194 -0.22998822 0.8883962 0.97788519 0.027373195 0.2073435 0.065003395
0.13128299 -0.37672457 0.45975342 0.046462048 0.34653571 -0.93688542 0.0036896158
-0.020379895 -0.14762706 0.53529513 0.0077560395 0.96393722 -0.26601684 0.0035809979
0.26112986 -0.48555595 0.72513896 0.9559769 0.28871009 -0.052484524 0.00041584662
0.13586433 -0.34711251 0.47098786 -0.0021832949 0.4023324 -0.91549104 0.0057190647
0.13029519 -0.28739008 0.63458949 0.53072709 0.82154804 0.20829666 0.010835427
0.21220984 -0.3068749 0.55568689 0.93219018 0.32557365 0.15818737 0.0088578481
0.17657295 -0.15862903 0.51970249 0.66158092 0.64930123 -0.37512496 0.070343941
0.25470272 -0.45383623 0.75010949 0.97740072 0.19756456 -0.07520625 0.00068098237
0.20198868 -0.16203469 0.82614625 0.72870833 0.68403977 0.032770444 0.071036458
0.20463367 -0.16090459 0.6584546 0.4993268 0.86293101 -0.077606767 0.0039022693
-0.0069829277 -0.30796269 0.53498644 -0.0092629241 0.96066999 -0.27753794 0.0079093212
-0.03317216 -0.49000481 0.45396131 -0.26364484 0.3661254 -0.89243686 0.03827019
-0.14072491 -0.28260821 0.53199095 0.22178265 0.52476132 -0.82185036 0.013434846
0.00014025831 -0.30326509 0.56165522 0.01969441 0.95143354 -0.30722356 0.010765213
0.1171397 -0.38519886 0.45673403 0.010342436 0.34678563 -0.93788743 0.0054850965
0.16696817 -0.41697884 0.45753253 0.21989979 0.19657941 -0.95551074 0.00122068
0.02465279 -0.38575542 0.46767563 -0.14007971 0.24058394 -0.9604671 0.0086871451
0.031079307 -0.43328163 0.46183956 -0.12782535 0.12355249 -0.98407084 0.0015662428
0.071983695 -0.50690967 0.43256682 0.089898877 0.61871368 -0.78045601 0.080118179
-0.0049702902 -0.38804796 0.46979603 -0.082962021 0.23309018 -0.96890992 0.0074914484
0.092904203 -0.5078069 0.42939305 -0.092710458 0.32386655 -0.94154936 0.12994437
-0.10832502 -0.22540954 0.54983652 0.75090665 0.18330789 -0.63445836 0.0061672931
-0.017507264 -0.48137769 0.45552534 -0.10957814 0.36390382 -0.92496848 0.023601748
0.016522704 -0.38742131 0.46721643 -0.11084319 0.24556872 -0.96302116 0.0074724481
0.00013801687 -0.45416811 0.46105298 -0.047548015 0.1974006 -0.97916919 0.00047505123
0.097192951 -0.30908152 0.51351106 -0.55242836 0.533355 -0.64058977 0.021756429
