# .PCD v0.7 - Point Cloud Data file format
VERSION 0.7
FIELDS x y z normal_x normal_y normal_z curvature
SIZE 4 4 4 4 4 4 4
TYPE F F F F F F F
COUNT 1 1 1 1 1 1 1
WIDTH 584
HEIGHT 1
VIEWPOINT 0 0 0 1 0 0 0
POINTS 584
DATA ascii
0.024332486 -0.14064474 0.64879364 0.0046195462 0.99969375 -0.024310937 0.0011998592
-0.1692896 -0.14088117 0.75424588 -0.20079961 0.97801232 -0.056315076 0.016073495
-0.013940722 -0.13794789 0.71543884 0.013049557 0.99951893 -0.028135201 0.00055062101
-0.032694548 -0.13722959 0.7840144 -0.0026275369 0.99993151 0.011401667 0.0038284941
-0.036394082 -0.13665955 0.75444257 0.0037838158 0.99992591 -0.011568067 0.00029879221
0.02905922 -0.13635762 0.81130087 0.0078002485 0.99992889 0.0090162577 0.0028007964
-0.15252252 -0.13939334 0.57542002 -0.090425946 0.9771654 -0.19227785 0.019319477
0.0079446211 -0.15138891 0.8953523 -0.020340044 0.98976713 0.14123511 0.020760793
0.07231389 -0.35729972 0.93148416 0.0075855036 0.18071407 0.98350644 0.0045056581
0.020497119 -0.45103946 0.94425058 0.055691656 0.18998182 0.98020679 0.0049742265
0.10447511 -0.14469571 0.88973439 0.029483328 0.9793492 0.20001507 0.0069179046
0.11294474 -0.29311061 0.88445544 0.092082419 0.70937341 0.69879204 0.043194287
-0.045188464 -0.30032319 0.86352599 0.44469318 0.72850752 0.52108026 0.031740546
0.12293164 -0.29560584 0.88723147 0.13787046 0.64834332 0.7487607 0.044669446
-0.047977835 -0.43016222 0.9468922 0.087947108 0.20701286 0.97437727 0.0042615859
0.01411883 -0.46672043 0.95281398 0.063841961 0.22651465 0.97191322 0.005174824
0.15153117 -0.14160481 0.57728022 0.22927715 0.97157991 -0.058860086 0.043436795
0.12454011 -0.13882801 0.57685727 0.044556849 0.99786425 -0.047766086 0.010461992
0.17224541 -0.1344403 0.80408233 0.16391911 0.98647118 -0.0022759316 0.029400019
0.17874025 -0.14374933 0.70200628 0.18006472 0.98232704 -0.05109087 0.015263583
0.18026242 -0.14542282 0.51376939 0.50332242 0.76364917 -0.40435943 0.10910243
0.16922447 -0.42098987 0.94504893 0.19900914 0.30567539 0.93110579 0.0044192299
0.14748257 -0.36029023 0.93001658 0.13765855 0.38777438 0.91141707 0.016349889
0.16008981 -0.37689137 0.93146056 0.1260504 0.24800825 0.96052235 0.0043548378
0.21454956 -0.20958211 0.88862425 0.96846265 0.18728562 0.16432984 0.028542247
0.12423375 -0.13732934 0.70947826 0.031596571 0.99921989 -0.023690367 0.0025040631
0.083283566 -0.13785514 0.67495465 0.0013799333 0.99974263 -0.022645639 0.00088778103
-0.018261366 -0.13690163 0.7651301 0.009275848 0.99994117 -0.0056195781 0.0017708283
-0.082258515 -0.14941008 0.88333696 -0.0057793777 0.96186513 0.27346319 0.11980359
-0.029440012 -0.13781884 0.7180326 0.011867611 0.99966377 -0.023053408 0.00048760907
-0.0085354364 -0.1379288 0.73237807 0.0087721106 0.99976122 -0.020011965 0.00039759747
-0.15639098 -0.1393612 0.88768721 -0.2900545 0.87829554 0.38008612 0.096765548
0.16809221 -0.13964169 0.72976941 0.13532892 0.98964512 -0.047839705 0.010799943
-0.012410221 -0.13623352 0.83029574 -0.0064088143 0.99837619 0.056603007 0.0063127358
-0.065462492 -0.13641986 0.76953202 -0.0047140596 0.99997389 0.0054756398 0.0022304524
-0.16096668 -0.1607849 0.89847332 -0.58889651 0.51717514 0.62107223 0.15573251
0.23404989 -0.34060818 0.90340686 0.83131665 0.20900738 0.5150035 0.033439007
-0.15081048 -0.14398438 0.54731792 -0.1198087 0.96466887 -0.2346485 0.023151357
-0.016172383 -0.14043973 0.55066413 0.01213276 0.98714787 -0.1593482 0.01386345
-0.10339002 -0.13938835 0.86287451 0.0050023459 0.97119856 0.23821932 0.066954672
0.091545671 -0.35011268 0.92968291 0.060503751 0.340175 0.93841368 0.020782078
0.088928729 -0.43527094 0.93959856 -0.025669811 0.14221855 0.98950237 0.0033721363
-0.14353962 -0.14348699 0.89423114 -0.19764596 0.87589997 0.44015372 0.10259792
-0.042674724 -0.13806158 0.87766749 -0.056157827 0.9878813 0.14469601 0.039274208
-0.14070417 -0.38829428 0.94623572 -0.095887631 0.10856797 0.98945361 0.0067291157
-0.059149992 -0.14120868 0.88617355 -0.1038029 0.97310108 0.20566805 0.080142401
-0.14750287 -0.18572569 0.9065699 -0.054075826 0.19571963 0.97916782 0.10753702
0.070418432 -0.14076179 0.61902994 -0.013948177 0.99948078 -0.029045129 0.0047753216
0.11214401 -0.13843185 0.73858845 0.010148313 0.99972641 -0.021072859 0.00091388018
0.1043981 -0.13776639 0.74932152 0.010406768 0.99977577 -0.018442728 0.000845325
0.17708895 -0.13790591 0.78171736 0.22673701 0.97395575 0.00070430082 0.0263182
0.1975729 -0.25485933 0.89034003 0.34598747 -0.023664271 0.93794072 0.16287182
0.24060637 -0.29666302 0.87226439 0.96906054 0.24543287 0.026160346 0.076165214
0.15915099 -0.30102402 0.87949616 0.31457728 -0.94813722 -0.04557262 0.090777181
0.24046014 -0.28487882 0.83758628 0.90749341 0.34353876 -0.24173719 0.067410901
0.11797585 -0.29723155 0.87286556 0.071091183 0.74560845 0.66258138 0.043114085
-0.11575737 -0.13787454 0.84094268 0.016170217 0.98063612 0.19517019 0.063621387
0.071345568 -0.33009166 0.91498858 0.079618007 0.43603817 0.89639932 0.024920952
-0.019665407 -0.32738402 0.92699283 0.074826963 0.63979965 0.76489037 0.062372431
-0.096965469 -0.30597082 0.90851146 0.33433416 0.44558817 0.83046478 0.035423454
0.2302639 -0.36856356 0.90907776 0.72514355 0.05672197 0.6862576 0.047387648
-0.099565372 -0.1365262 0.82608718 0.023350962 0.99247545 0.1201967 0.03076428
0.20857681 -0.16416018 0.87898368 0.72106034 0.47111666 0.50805616 0.088269584
-0.076122515 -0.29944575 0.88547707 0.48537406 0.61951661 0.61693692 0.040952425
0.0041290047 -0.42356578 0.94480234 0.059197146 0.16200484 0.98501277 0.0042685727
0.16446359 -0.14038904 0.60318065 0.23322338 0.97174764 -0.036237989 0.022350587
-0.038027197 -0.13733119 0.73118043 0.010292753 0.99979174 -0.017623229 0.00024855559
-0.071515068 -0.13652499 0.73566031 -0.0062420312 0.99989599 -0.013003566 0.0021842571
0.1854163 -0.14083222 0.68497962 0.21983236 0.97546476 -0.011929964 0.01762877
0.18005541 -0.13792676 0.66295052 0.24999633 0.96813864 -0.014472864 0.012651504
-0.16041081 -0.1172582 0.79315478 -0.16567095 0.9860642 0.015187198 0.01006851
-0.083662897 -0.13731596 0.69471502 0.0066232118 0.9998256 -0.017464502 0.0029520434
-0.065744899 -0.13791147 0.68546379 0.0093056541 0.99978358 -0.01860678 0.0022086825
0.017906616 -0.13362344 0.77553225 0.0064569353 0.99993706 -0.0091721574 0.0019823948
-0.037987765 -0.13865672 0.61268222 0.015390482 0.99981976 -0.011121097 0.00075862563
-0.098367751 -0.13691954 0.70210451 -0.0060544028 0.99993974 -0.0091586905 0.0033902051
-0.13290672 -0.13697517 0.83557296 -0.12084297 0.9865979 0.10964266 0.030167161
-0.1263101 -0.14189759 0.55066186 -0.046039451 0.97201669 -0.2303561 0.019119956
-0.024926459 -0.13825551 0.61514711 0.020863421 0.99971813 -0.011330914 0.00071531377
-0.016335763 -0.13769113 0.70010644 0.016918538 0.99953806 -0.025247654 0.0006566841
0.054450359 -0.4107123 0.93897104 0.0075565847 0.14128204 0.98994052 0.0029525105
0.052432816 -0.13632153 0.8308751 0.011847231 0.99835086 0.056172792 0.0048444201
-0.10237492 -0.17376959 0.87505323 0.18714863 0.41189945 0.89180392 0.16992015
0.084526263 -0.13625939 0.63271177 -0.020356048 0.9993946 -0.028213374 0.0047247633
0.17807496 -0.14100233 0.52827501 0.45430461 0.85389137 -0.25392288 0.08360108
0.15706272 -0.14478768 0.52562445 0.25863719 0.8883177 -0.37947136 0.084312424
0.080705494 -0.13739792 0.77112067 0.013441511 0.99984175 -0.011652723 0.00071592088
0.17369984 -0.13550229 0.83835971 0.28099686 0.95795643 0.057966799 0.056600589
0.22073419 -0.22671627 0.87476414 0.97484237 0.19121097 0.11454594 0.027354868
0.13721001 -0.29364833 0.90186483 -0.067807145 0.59171462 0.80329067 0.047943749
-0.12786387 -0.1364561 0.70008254 -0.11398279 0.99345607 -0.007281905 0.011193132
-0.072105996 -0.13974035 0.88178802 -0.045506079 0.97763234 0.20533931 0.076350793
-0.11076241 -0.22378075 0.88695389 0.25666496 -0.13836874 0.9565444 0.11673912
0.037477642 -0.14159128 0.51952416 0.056077816 0.96425623 -0.25896949 0.015681624
0.077169381 -0.13718092 0.67864287 0.0011611676 0.99970728 -0.024166713 0.00080247782
0.10267967 -0.11245965 0.59003997 -0.019156365 0.99855494 -0.050210811 0.0053868527
-0.075057842 -0.14240356 0.53679806 -0.043252438 0.97717714 -0.20797575 0.0099044358
-0.15410881 -0.25266787 0.9156974 -0.035305109 0.23439814 0.97149938 0.14325543
-0.14765799 -0.13637996 0.67705405 -0.21783403 0.97540468 0.033675987 0.023303818
0.063065387 -0.13674827 0.65972126 0.00034543354 0.99961293 -0.027817296 0.0011636161
-0.15981211 -0.13949381 0.57828504 -0.11242826 0.97585297 -0.18727204 0.020613439
0.25681716 -0.48424369 0.60398281 0.97262293 0.23023298 -0.031582359 0.0045569665
-0.16723222 -0.13936359 0.5568583 -0.17402725 0.95589805 -0.23658726 0.033381779
0.0053759464 -0.38175896 0.93634719 0.045509011 0.14484526 0.98840719 0.0034656001
0.23639993 -0.37602782 0.92322242 0.72382969 0.041354619 0.68873817 0.054006204
-0.1722672 -0.14356367 0.54969043 -0.25234094 0.92651606 -0.27909154 0.041507579
-0.15422215 -0.13895111 0.58441716 -0.088817343 0.98299819 -0.1607049 0.013929684
-0.044522189 -0.13987242 0.88733977 -0.071956336 0.98635608 0.14806738 0.048183136
-0.18694721 -0.17035958 0.73476011 -0.32727605 0.94353473 -0.051309869 0.018524475
-0.16720951 -0.19621496 0.85198283 -0.83753973 0.2552622 0.48308226 0.17091589
-0.12777771 -0.17222083 0.69426078 -0.14037126 0.98999566 0.014304955 0.014790169
-0.11476859 -0.14076367 0.59135514 -0.0073323264 0.99846989 -0.05480874 0.0014354562
-0.10115027 -0.14057533 0.57320762 -0.025394667 0.9901042 -0.13801755 0.0068684253
-0.057496674 -0.14556119 0.53676599 -0.014937502 0.97842079 -0.20608184 0.011000168
-0.082276583 -0.14066349 0.56940722 -0.0065085669 0.9930383 -0.11761167 0.0059778085
-0.029502727 -0.13902867 0.72786725 0.010978679 0.9996745 -0.023030128 0.00050371548
-0.075835563 -0.14720774 0.52409464 -0.069188148 0.96339673 -0.2589978 0.013074668
-0.023149442 -0.15403001 0.65222824 0.023852063 0.99953502 -0.0189911 0.00082962436
-0.024429869 -0.13719775 0.78419787 -0.0010933304 0.99994808 0.010130012 0.0041873003
-0.094569691 -0.14371409 0.53531641 -0.051425207 0.96421784 -0.26007587 0.013606887
0.12641981 -0.14304847 0.57758445 0.044556849 0.99786425 -0.047766086 0.010461992
0.17150465 -0.14685926 0.58413953 0.3380135 0.93753099 -0.082355872 0.038767472
0.16863222 -0.1414205 0.70528424 0.15219536 0.98647195 -0.060906366 0.013083975
0.19254194 -0.16484869 0.56658214 0.68542212 0.72710633 -0.0388951 0.054349169
0.099939197 -0.14232033 0.68812102 0.0061809071 0.99995565 -0.0071050171 0.00076740159
0.16229391 -0.15454485 0.88404596 0.28932914 0.80000257 0.52562767 0.063868269
-0.16220364 -0.18026774 0.90623623 -0.38424551 0.25465101 0.8874166 0.10393873
-0.1013128 -0.15194435 0.898408 -0.019616934 0.80129224 0.59795141 0.12267005
-0.16445276 -0.23552044 0.90635866 0.019652484 0.084593222 0.99622178 0.15290506
-0.047873139 -0.29981127 0.86129522 0.4811736 0.67200994 0.5629161 0.037661154
-0.13814096 -0.35402143 0.94033056 -0.056789264 0.23482898 0.97037643 0.016321396
-0.11655586 -0.36189026 0.93941289 0.044517647 0.22562531 0.97319651 0.011471889
-0.14512962 -0.34135967 0.9363327 -0.10052573 0.26235792 0.95972025 0.022570727
-0.20198929 -0.3643961 0.93267125 -0.40701064 0.10286019 0.90761346 0.022250749
-0.1273438 -0.35263032 0.93888533 -0.0042674514 0.24024342 0.97070324 0.012369264
-0.14452213 -0.35206237 0.93941313 -0.089745253 0.24226721 0.96604985 0.019007998
-0.17633276 -0.27779171 0.91561627 -0.55351585 0.33189449 0.76384962 0.081887156
-0.054937359 -0.17002945 0.89318144 0.22752263 -0.57630998 0.78492057 0.18725057
-0.17349614 -0.14299017 0.75389892 -0.23104012 0.97170174 -0.04915506 0.014794725
-0.014282727 -0.30088577 0.85912752 0.23381843 0.92792153 0.29032829 0.0081396019
0.028950963 -0.28650901 0.77734554 0.20819965 0.87261051 0.44181877 0.046441533
-0.19153216 -0.31294116 0.61285102 -0.58554399 0.73483866 0.34227243 0.041794062
-0.011299844 -0.14722233 0.89490575 -0.039286662 0.98682237 0.15696569 0.020314746
-0.062653407 -0.29810986 0.87995517 0.50627691 0.67048031 0.5423466 0.03517158
-0.069947019 -0.13789836 0.80439293 -0.0062294118 0.99924797 0.038271517 0.013715163
-0.017134124 -0.1380185 0.72210908 0.011058539 0.99960208 -0.025949365 0.00050376612
-0.16520469 -0.15299538 0.89207006 -0.66365111 0.65159118 0.36741805 0.14954619
-0.18579476 -0.31201896 0.61165118 -0.58458108 0.73125845 0.35146254 0.045626614
-0.18942435 -0.31248659 0.92169929 -0.48626268 0.2731339 0.830028 0.065326005
-0.16686824 -0.19592258 0.90515554 -0.49411169 0.13725646 0.85849535 0.09950491
-0.10388279 -0.13784042 0.79994494 -0.018478282 0.99975729 0.01199944 0.003777612
-0.099103212 -0.13719143 0.69259083 -0.0071138376 0.99990612 -0.011712027 0.0033465789
-0.20300318 -0.37421325 0.93274742 -0.4031947 0.098964527 0.9097473 0.023323648
-0.21756575 -0.37504545 0.76043618 -0.98312241 0.18028307 0.031119479 0.0053110891
-0.24737221 -0.49904978 0.47706446 -0.54323053 0.24328773 -0.80356187 0.053214628
-0.19347863 -0.30150214 0.90658683 -0.75713646 0.2878134 0.58643645 0.068467319
-0.21611705 -0.37860546 0.77178884 -0.97838271 0.20514913 0.026099626 0.0068073235
-0.18826094 -0.3117952 0.82766414 -0.69863665 0.58979917 -0.40502316 0.041835997
-0.1708333 -0.31094992 0.64300174 -0.46303099 0.86910415 0.17395456 0.0099720657
-0.17647584 -0.3296575 0.93001205 -0.33493543 0.26377949 0.90456539 0.050240919
-0.20665392 -0.25080886 0.51115257 -0.7134462 -0.055587303 -0.69850171 0.12314452
-0.2150041 -0.35726851 0.70272893 -0.91615307 0.40073895 0.0084803309 0.028708119
-0.18315367 -0.30117485 0.58683676 0.39158559 -0.81879693 -0.41980025 0.12478993
-0.23890129 -0.4393706 0.81613952 -0.97451705 0.22288473 0.025279602 0.0030242582
-0.18878596 -0.31210101 0.82048863 -0.67464137 0.61253589 -0.41189671 0.032948915
-0.16227904 -0.31105861 0.64266372 -0.36673778 0.92375451 0.11036751 0.0092396615
-0.04470684 -0.30140385 0.86211085 0.43534046 0.75275749 0.49379641 0.031765025
0.00037412936 -0.39022446 0.93792099 0.049969893 0.14739712 0.98781431 0.00325137
-0.13512954 -0.44828928 0.95536035 -0.0078379875 0.20914036 0.97785419 0.012545583
-0.04955022 -0.33883831 0.93274099 0.071528219 0.49366453 0.86670589 0.041126776
0.022629382 -0.4331955 0.93770623 0.05427561 0.14346048 0.98816663 0.0046427986
-0.019906105 -0.34145474 0.929618 0.041986596 0.47099271 0.88113737 0.045161244
-0.015115951 -0.34408969 0.9296388 0.035726618 0.4273802 0.90336579 0.043668084
-0.11118513 -0.42737728 0.95152187 0.030033277 0.16501331 0.98583388 0.0017408649
-0.12053519 -0.42106113 0.95185959 0.026897939 0.15062538 0.98822492 0.0010382941
-0.047579706 -0.43874741 0.94762528 0.087947108 0.20701286 0.97437727 0.0042615859
0.0037462935 -0.41752359 0.94236296 0.053485945 0.15874864 0.98586923 0.0034893414
-0.0024316898 -0.35063115 0.93013573 0.021305293 0.30006793 0.95367992 0.024804093
-0.090112649 -0.46459067 0.95421386 0.029120808 0.22455822 0.97402549 0.0048987032
-0.073928475 -0.41935724 0.94836885 0.054407746 0.16660251 0.98452193 0.0027316713
0.04456266 -0.37075475 0.93401486 0.013024453 0.15808526 0.9873395 0.0034353612
0.016304374 -0.45157468 0.94656616 0.061184801 0.19879943 0.97812843 0.0052326978
-0.075028874 -0.49386084 0.97252387 0.040325962 0.30398637 0.95182252 0.0042144754
-0.046677545 -0.49454138 0.97016126 0.10433534 0.32214072 0.94092482 0.005680053
-0.13032331 -0.45787716 0.95678502 -0.0069490708 0.21120925 0.97741616 0.013238016
-0.20123893 -0.49873304 0.97160327 -0.5820148 0.48541585 0.65240347 0.0087253228
-0.029051142 -0.49221027 0.96875006 0.098033428 0.31872168 0.942765 0.0058056298
-0.12817581 -0.46054351 0.95663238 0.017803848 0.2255495 0.974069 0.01101831
-0.037439507 -0.46830201 0.95646578 0.11505339 0.23469403 0.96523643 0.0040049171
-0.22047175 -0.37461546 0.76683629 -0.97867912 0.20271592 0.033066519 0.0074769408
-0.2201739 -0.37466878 0.76661718 -0.97867912 0.20271592 0.033066519 0.0074769408
-0.22692028 -0.36732417 0.75939262 -0.97942239 0.19762997 0.040917289 0.0097664976
-0.21986872 -0.37472424 0.7664153 -0.97867912 0.20271592 0.033066519 0.0074769408
-0.22692443 -0.36733955 0.759359 -0.97942239 0.19762997 0.040917289 0.0097664976
-0.21482459 -0.33771783 0.9126994 -0.75356334 0.31721225 0.57577652 0.071829073
-0.19741905 -0.31976408 0.9201628 -0.61140507 0.25522554 0.74902856 0.088166013
-0.19155292 -0.31512758 0.92371559 -0.48393169 0.27647856 0.83028293 0.068314433
-0.21064791 -0.33273697 0.91422659 -0.71291417 0.30473295 0.63157833 0.07207536
-0.18965913 -0.32942972 0.92892641 -0.39766258 0.28699294 0.87149262 0.056094952
-0.18841074 -0.33310568 0.93026155 -0.36980632 0.27428874 0.88769865 0.046396624
-0.18319467 -0.25892887 0.90398288 -0.8181895 0.33200681 0.46940103 0.098883413
-0.18051305 -0.22203049 0.88412762 -0.66538471 0.12959194 0.73516607 0.1054114
-0.17614026 -0.2774882 0.91800469 -0.53717786 0.32088363 0.78004718 0.077642769
-0.16720204 -0.25300035 0.91475517 -0.38577589 0.29724833 0.87339592 0.14151658
-0.12927045 -0.30264828 0.73203063 -0.44189569 0.86545187 -0.23605344 0.058351792
-0.20567393 -0.24198966 0.56231052 -0.97881442 0.12919125 0.15884556 0.057545632
-0.19881822 -0.2653338 0.56140888 -0.2071934 -0.65699708 -0.72486252 0.15983087
-0.21641757 -0.29004815 0.54041117 -0.88794714 0.27478972 -0.3688367 0.19300292
-0.19683889 -0.30394754 0.58155072 -0.78633708 0.42446792 0.4488886 0.077633075
-0.20306292 -0.30075186 0.57333195 -0.81812543 0.4446488 0.36463419 0.10165388
-0.17119153 -0.3106609 0.65371853 -0.4810088 0.85975957 0.17159262 0.010112699
-0.24063379 -0.34060749 0.53191793 -0.931687 0.29983672 -0.20507909 0.064980432
-0.18039954 -0.30279565 0.59172547 0.37412503 -0.84648883 -0.37879696 0.11018408
-0.13147882 -0.30225974 0.69896513 -0.26952341 0.96292895 -0.011176474 0.0082585886
-0.2424747 -0.37961155 0.5927394 -0.96515673 0.25236654 0.069162734 0.0097871935
-0.19617087 -0.27756369 0.57437181 0.1059624 -0.69367242 -0.7124539 0.16087437
-0.19286858 -0.15616129 0.76868093 -0.32540691 0.94545054 -0.015287363 0.018997526
-0.12008547 -0.15369636 0.89505786 -0.02225261 0.76518363 0.64342743 0.13589323
-0.16307934 -0.3061558 0.60304868 0.24084274 -0.93242133 -0.26941645 0.05013974
-0.26651451 -0.50825328 0.60721254 -0.93993747 0.32283804 0.11087464 0.0082628466
-0.19196521 -0.15754907 0.68904048 -0.36981696 0.92903876 0.011061937 0.027960768
-0.2214645 -0.29187271 0.53628314 -0.91456109 0.29763982 -0.27384046 0.14359896
-0.11791981 -0.18210094 0.89237577 0.092955507 0.18764985 0.97782755 0.13165921
-0.19515985 -0.31014836 0.59547007 -0.70583749 0.58488393 0.39963004 0.046704542
-0.099738158 -0.21023962 0.87506759 0.31948733 -0.12238739 0.93965375 0.11545901
-0.22007231 -0.29941911 0.52386445 -0.75406235 0.26923066 -0.5990867 0.14300425
-0.26800391 -0.51023287 0.86368561 -0.90037787 0.4337396 0.034490701 0.039649725
-0.16449343 -0.15314439 0.89344907 -0.66365111 0.65159118 0.36741805 0.14954619
-0.16606973 -0.19620873 0.90625113 -0.438921 0.12575869 0.88968146 0.10172459
-0.016729562 -0.3013956 0.85971308 0.23381843 0.92792153 0.29032829 0.0081396019
-0.16777983 -0.17344424 0.8991192 -0.49076658 0.30312568 0.81686175 0.12129831
-0.052940182 -0.29917186 0.86843985 0.48426333 0.68754905 0.54107785 0.032842409
-0.0728686 -0.1627064 0.90316457 0.076088697 -0.14139017 0.98702556 0.13307385
-0.10154301 -0.35609773 0.94033277 0.077167086 0.24054407 0.96756595 0.014158845
-0.14863919 -0.33553126 0.93902624 -0.12072226 0.28333277 0.95139295 0.027727365
-0.078587875 -0.39163771 0.94440758 0.062790699 0.16767123 0.9838413 0.0024025652
-0.16216877 -0.39284512 0.94675791 -0.21403596 0.091576137 0.97252381 0.011853347
-0.18086486 -0.42667285 0.94753593 -0.27671209 0.24711268 0.92863643 0.035079367
-0.09254916 -0.46208864 0.95439386 0.029120808 0.22455822 0.97402549 0.0048987032
-0.083476424 -0.41596511 0.9493193 0.043100797 0.15830894 0.98644847 0.0021040884
-0.051461618 -0.43530521 0.94796389 0.087947108 0.20701286 0.97437727 0.0042615859
-0.14468741 -0.34811711 0.93876469 -0.096637249 0.24513881 0.96465963 0.01979096
-0.080800131 -0.32709721 0.92988259 0.11534881 0.60309798 0.78928292 0.031616922
-0.11971831 -0.35957491 0.93950027 0.037461419 0.23326099 0.97169226 0.012803696
-0.070397675 -0.42585033 0.94853342 0.051350508 0.19646706 0.97916484 0.0040816977
-0.069077887 -0.42348498 0.94878823 0.053542171 0.18585373 0.98111755 0.0033446655
-0.078309968 -0.40714142 0.9484809 0.046945523 0.16313602 0.98548609 0.0019028456
-0.082355112 -0.40443802 0.9489007 0.050057385 0.16048855 0.98576754 0.0022231324
-0.14119877 -0.43242621 0.95306951 -0.046685182 0.15488172 0.98682928 0.013110792
-0.12098931 -0.44256771 0.95387518 0.028127192 0.16462699 0.98595482 0.0025928521
-0.11503491 -0.42066312 0.95192736 0.029851368 0.15115838 0.98805869 0.0010320144
-0.17120323 -0.41663912 0.94937181 -0.27393708 0.1166496 0.95464718 0.020507231
-0.17515025 -0.27510849 0.91664648 -0.54295278 0.31912655 0.7767629 0.085933186
-0.0697487 -0.31867528 0.92322147 0.082803525 0.69884574 0.71046335 0.029211588
-0.21451043 -0.33828935 0.82613236 -0.86442888 0.49043214 -0.11063027 0.014454292
-0.17582543 -0.27847913 0.91785514 -0.52456498 0.3122305 0.7920503 0.0755587
-0.26084599 -0.50970805 0.839697 -0.9155333 0.40171796 -0.020527894 0.023357006
-0.20237327 -0.36346856 0.93209457 -0.40701064 0.10286019 0.90761346 0.022250749
-0.24749814 -0.49825415 0.90624624 -0.7813313 0.57430154 0.24433419 0.035258155
-0.050547268 -0.34799653 0.9332056 0.068422727 0.38766724 0.91925651 0.025340561
-0.16731775 -0.40037242 0.9484877 -0.24303328 0.087841734 0.96603245 0.013406309
-0.16695867 -0.23315059 0.90690309 -0.049734972 0.11664186 0.99192804 0.15218231
0.026227526 -0.29147926 0.78556913 0.20393009 0.87291712 0.44320223 0.038147081
0.02350498 -0.28980339 0.784715 0.20393009 0.87291712 0.44320223 0.038147081
-0.12223873 -0.42106798 0.95195758 0.027268266 0.15135489 0.98810327 0.001025471
-0.2288895 -0.50669068 0.9566111 -0.53296328 0.63262612 0.5619024 0.040068131
-0.16224541 -0.17073563 0.90301317 -0.33532628 0.31010655 0.88960117 0.13504069
-0.16364333 -0.17904268 0.90586859 -0.42627689 0.24985218 0.86940318 0.10471232
-0.21995501 -0.50825006 0.96596026 -0.46468833 0.72836167 0.50354135 0.032546457
-0.18970817 -0.33392599 0.92882943 -0.36980632 0.27428874 0.88769865 0.046396624
-0.18710111 -0.3352392 0.93032324 -0.35719424 0.28412747 0.88976622 0.049247403
-0.0017384783 -0.26224968 0.78172094 0.26906285 0.83971721 0.47167811 0.03643376
-0.20430039 -0.46545306 0.94302577 -0.43468446 0.37311313 0.81965601 0.041437339
-0.0037082972 -0.26625648 0.78306842 0.26906285 0.83971721 0.47167811 0.03643376
-0.1579136 -0.17448047 0.90572536 -0.21708401 0.27572218 0.93640369 0.12534556
-0.10773352 -0.15595061 0.89966542 -0.00048232873 0.68106812 0.73221987 0.13010903
-0.14281002 -0.14222947 0.89262283 -0.19580981 0.88513458 0.42213178 0.10026042
-0.19856943 -0.50013047 0.97573102 -0.55228382 0.58448094 0.59444481 0.0084681567
-0.18479545 -0.14941093 0.77618045 -0.26382163 0.96445805 0.014794581 0.014087304
-0.00014738541 -0.28479931 0.79379833 0.26701912 0.87727475 0.3988606 0.031056199
-0.25723472 -0.47976211 0.51466233 -0.90081036 0.2473283 -0.35688856 0.045890111
-0.052626584 -0.47244823 0.95730042 0.084671058 0.22730406 0.97013593 0.0046652434
-0.016818415 -0.34388235 0.92975366 0.035659768 0.42547995 0.90426505 0.043863397
-0.11623399 -0.36960495 0.93993735 0.048970599 0.20311952 0.97792864 0.0093355542
-0.0046410086 -0.29689685 0.81549108 0.2466384 0.89425862 0.37345824 0.018421719
-0.1658057 -0.18405168 0.90616745 -0.41256851 0.18896592 0.8911112 0.08834713
-0.17380795 -0.17041011 0.89387685 -0.66905499 0.37653428 0.64077091 0.11893996
-0.15177047 -0.24139009 0.91371334 0.031930629 0.12985879 0.99101818 0.15047964
-0.26151055 -0.50835371 0.86774683 -0.89710355 0.43623659 0.070020795 0.035572071
-0.096249387 -0.23922969 0.87239075 0.4767347 0.27661249 0.83439171 0.10168556
-0.16682985 -0.22036888 0.90621358 -0.27398339 0.086380191 0.95784736 0.12653041
-0.15673347 -0.25680563 0.91625649 -0.066167966 0.31846038 0.94562399 0.13487485
0.011669944 -0.3005935 0.83997148 0.24667582 0.89481729 0.37209275 0.018486284
-0.18542103 -0.29969373 0.9194755 -0.54061019 0.29720503 0.78702587 0.050976608
-0.13340537 -0.24161483 0.90520358 0.25876805 0.13170797 0.956918 0.14681651
-0.10519466 -0.25470635 0.88242483 0.4189567 0.41596106 0.80712557 0.077033274
0.0029768599 -0.2867094 0.79498547 0.26701912 0.87727475 0.3988606 0.031056199
-0.070555553 -0.20128936 0.84705114 -0.93084842 0.36175224 0.051539883 0.14880727
-0.20957841 -0.24032016 0.54347491 -0.98423678 0.053926636 -0.16843359 0.10414718
-0.25120577 -0.48993582 0.7251687 -0.8932898 0.44772583 -0.03968386 0.064912163
-0.2425999 -0.50223833 0.92684555 -0.63296407 0.73196381 0.25216159 0.036678091
-0.23863873 -0.50330746 0.93709296 -0.62547141 0.73286182 0.2677668 0.038363811
-0.037813883 -0.13870467 0.88270032 -0.078517362 0.98791981 0.13360144 0.043439478
-0.1078444 -0.23783289 0.88414669 0.36318818 0.25948226 0.89485377 0.14187798
-0.096123062 -0.35101083 0.93925929 0.086850412 0.26772571 0.95957279 0.016735623
-0.099550068 -0.35801473 0.94036686 0.081141777 0.24229577 0.96680337 0.013970563
-0.14063026 -0.34715539 0.93843567 -0.075055748 0.24887311 0.96562362 0.01819358
-0.058931358 -0.34378806 0.93466967 0.10013811 0.44614974 0.88933843 0.031103019
-0.15227087 -0.33830458 0.93792373 -0.13535649 0.29050726 0.94725078 0.029729379
-0.14812012 -0.33013558 0.93805397 -0.13126245 0.26076481 0.95643699 0.026357513
-0.11994711 -0.35932517 0.93961394 0.037461419 0.23326099 0.97169226 0.012803696
-0.019322334 -0.30197418 0.84559435 0.25338665 0.91245824 0.32127112 0.011410024
-0.06401784 -0.3979395 0.94649714 0.067586102 0.175291 0.98219401 0.0016542698
-0.24329433 -0.50612199 0.94740677 -0.57445997 0.73750997 0.35507005 0.049764764
0.03019299 -0.30048189 0.83099234 0.28058675 0.8758077 0.39272383 0.028904421
-0.043565147 -0.45841813 0.95379525 0.09938588 0.21193017 0.9722181 0.0055573536
-0.090468146 -0.35927156 0.93977696 0.076417394 0.24384971 0.96679765 0.011730472
-0.089568853 -0.20742925 0.86251038 0.4970949 -0.031558648 0.86712211 0.11855784
-0.12483135 -0.13859402 0.72406965 -0.072324596 0.99735504 0.007221472 0.005626413
-0.095692724 -0.2082644 0.87003499 0.31877854 -0.069925763 0.94524628 0.12563875
-0.045950536 -0.44480321 0.94983017 0.089639783 0.20512466 0.97462225 0.0043857256
-0.19310264 -0.31678665 0.92298377 -0.55840659 0.25325057 0.78996593 0.079156734
-0.039899524 -0.39723265 0.94274616 0.08872322 0.17009367 0.98142564 0.0017847068
-0.1582295 -0.2073693 0.90787917 -0.064957723 0.087168992 0.99407351 0.10505553
-0.117687 -0.41433817 0.95094103 0.027685465 0.145496 0.98897141 0.0016431363
-0.039386969 -0.40609843 0.94355494 0.087878063 0.16368714 0.98259044 0.0018050908
-0.073504433 -0.22587466 0.84605849 -0.99841249 0.023387963 0.051239815 0.14843786
-0.11931002 -0.15463679 0.89512837 -0.02225261 0.76518363 0.64342743 0.13589323
-0.011416103 -0.38779339 0.93771923 0.062794052 0.15643659 0.98568988 0.0029636801
0.026220635 -0.29891285 0.80620903 0.26701912 0.87727475 0.3988606 0.031056199
-0.165953 -0.25328514 0.91493839 -0.33721492 0.30006057 0.89232832 0.14198992
-0.002170267 -0.30127922 0.841519 0.24988255 0.89991844 0.35735899 0.015294786
-0.11110835 -0.42597017 0.95145923 0.031747863 0.16532558 0.98572785 0.0016828401
-0.084423758 -0.2794615 0.86758161 0.60095316 0.52445745 0.60315806 0.098550305
-0.21477301 -0.48397851 0.94908386 -0.631621 0.49134609 0.59969491 0.049879711
-0.098545417 -0.22544448 0.87571347 0.32074425 -0.16719665 0.93229198 0.13056682
-0.14723714 -0.25603557 0.91574192 -0.046034001 0.30177072 0.95226848 0.13739929
-0.042251505 -0.33928531 0.93253946 0.048039783 0.49772614 0.8660028 0.047855329
-0.017397927 -0.35222068 0.93221855 0.032507602 0.33008021 0.94339299 0.025316074
-0.10554651 -0.1378835 0.80056202 -0.019478098 0.99974412 0.011503773 0.0038253276
-0.2020046 -0.27067742 0.56308192 0.25869089 -0.62453926 -0.73690552 0.17182319
-0.26451603 -0.49494174 0.52086657 -0.92898196 0.19745851 -0.31305391 0.047630295
-0.24708982 -0.50745547 0.75838852 -0.75676203 0.65312999 0.027063642 0.10031968
-0.012067738 -0.14752944 0.89632469 -0.042228688 0.98704785 0.15476862 0.021106482
-0.096439198 -0.24078037 0.87270159 0.46405262 0.29901931 0.83381206 0.094460502
0.014251562 -0.15176885 0.89600599 -0.018234398 0.98990351 0.14056548 0.021394903
0.012240916 -0.25883654 0.77711493 0.37030551 0.79909468 0.47362596 0.046605784
-0.0070734634 -0.14876193 0.89560729 -0.02561667 0.98504895 0.17035955 0.014983242
-0.059378844 -0.13811575 0.69366491 0.0035987443 0.99970096 -0.024184972 0.0022288205
-0.0003325865 -0.38999489 0.9372195 0.049480572 0.14876454 0.98763394 0.0033460844
-0.040240433 -0.46756542 0.95707202 0.11505339 0.23469403 0.96523643 0.0040049171
-0.067526795 -0.30553004 0.9022162 0.26130578 0.69457197 0.67029029 0.037076697
-0.024093591 -0.30316746 0.83391726 0.25415859 0.91320884 0.31851688 0.011134704
0.024769789 -0.32229432 0.92662609 -0.01348938 0.55107147 0.83434904 0.047824018
0.025773255 -0.32971483 0.92825341 -0.0021864756 0.30919173 0.95099723 0.023429118
0.019107195 -0.43227276 0.93996972 0.05427561 0.14346048 0.98816663 0.0046427986
-0.010127339 -0.34491506 0.92914653 0.037438493 0.41216144 0.91034138 0.046358354
-0.0052701407 -0.40389493 0.9391585 0.06457182 0.16049154 0.98492283 0.0027473608
0.0015422774 -0.40502113 0.93871415 0.052055709 0.16157287 0.98548692 0.0030855183
-0.039330017 -0.34206793 0.93200016 0.023712458 0.48224622 0.87571472 0.045651667
0.022225492 -0.45646363 0.94397032 0.055486776 0.19082324 0.98005497 0.0052456898
-0.019288549 -0.34097326 0.92944342 0.039019201 0.48817542 0.87187284 0.046870455
0.029761178 -0.32349148 0.92716759 -0.026335394 0.44283125 0.89621812 0.040148634
0.0082985582 -0.32645518 0.92811197 0.023800192 0.53560024 0.84413618 0.056725733
-0.20176941 -0.37535882 0.93388176 -0.4031947 0.098964527 0.9097473 0.023323648
-0.10345638 -0.15571164 0.90150672 -0.0031970725 0.67845684 0.73463339 0.12442264
-0.045566678 -0.3003929 0.88325042 0.4220503 0.75250208 0.50558299 0.029976785
-0.12685326 -0.35465682 0.93849331 0.0012146767 0.23564583 0.9718383 0.012401813
-0.06680426 -0.41112417 0.94690597 0.060021594 0.16136047 0.98506862 0.0017745318
-0.070187978 -0.28768998 0.85973096 0.566998 0.50120258 0.65368897 0.034043744
-0.26064357 -0.50786561 0.84439224 -0.9155333 0.40171796 -0.020527894 0.023357006
-0.081656143 -0.244432 0.8559075 0.5827632 0.31992528 0.74701732 0.090838917
-0.30115959 -0.51064128 0.88495147 -0.74517161 0.66679126 -0.010425878 0.042491723
-0.058045067 -0.16942284 0.90038961 0.039223645 -0.30865666 0.95036447 0.13861346
-0.26264942 -0.51320666 0.8200506 -0.79221922 0.60714078 0.061390523 0.049576238
0.017474469 -0.47003314 0.95009249 0.06598106 0.23198375 0.97047925 0.0052443747
-0.28097135 -0.50952667 0.94829464 0.30636421 -0.94344711 -0.12668251 0.026807701
-0.28384933 -0.51027268 0.93583333 0.32505482 -0.94277066 -0.074315779 0.021630077
-0.035546642 -0.40224317 0.94277066 0.095891558 0.1692276 0.98090106 0.0018790769
-0.25502634 -0.50819862 0.93867749 0.43572742 -0.89032775 -0.1321294 0.028100111
0.013966684 -0.39340311 0.93527704 0.031942055 0.14779079 0.98850274 0.0036847051
-0.15736046 -0.33051154 0.93685275 -0.17643832 0.28576049 0.94191849 0.034737334
0.022867002 -0.26722887 0.77447444 0.37030551 0.79909468 0.47362596 0.046605784
-0.13131869 -0.24005781 0.90429407 0.25432986 0.11642441 0.96008414 0.15193805
-0.17497167 -0.14337322 0.76673824 -0.20261595 0.97918302 -0.012137906 0.013966865
-0.30466297 -0.50605053 0.75767106 0.33512539 -0.92501873 -0.17897294 0.05910917
0.01443628 -0.4893544 0.95201737 0.10608613 0.27327597 0.95606798 0.0084922323
-0.31047195 -0.50822932 0.7609868 0.22502665 -0.95192277 -0.20786054 0.038583662
-0.15163183 -0.23268965 0.91257 0.083527677 0.091834232 0.99226487 0.15946746
-0.16158417 -0.24567629 0.91339505 -0.046458092 0.17126328 0.98412931 0.14623268
-0.17284636 -0.25889802 0.91502702 -0.51389009 0.36406502 0.77677131 0.10356465
-0.13220167 -0.17573223 0.90217888 -0.0071520833 0.23970728 0.97081888 0.12337814
-0.13794626 -0.23338377 0.90638256 0.224436 0.12399001 0.96656865 0.15655124
-0.17885384 -0.30185953 0.92429811 -0.4536171 0.28196585 0.84541512 0.058115061
-0.20404388 -0.3001999 0.57203788 -0.81812543 0.4446488 0.36463419 0.10165388
-0.22679338 -0.36575073 0.76190549 -0.97329479 0.22564468 0.042211138 0.011684281
-0.0072934204 -0.13926756 0.67829663 0.016946407 0.99956971 -0.023942988 0.00085279194
-0.017555319 -0.30146024 0.86465579 0.27267209 0.88999486 0.3654575 0.013875044
0.025112351 -0.43291491 0.9405247 0.054092199 0.14304133 0.98823738 0.004469207
-0.012763749 -0.14667958 0.90064514 -0.025256323 0.97995269 0.19762319 0.019256627
-0.051472869 -0.29944667 0.86914265 0.47104859 0.70703948 0.52745473 0.030650109
-0.092949793 -0.13704959 0.73270005 -0.015131447 0.99984884 -0.0085596284 0.0030386464
-0.10283895 -0.13758302 0.74300194 -0.038411297 0.99918479 -0.012425078 0.0036811894
-0.057872608 -0.13709918 0.71111727 0.0099340463 0.99971855 -0.021543654 0.00062711793
-0.062643796 -0.16744715 0.89861101 0.070820108 -0.28517935 0.95585418 0.13311474
-0.1091043 -0.25355968 0.88599271 0.32321459 0.44818705 0.83346301 0.088253103
-0.023821317 -0.136379 0.82004982 -0.0046530152 0.99918729 0.040039688 0.0047832835
-0.1183731 -0.14045224 0.69823503 -0.055661008 0.998447 0.0023482039 0.0045649852
-0.11073492 -0.23781769 0.88732582 0.34754568 0.19528249 0.91710234 0.13490705
-0.14707541 -0.33567792 0.9398486 -0.11543719 0.26761386 0.95658618 0.024942093
-0.096579455 -0.26287663 0.87607813 0.47572994 0.42244637 0.77150512 0.06933593
-0.098591037 -0.26228419 0.87831384 0.46444634 0.41761664 0.78095198 0.063727066
-0.18415219 -0.30743259 0.92473751 -0.48649648 0.2663607 0.8320896 0.060158607
-0.11514552 -0.41807556 0.95091343 0.029876342 0.15121627 0.98804909 0.0011239232
-0.064291857 -0.13685703 0.72510499 -0.0017332634 0.99984086 -0.017754583 0.0021073327
-0.13340762 -0.24542816 0.90675724 0.25209817 0.12046368 0.9601745 0.15302379
-0.1402874 -0.13635708 0.81195813 -0.15408413 0.98774558 0.024835849 0.013280282
0.012808162 -0.13951166 0.66996568 0.0061805588 0.99966311 -0.025211276 0.00089040532
-0.15702736 -0.13952811 0.88788635 -0.2900545 0.87829554 0.38008612 0.096765548
-0.17291692 -0.14294451 0.77388775 -0.20267598 0.97924322 0.0022870181 0.011526239
-0.16758086 -0.40173656 0.94858223 -0.24662638 0.087091461 0.96518934 0.013323483
-0.16187312 -0.15644823 0.89757586 -0.66444749 0.58411157 0.46617934 0.14864554
-0.20770371 -0.46879092 0.94357556 -0.45790032 0.36831868 0.80911607 0.040732842
-0.17840381 -0.32235703 0.93112147 -0.36428255 0.25088838 0.8968575 0.050451193
-0.15241092 -0.13894911 0.88493448 -0.24734877 0.89899534 0.36142203 0.097534023
-0.14387994 -0.14438826 0.89646733 -0.20625381 0.84066093 0.50074792 0.10914288
-0.1525263 -0.24315441 0.91418839 0.02646553 0.13679615 0.99024558 0.14492133
-0.13164622 -0.15157676 0.90022379 -0.056965999 0.68991816 0.72164249 0.14063196
-0.14049397 -0.13745637 0.83034271 -0.13923717 0.98597014 0.092064694 0.027853748
-0.096392594 -0.1405659 0.85905814 0.01665624 0.97886914 0.20380828 0.064253934
-0.013784251 -0.13800484 0.73610145 0.0095531633 0.99977362 -0.019013092 0.00038767449
-0.026477341 -0.14015588 0.54774296 -0.0043699853 0.98513943 -0.17170079 0.013072983
0.0085501336 -0.15019514 0.88981372 -0.020773908 0.99070054 0.13446508 0.018430451
-0.02207561 -0.30201879 0.84605181 0.25338665 0.91245824 0.32127112 0.011410024
0.037979852 -0.1370271 0.83048975 0.0074952911 0.99858606 0.052627925 0.0045139678
0.045175709 -0.14309976 0.61149621 -0.0070161633 0.99972439 -0.022403175 0.004072967
-0.13825442 -0.24036993 0.90827805 0.23621666 0.11388031 0.96500409 0.14870505
-0.095435791 -0.13712299 0.7276035 -0.014514402 0.99984896 -0.009563623 0.0031598555
-0.081787616 -0.13797355 0.80599767 -0.001170585 0.99840558 0.056435503 0.016932046
-0.15217061 -0.13894662 0.62468773 -0.1520045 0.98837709 0.0022856803 0.018924767
-0.16456436 -0.19688241 0.90762424 -0.4011265 0.12989664 0.90676594 0.10499448
-0.22135112 -0.50142032 0.95800066 -0.53296328 0.63262612 0.5619024 0.040068131
0.056543291 -0.14349061 0.60413885 -0.013098531 0.99943715 -0.030883165 0.0041226735
-0.021795548 -0.14064947 0.54245371 -9.7798156e-06 0.98150343 -0.19144438 0.015068774
-0.044856049 -0.13873342 0.63347614 0.015670622 0.99978113 -0.01385585 0.00065831706
-0.053081717 -0.13735199 0.78929538 -0.0045673512 0.9999547 0.0083550215 0.0025715407
-0.0099495351 -0.1382001 0.69358087 0.015992844 0.99958211 -0.024079364 0.00069052796
-0.037825216 -0.13775711 0.80219877 -0.0014680839 0.99981016 0.019429734 0.0053539183
-0.024460532 -0.30182785 0.87230474 0.26601595 0.86189985 0.43169904 0.017530974
-0.12944259 -0.13726239 0.84001672 -0.084458753 0.98504567 0.15017246 0.043469019
-0.099081136 -0.13690569 0.7101047 -0.012518421 0.99991506 -0.003632427 0.0035612225
-0.091846302 -0.14029421 0.59245402 0.001521688 0.99900395 -0.044596128 0.00080239947
-0.027766224 -0.1374705 0.77091998 0.0058332742 0.99997842 -0.0030253928 0.0017825051
-0.15857613 -0.14309697 0.89124787 -0.34423167 0.84463972 0.4099859 0.1102168
-0.012575122 -0.13824607 0.71861285 0.011319783 0.99955326 -0.027658848 0.00054523349
-0.17282277 -0.19275847 0.90055972 -0.52292216 0.14854001 0.839338 0.09886574
-0.15631872 -0.1786626 0.90654016 -0.17309791 0.25518081 0.95127273 0.12023049
-0.035324696 -0.14240851 0.891927 -0.066267699 0.98552191 0.15606172 0.039894246
-0.17464666 -0.14303789 0.74939364 -0.21822394 0.97496623 -0.042651515 0.017797837
-0.15128124 -0.23892784 0.91316211 0.081806138 0.12458216 0.98883116 0.14861959
-0.18674381 -0.33645055 0.93074572 -0.34983525 0.26812994 0.89762002 0.040422443
-0.037981458 -0.14004739 0.89095485 -0.066267699 0.98552191 0.15606172 0.039894246
-0.16649675 -0.25887635 0.91638941 -0.32877958 0.34915718 0.87749261 0.12166813
-0.19910419 -0.3641226 0.93530875 -0.37080011 0.092793502 0.92406529 0.023900123
0.027037837 -0.30388638 0.84973168 0.048503995 0.98203087 0.18238056 0.0071866019
-0.13995385 -0.17713502 0.90574217 -0.027250536 0.23849954 0.97076017 0.11839445
-0.16170907 -0.22612526 0.91035748 0.00023521726 0.082054213 0.99662781 0.14523582
-0.13432634 -0.15109617 0.89993358 -0.088178985 0.70917052 0.69950104 0.1415935
-0.23276739 -0.51015294 0.96106505 -0.47990081 0.75976402 0.43869567 0.034330487
-0.13016835 -0.13639079 0.6518293 -0.077119656 0.99701869 0.0024918444 0.0094697205
-0.15209366 -0.14934401 0.89907062 -0.27859688 0.75639057 0.59182525 0.13714448
-0.13863808 -0.16274962 0.9038372 -0.046663385 0.38904476 0.9200362 0.13085207
-0.17417511 -0.14260757 0.76280749 -0.20327927 0.97837251 -0.038272109 0.012914749
-0.19185168 -0.31058335 0.92144048 -0.50274777 0.28982744 0.81439835 0.066042483
-0.1331304 -0.17941453 0.9050405 -0.022446275 0.21281298 0.97683513 0.1104699
-0.25543502 -0.49887344 0.85148478 -0.92602324 0.37731868 0.010565151 0.026002079
-0.055255499 -0.13860485 0.68130451 0.015055838 0.99968278 -0.020189317 0.0005527644
-0.22759122 -0.50739497 0.95865226 -0.53296328 0.63262612 0.5619024 0.040068131
-0.025673501 -0.13899614 0.57903546 0.021008275 0.99873465 -0.045692906 0.003798442
-0.021850867 -0.13872324 0.69405115 0.019500803 0.99955589 -0.022533951 0.00066256436
-0.14773816 -0.13833621 0.82559472 -0.18922226 0.97997451 0.062007554 0.018269088
-0.14669685 -0.13981795 0.87740326 -0.20248562 0.92414755 0.32396138 0.09278661
-0.04192644 -0.13701749 0.75251085 0.0034671123 0.99993986 -0.010410298 0.0003089263
-0.036373988 -0.13768037 0.7243737 0.012113134 0.99969411 -0.021561846 0.00052025175
-0.30621001 -0.50998658 0.77228469 0.16946137 -0.96481758 -0.20102201 0.029047355
-0.11675957 -0.13793688 0.77861714 -0.062500328 0.99801809 -0.0073241233 0.0029987076
-0.14417173 -0.13842143 0.69488007 -0.16022409 0.98698741 0.013568566 0.016220476
-0.051489811 -0.13741273 0.78770947 -0.0047266548 0.99995613 0.0080873203 0.0025083346
-0.010909051 -0.13978805 0.55075473 0.022160903 0.98687035 -0.1599867 0.013753628
-0.0022762427 -0.14223993 0.60080636 0.025981845 0.99956006 -0.014302247 0.00097056566
-0.089345746 -0.13634583 0.75201869 -0.011190725 0.9998973 -0.0089554228 0.0023311642
-0.28550664 -0.50455129 0.75619656 -0.65345359 0.74906325 0.10909921 0.092905343
-0.036848124 -0.13985066 0.56617618 0.0023062206 0.99124104 -0.13204502 0.0097107273
-0.3023876 -0.50709736 0.76410717 0.28209612 -0.93366039 -0.22068103 0.05208518
-0.10577895 -0.30185288 0.90309936 0.35322791 0.41619971 0.83785903 0.029762685
-0.11085159 -0.13655908 0.68714446 -0.032742884 0.99940687 -0.010672173 0.0038278997
-0.057640959 -0.14005722 0.83565491 -0.036761571 0.9921447 0.11957258 0.034022927
-0.066007696 -0.13772461 0.69150198 0.0054819905 0.99978042 -0.020223599 0.0023492936
-0.14751559 -0.26132679 0.91674846 -0.099351823 0.38231343 0.91867602 0.11999931
-0.16693786 -0.19728146 0.90711099 -0.49511209 0.13489094 0.85829395 0.098528564
-0.075986713 -0.14253438 0.54305261 -0.040469874 0.98017389 -0.19396247 0.0096166069
-0.033148069 -0.13682541 0.75890595 0.0028790748 0.99994004 -0.010564269 0.0003129481
-0.25389764 -0.49852526 0.87456566 -0.85506552 0.5015139 0.13170715 0.037762303
-0.027103975 -0.13729264 0.78901726 -0.0024926402 0.99992788 0.01174763 0.0042544645
-0.017695338 -0.13723661 0.81922972 -0.0075890296 0.99912697 0.041081622 0.0050471686
-0.016460091 -0.14076978 0.53976697 0.0045400448 0.97706383 -0.21289839 0.016146185
0.019530043 -0.1397222 0.70039165 0.003769258 0.99955648 -0.029538518 0.00087855698
-0.099770173 -0.36069015 0.94026953 0.074598096 0.23825088 0.96833444 0.013593004
-0.14753163 -0.32564336 0.93824995 -0.13007772 0.26912987 0.95427924 0.028886981
-0.13408618 -0.44428688 0.95446062 -0.019581966 0.18480444 0.98258024 0.010652483
-0.12742002 -0.13630432 0.64930105 -0.068008646 0.99768043 0.0029286335 0.0081800725
-0.14505975 -0.14874597 0.89796704 -0.16165239 0.8169657 0.55356622 0.12963791
-0.099090621 -0.1493243 0.89518166 -0.010166686 0.86043835 0.50945312 0.12404185
-0.096714504 -0.13659744 0.82476598 0.01835205 0.99313611 0.1155158 0.030422285
-0.1659583 -0.22561952 0.90992469 -0.2224189 0.1250044 0.96690422 0.13981283
-0.020680482 -0.13817911 0.72397327 0.010409798 0.99962634 -0.02527363 0.00049921754
-0.15736318 -0.25634721 0.91617483 -0.064456202 0.31738639 0.94610322 0.13296473
0.078398757 -0.14239453 0.52130741 -0.023357732 0.97498339 -0.22104722 0.0184607
-0.025227739 -0.13798194 0.73939466 0.0083899871 0.99979711 -0.018309817 0.00037607955
-0.16335587 -0.13806751 0.68021488 -0.26237628 0.96476167 0.019841259 0.026964325
-0.16379531 -0.18427871 0.90646487 -0.37713391 0.18959653 0.90654463 0.090321839
-0.26340139 -0.51301646 0.82167667 -0.82996947 0.54841864 0.10192034 0.051297564
-0.16565891 -0.13413131 0.76733083 -0.16260703 0.9865104 -0.018871635 0.0090747802
-0.11389644 -0.13797675 0.78162676 -0.050731555 0.99869591 -0.0057272082 0.002400879
-0.30165866 -0.50477934 0.74381506 0.37907055 -0.89341867 -0.24105734 0.078397371
-0.07512679 -0.2888568 0.8634603 0.55495 0.48327452 0.67710871 0.033370037
-0.05247188 -0.13830115 0.77361858 -0.0044527324 0.99996734 0.006740001 0.002402297
-0.14675507 -0.1409442 0.883407 -0.19384985 0.9106735 0.36482319 0.094215639
-0.18174897 -0.28805089 0.92124426 -0.54334623 0.31479383 0.77825427 0.054931924
-0.13687584 -0.13962367 0.59455156 -0.059517778 0.99565822 -0.071570121 0.0055853492
-0.11715782 -0.13990946 0.5839631 -0.024108013 0.99130511 -0.12935607 0.0064999321
-0.0072025205 -0.13686915 0.7937938 -0.0034512181 0.99997884 0.0055183112 0.0042651747
-0.073403008 -0.16208856 0.90091562 0.079208396 -0.19350496 0.97789663 0.13478619
-0.11453258 -0.13917091 0.6052857 -0.0096838865 0.99947649 -0.030868405 0.0010169114
-0.14604767 -0.17112884 0.90674996 -0.11602446 0.28006348 0.95294434 0.13337468
-0.032131001 -0.13735025 0.74514884 0.0063177668 0.99986351 -0.015265147 0.00033981114
-0.033782583 -0.14044026 0.62314272 0.019172307 0.9997375 -0.012541035 0.00072836736
-0.17478137 -0.13871378 0.62177128 -0.23640771 0.97128552 0.026755136 0.021783326
-0.14600539 -0.24857692 0.91591287 0.11401635 0.14302413 0.98312992 0.14984465
-0.17308582 -0.14201893 0.58237177 -0.21667565 0.96557409 -0.14393847 0.03341509
-0.13617064 -0.23754503 0.90622348 0.22022974 0.13253529 0.96640223 0.14888339
-0.1036175 -0.36087778 0.94012886 0.071003884 0.23979877 0.96822256 0.013361407
-0.16686679 -0.14249472 0.57763499 -0.1705137 0.96628743 -0.19290902 0.032820553
-0.21881901 -0.31638241 0.57546705 -0.88399976 0.37574932 0.2781311 0.052416664
-0.26506001 -0.48998454 0.5798263 -0.96891886 0.24116355 0.055102561 0.0054085855
-0.22812274 -0.38148588 0.76766157 -0.98290139 0.18198188 0.028062226 0.0047665285
-0.15772536 -0.13968423 0.55515587 -0.11661348 0.96574062 -0.23183262 0.024215726
-0.17905967 -0.14295042 0.64666057 -0.30980745 0.9496789 0.046145439 0.027322596
-0.17400099 -0.14174977 0.58602965 -0.24683881 0.96402323 -0.09863957 0.032749601
-0.17685857 -0.14500512 0.77279782 -0.22601005 0.9740926 0.0079375561 0.012508471
-0.13306427 -0.13668518 0.64568323 -0.10733321 0.99421334 0.0043915748 0.015688561
-0.30435103 -0.50987315 0.77244163 0.16946137 -0.96481758 -0.20102201 0.029047355
-0.20342517 -0.20267385 0.51923996 -0.71056271 0.34969643 -0.61058426 0.053857557
-0.24759841 -0.48595071 0.48488367 -0.59064084 0.27494168 -0.75865048 0.046213139
-0.20934889 -0.27817404 0.5631718 -0.78562367 0.42671522 0.4480063 0.14698009
-0.22526206 -0.31918064 0.5059014 -0.69008499 0.35483479 -0.63077319 0.097411744
-0.15652345 -0.14557809 0.5483532 -0.14503014 0.95677829 -0.25207475 0.029622931
-0.060857687 -0.17259204 0.49266854 -0.019383729 0.89592588 -0.4437806 0.011337302
-0.24024914 -0.43035397 0.4995046 -0.72765094 0.30958259 -0.6121133 0.036726002
-0.19381931 -0.18541352 0.63747948 -0.51542062 0.85428911 0.06731879 0.024404872
-0.18525691 -0.1401128 0.61827451 -0.28571182 0.95801413 0.024037207 0.021411739
-0.25280493 -0.42505699 0.54406977 -0.97107476 0.16031253 -0.17695652 0.018906282
-0.17159405 -0.13807997 0.67058915 -0.29769692 0.95360452 0.044888616 0.028934544
-0.11860611 -0.13938847 0.61874378 -0.016178476 0.99971777 -0.017392956 0.0011035831
-0.034564577 -0.13982391 0.56361103 0.0021127472 0.99078792 -0.1354056 0.0099452548
-0.17347309 -0.14077237 0.67688596 -0.29964146 0.95388275 0.017966835 0.029019406
-0.19469443 -0.3046715 0.58611053 -0.77612591 0.46416101 0.42682913 0.075724609
-0.11766424 -0.13984799 0.61289406 -0.016347904 0.99962199 -0.022105813 0.0011604754
-0.18607052 -0.15079503 0.66423929 -0.39553064 0.91485947 0.081164464 0.032335818
-0.089978635 -0.14025207 0.58642983 0.0010119423 0.99872923 -0.05038745 0.0010608295
-0.041630473 -0.14047454 0.5585503 -0.0054081562 0.98849344 -0.15116723 0.010568146
-0.25012916 -0.43158233 0.62424666 -0.98125237 0.15822108 0.11004477 0.0042329268
-0.023545746 -0.13966851 0.55760169 0.011339183 0.99047166 -0.1372492 0.010800343
-0.031182505 -0.13961883 0.5721311 -0.0027964676 0.99366087 -0.11238402 0.008777881
-0.15173116 -0.13773376 0.70358813 -0.17168331 0.98511273 -0.0088224495 0.016215237
0.082453795 -0.15829837 0.50686401 0.083535716 0.68961197 -0.71934497 0.10745997
-0.033468246 -0.14033885 0.62153363 0.01916567 0.99974537 -0.011909895 0.00073265057
-0.24036312 -0.41823083 0.69250917 -0.98599923 0.15344943 0.065259963 0.0043313825
-0.1760942 -0.14427975 0.77070022 -0.20275863 0.97922856 -0.00063413015 0.012026387
0.024008062 -0.14143127 0.64528745 0.0057401666 0.99969316 -0.024095574 0.0012520198
0.026431827 -0.1427927 0.64391941 0.0061419872 0.99968696 -0.024252826 0.0012436805
-0.009532555 -0.14048932 0.68396372 0.017787952 0.9995575 -0.023842001 0.00080007198
-0.17481697 -0.14399455 0.77498889 -0.20509347 0.97873676 0.0033111288 0.011862014
0.081575602 -0.13907197 0.63261217 -0.019013716 0.99931717 -0.031680856 0.0048797224
