# .PCD v0.7 - Point Cloud Data file format
VERSION 0.7
FIELDS x y z normal_x normal_y normal_z curvature
SIZE 4 4 4 4 4 4 4
TYPE F F F F F F F
COUNT 1 1 1 1 1 1 1
WIDTH 143
HEIGHT 1
VIEWPOINT 0 0 0 1 0 0 0
POINTS 143
DATA ascii
-0.198617 -0.79522705 1.2669811 -0.14136373 -0.95007122 -0.27817431 0.15087762
-0.17147145 -0.79349691 1.2762671 -0.14143829 -0.95011395 -0.27799052 0.15053739
-0.038241126 -0.78688955 1.0757228 0.59930694 -0.6908865 -0.40435991 0.029292194
-0.17804572 -0.79945761 1.2718146 -0.14143829 -0.95011395 -0.27799052 0.15053739
-0.036563188 -0.80002952 1.105678 0.52532589 -0.69835865 -0.48613566 0.041102409
-0.01876824 -0.7852456 1.1089302 0.52532589 -0.69835865 -0.48613566 0.041102409
0.28679734 -0.80458403 0.82601255 -0.01212914 -0.99973214 -0.019711334 0.015301283
-0.37781346 -0.76955628 1.4136213 -0.56494796 -0.62529594 0.53836668 0.14714627
-0.35722789 -0.78805846 1.4078133 -0.56494796 -0.62529594 0.53836668 0.14714627
0.01068366 -0.80248177 1.13929 0.53009677 -0.56602049 -0.63136214 0.035942223
-0.32693237 -0.81257385 1.1330031 -0.6376977 0.16972935 -0.75135446 0.10302797
-0.1755195 -0.8093878 1.2492956 -0.14143829 -0.95011395 -0.27799052 0.15053739
-0.34554705 -0.80842078 1.1522878 -0.6376977 0.16972935 -0.75135446 0.10302797
-0.32366666 -0.79865831 1.1302969 -0.6376977 0.16972935 -0.75135446 0.10302797
-0.34394613 -0.81136817 1.150367 -0.6376977 0.16972935 -0.75135446 0.10302797
0.30420187 -0.80294418 0.84483773 -0.011980543 -0.99973065 -0.019876963 0.015199113
0.26214328 -0.79973179 0.80856657 -0.068622731 -0.99577308 -0.061048288 0.015515653
0.28428361 -0.80549985 0.85004324 -0.01212914 -0.99973214 -0.019711334 0.015301283
0.24169953 -0.79449934 0.82699943 -0.068622731 -0.99577308 -0.061048288 0.015515653
0.26603201 -0.81234896 0.87701112 -0.01212914 -0.99973214 -0.019711334 0.015301283
0.24954815 -0.79822588 0.82272643 -0.068622731 -0.99577308 -0.061048288 0.015515653
0.27582854 -0.80362207 0.81170785 -0.037697945 -0.99888659 -0.028361959 0.017192196
-0.35008553 -0.7940914 1.40738 -0.56494796 -0.62529594 0.53836668 0.14714627
-0.031262845 -0.80589092 1.120072 0.52532589 -0.69835865 -0.48613566 0.041102409
0.31032395 -0.79844004 0.87691742 0.14041755 -0.99008185 0.0045649544 0.0079244766
-0.0028560529 -0.79307961 1.1284772 0.52532589 -0.69835865 -0.48613566 0.041102409
0.30431291 -0.80705661 0.81603295 -0.011980543 -0.99973065 -0.019876963 0.015199113
0.32578799 -0.79985112 0.87633061 0.15094098 -0.98805654 0.031000705 0.0085076801
0.30225527 -0.7995078 0.86726433 -0.011980543 -0.99973065 -0.019876963 0.015199113
0.26602378 -0.80455571 0.84469104 -0.01212914 -0.99973214 -0.019711334 0.015301283
-0.31473467 -0.79437286 1.1243178 -0.6376977 0.16972935 -0.75135446 0.10302797
-0.050142355 -0.79450315 1.0933214 0.52532589 -0.69835865 -0.48613566 0.041102409
-0.20243652 -0.77579206 1.2342786 -0.14136373 -0.95007122 -0.27817431 0.15087762
-0.19877873 -0.78425658 1.2478387 -0.14136373 -0.95007122 -0.27817431 0.15087762
-0.017086565 -0.77514952 1.1175867 0.52532589 -0.69835865 -0.48613566 0.041102409
-0.2011596 -0.78238577 1.2458495 -0.14136373 -0.95007122 -0.27817431 0.15087762
-0.21253373 -0.78176028 1.2423571 -0.14136373 -0.95007122 -0.27817431 0.15087762
-0.014359022 -0.77910459 1.1107954 0.52532589 -0.69835865 -0.48613566 0.041102409
-0.34334159 -0.76654601 1.4302368 -0.56494796 -0.62529594 0.53836668 0.14714627
-0.3678011 -0.77642447 1.4115845 -0.56494796 -0.62529594 0.53836668 0.14714627
-0.078758486 -0.23536472 1.4250189 -0.0068322462 -0.022288697 0.99972826 0.14986299
-0.36078203 -0.77620614 1.3833851 -0.56494796 -0.62529594 0.53836668 0.14714627
-0.17637886 -0.77492547 1.2661136 -0.14143829 -0.95011395 -0.27799052 0.15053739
-0.011052033 -0.78700012 1.1191512 0.52532589 -0.69835865 -0.48613566 0.041102409
0.17333908 -0.80772692 0.66236764 0.094852597 -0.99495757 0.032595128 0.026322708
-0.0077043581 -0.39596877 1.4246782 0.075942703 -0.60027254 0.79618186 0.072175644
0.019675879 -0.37619296 1.4247755 -0.12619925 -0.64212364 0.7561422 0.077188805
-0.018546797 -0.33591092 1.4613663 0.48955381 0.0263879 0.87157369 0.12603782
-0.03063958 -0.3387163 1.4348367 0.48893926 -0.0063635334 0.8722946 0.11934616
-0.013656176 -0.33788875 1.4712609 0.4387424 0.029753096 0.89812016 0.12711313
-0.044540688 -0.24570647 1.4263494 -0.0068322462 -0.022288697 0.99972826 0.14986299
0.22682227 -0.81449157 0.65899754 0.017307106 -0.99160445 0.12814449 0.021779353
0.1576273 -0.80503261 0.70495379 0.20861304 -0.96698344 0.14636788 0.038937695
0.20389239 -0.81759304 0.61327171 0.039688084 -0.99818772 0.045235921 0.015717303
0.17639135 -0.81856865 0.73807198 0.37212393 -0.90681416 0.19801982 0.10472701
0.18475837 -0.81735557 0.63721251 0.021713519 -0.99541408 0.093162805 0.013310162
0.20448957 -0.81956041 0.65018117 0.021663496 -0.99541837 0.093128651 0.013257483
0.12033939 -0.81320953 0.73588079 -0.28792301 0.83306241 -0.4723424 0.1189055
0.14131531 -0.81869841 0.73091543 0.37212393 -0.90681416 0.19801982 0.10472701
0.29439336 -0.80399305 0.86804575 -0.01212914 -0.99973214 -0.019711334 0.015301283
0.1546012 -0.8157413 0.70968062 0.31166229 -0.92312247 0.2251921 0.04686797
0.23848379 -0.81650835 0.57925105 -0.082851641 -0.98940879 -0.11918817 0.0050584795
0.2348896 -0.82425398 0.61139762 0.090172291 -0.99534357 0.034060065 0.012601014
-0.033384044 -0.3623139 1.4485605 0.273471 -0.21557762 0.93741125 0.14884247
-0.036419354 -0.36003318 1.4546824 0.273471 -0.21557762 0.93741125 0.14884247
-0.0074182311 -0.3997246 1.4180524 -0.04159604 -0.62959957 0.77580547 0.077508576
0.46480891 -0.81713313 0.73427355 0.28361481 0.88001156 -0.38097537 0.1311855
0.10467623 -0.81925166 0.73377895 -0.28792301 0.83306241 -0.4723424 0.1189055
0.47490427 -0.79912329 0.75640804 0.28361481 0.88001156 -0.38097537 0.1311855
-0.031658217 -0.3530564 1.4470483 0.44765493 -0.031900778 0.89363718 0.14772439
-0.0085050175 -0.37811255 1.4345241 0.1124757 -0.54054981 0.83375973 0.077583998
0.0059658671 -0.38096997 1.425106 -0.091712341 -0.5896641 0.80242443 0.084683076
-0.074414805 -0.38010129 1.4589881 0.032444615 -0.57036418 0.82075095 0.073410049
-0.06983766 -0.3709673 1.4493812 0.1221463 -0.53401268 0.83660662 0.071319275
-0.024187481 -0.35212079 1.4690514 0.27463463 -0.21505982 0.93719 0.14908151
0.0011929997 -0.39171249 1.4197872 -0.039803807 -0.62803084 0.77716976 0.072259054
-0.071804263 -0.25270602 1.4343262 -0.0068322462 -0.022288697 0.99972826 0.14986299
-0.045965724 -0.3645919 1.4515471 0.273471 -0.21557762 0.93741125 0.14884247
-0.0085314689 -0.39909852 1.4210236 0.075942703 -0.60027254 0.79618186 0.072175644
-0.059726629 -0.26187897 1.4326954 0.16165031 0.33118418 0.92961615 0.1231443
-0.041965585 -0.36016715 1.4380895 0.44765493 -0.031900778 0.89363718 0.14772439
-0.044520207 -0.36562577 1.4542242 0.27451152 -0.21532875 0.93716431 0.14915919
0.12444136 -0.83979219 0.72140592 -0.28792527 0.83329988 -0.47192207 0.11900038
0.19980796 -0.82728183 0.64716798 0.021663496 -0.99541837 0.093128651 0.013257483
0.16032228 -0.81471294 0.70126802 0.18076289 -0.97414935 0.13549118 0.034691781
0.15253788 -0.82457751 0.71654761 0.37198734 -0.90698433 0.19749673 0.10489365
0.21046105 -0.82097274 0.64853126 0.012099509 -0.99419296 0.10692959 0.015180918
0.4986175 -0.83104157 0.75606853 0.28361481 0.88001156 -0.38097537 0.1311855
0.49489939 -0.80973637 0.7189399 0.28361481 0.88001156 -0.38097537 0.1311855
0.46921057 -0.81667793 0.73155159 0.28361481 0.88001156 -0.38097537 0.1311855
-0.014704587 -0.4123292 1.425017 0.16409181 -0.49751642 0.85179293 0.08222048
0.011190722 -0.38787305 1.4542879 -0.091712341 -0.5896641 0.80242443 0.084683076
-0.085876286 -0.2600545 1.4453851 -0.0068322462 -0.022288697 0.99972826 0.14986299
-0.0018541659 -0.38666239 1.4485296 0.1124757 -0.54054981 0.83375973 0.077583998
-0.012188948 -0.40691504 1.4247971 0.058286894 -0.62386066 0.7793591 0.078637831
-0.0086279297 -0.39928415 1.4207722 0.075942703 -0.60027254 0.79618186 0.072175644
-0.03901371 -0.27229816 1.4365137 -0.11139739 0.2179369 0.96958452 0.079227179
-0.034999099 -0.25009879 1.429208 0.16165031 0.33118418 0.92961615 0.1231443
-0.022124628 -0.38537455 1.445675 0.1124757 -0.54054981 0.83375973 0.077583998
-0.02467332 -0.35503116 1.4675637 0.27463463 -0.21505982 0.93719 0.14908151
-0.0015000958 -0.39279035 1.4227508 -0.039803807 -0.62803084 0.77716976 0.072259054
-0.052260086 -0.2586526 1.4304675 0.16165031 0.33118418 0.92961615 0.1231443
-0.0051158667 -0.34488711 1.4743402 0.18299237 -0.38191196 0.90590125 0.13529094
-0.01634221 -0.34687364 1.4758636 0.29076841 -0.19456394 0.93680233 0.15594089
-0.036883898 -0.29415911 1.4256704 -0.5238868 0.059426315 0.84971237 0.041197475
-0.073467001 -0.26208892 1.4372461 0.16165031 0.33118418 0.92961615 0.1231443
-0.043216232 -0.28331816 1.4272416 -0.44565797 0.0041245157 0.89519382 0.059375361
-0.043739036 -0.29351771 1.4256997 -0.4908087 0.070416451 0.86841708 0.042995062
-0.023378724 -0.31661823 1.4570926 -0.3957181 0.026204485 0.91799808 0.072761007
0.14333129 -0.81416523 0.73497045 0.37212393 -0.90681416 0.19801982 0.10472701
0.16121733 -0.79579389 0.74939221 -0.28792301 0.83306241 -0.4723424 0.1189055
-0.19439383 -0.79413384 1.2667691 -0.14136373 -0.95007122 -0.27817431 0.15087762
-0.32497847 -0.80830151 1.1320153 -0.6376977 0.16972935 -0.75135446 0.10302797
-0.34447575 -0.82353491 1.1221087 -0.6376977 0.16972935 -0.75135446 0.10302797
-0.20134048 -0.7814827 1.2454834 -0.14136373 -0.95007122 -0.27817431 0.15087762
-0.21532993 -0.79594427 1.2665477 -0.14136373 -0.95007122 -0.27817431 0.15087762
-0.18952158 -0.78920728 1.2352165 -0.14136373 -0.95007122 -0.27817431 0.15087762
-0.22545539 -0.80094016 1.2686561 -0.14136373 -0.95007122 -0.27817431 0.15087762
-0.040422872 -0.7904048 1.0847015 0.52532589 -0.69835865 -0.48613566 0.041102409
-0.024839584 -0.79130965 1.1096963 0.52532589 -0.69835865 -0.48613566 0.041102409
-0.03367614 -0.80724865 1.1273917 0.52532589 -0.69835865 -0.48613566 0.041102409
-0.03587693 -0.78538495 1.0733762 0.59930694 -0.6908865 -0.40435991 0.029292194
0.15061678 -0.84142542 0.70998937 0.37198734 -0.90698433 0.19749673 0.10489365
0.25878829 -0.81471312 0.56978512 -0.073754713 -0.98450303 -0.15910369 0.0056248279
0.45303181 -0.83037329 0.701334 0.28361481 0.88001156 -0.38097537 0.1311855
-0.35630357 -0.78270388 1.4145241 -0.56494796 -0.62529594 0.53836668 0.14714627
-0.37821549 -0.78434855 1.4144406 -0.56494796 -0.62529594 0.53836668 0.14714627
-0.36331391 -0.76487732 1.4247133 -0.56494796 -0.62529594 0.53836668 0.14714627
-0.35080904 -0.80939353 1.4060806 -0.56494796 -0.62529594 0.53836668 0.14714627
-0.35019588 -0.79714519 1.3960135 -0.56494796 -0.62529594 0.53836668 0.14714627
-0.17605285 -0.79712445 1.2693093 -0.14143829 -0.95011395 -0.27799052 0.15053739
0.14374039 -0.81545126 0.74150485 -0.28792301 0.83306241 -0.4723424 0.1189055
0.17109649 -0.81647301 0.62978548 0.0053914716 -0.98833203 0.15221938 0.017031919
-0.34732357 -0.79378194 1.1530747 -0.6376977 0.16972935 -0.75135446 0.10302797
-0.34153622 -0.78087687 1.1320354 -0.6376977 0.16972935 -0.75135446 0.10302797
-0.33199751 -0.8191157 1.1347355 -0.6376977 0.16972935 -0.75135446 0.10302797
0.2277904 -0.81658661 0.56774747 -0.073754713 -0.98450303 -0.15910369 0.0056248279
-0.18136176 -0.80580854 1.2349626 -0.14143829 -0.95011395 -0.27799052 0.15053739
0.238625 -0.80615371 0.66640311 -0.02124173 -0.97946453 0.20049421 0.029438391
-0.34387818 -0.82462233 1.1377448 -0.6376977 0.16972935 -0.75135446 0.10302797
0.47882259 -0.82100344 0.73020041 0.28361481 0.88001156 -0.38097537 0.1311855
-0.31808931 -0.80790395 1.1298376 -0.6376977 0.16972935 -0.75135446 0.10302797
-0.033217721 -0.2685703 1.463334 -0.11139739 0.2179369 0.96958452 0.079227179
