# .PCD v0.7 - Point Cloud Data file format
VERSION 0.7
FIELDS x y z
SIZE 4 4 4
TYPE F F F
COUNT 1 1 1
WIDTH 725
HEIGHT 1
VIEWPOINT 0 0 0 1 0 0 0
POINTS 725
DATA ascii
0.33637539 -0.392719 1.108206
0.34006119 -0.51705438 1.143564
0.7452361 -0.8198666 1.312861
-0.1986129 -0.79128551 1.269299
-0.1571748 -0.79758859 1.297529
-0.16670591 -0.80814648 0.94574082
0.32902721 -0.38018629 1.091339
0.2313377 -0.27112189 1.019286
0.33527449 -0.36325851 1.101837
0.2210588 -0.7272898 1.021062
0.33163089 -0.49664459 1.107708
0.20798071 -0.73903221 0.99438143
0.1605268 -0.81139702 0.96613657
-0.17360111 -0.79651833 1.2799309
-0.0400794 -0.78155059 1.077294
-0.01226971 -0.81626302 1.061838
0.33556551 -0.3463302 1.10308
0.32179731 -0.2728751 1.111852
-0.1781183 -0.79739171 1.273899
-0.194313 -0.80263448 0.93189049
-0.1790925 -0.80456132 0.95529222
-0.042705391 -0.79444343 1.108709
0.1946359 -0.74108171 1.014619
-0.01504597 -0.78920811 1.106588
0.2416455 -0.46593291 1.023167
0.28682911 -0.80370009 0.82600439
-0.38201869 -0.77442253 1.412043
0.29130581 -0.73415488 1.079304
-0.355149 -0.78543448 1.405547
0.01068366 -0.80248177 1.13929
-0.32133141 -0.81290269 1.1369261
-0.17344999 -0.80763382 1.248992
-0.3385781 -0.80465108 1.161494
-0.31652239 -0.79640013 1.136655
-0.1244825 -0.81713313 1.022406
-0.33918029 -0.81046933 1.155039
-0.30173481 -0.81815749 1.160913
-0.34843379 -0.8014766 1.393931
0.375135 -0.37585729 1.114768
0.30410641 -0.80160999 0.8446548
0.2320721 -0.79885173 0.80405122
0.26094559 -0.80439568 0.80799723
0.3654125 -0.79239953 0.92773741
0.28353259 -0.80301052 0.85002178
0.2433181 -0.79089677 0.82761532
0.281073 -0.80049098 0.9103266
0.28723401 -0.80071813 0.80227959
0.26812911 -0.8167401 0.87711549
0.248988 -0.80040711 0.82246017
0.27603269 -0.80259311 0.81172502
-0.35035709 -0.79443419 1.407676
-0.26928341 -0.80686122 1.100006
0.2419765 -0.58537978 1.0318021
-0.032933321 -0.80425072 1.1217459
0.31034759 -0.79668462 0.8767035
0.2481631 -0.80507839 0.91954517
0.18367501 -0.80038059 1.0073
0.42923269 -0.80802321 1.0565391
0.13108981 -0.80292362 0.95487279
0.3306959 -0.80175477 0.93944943
0.1412638 -0.80350161 0.95673013
0.15563899 -0.79623133 0.93446332
0.1755909 -0.79792857 0.96872079
0.21123581 -0.7978723 1.005975
0.194188 -0.79215878 0.96724212
0.1632802 -0.8175742 0.94614649
0.27065909 -0.80491102 0.79666412
0.2943131 -0.73254079 1.071036
0.14599399 -0.81115329 1.0260071
-0.0021788781 -0.79368609 1.1274821
0.3040719 -0.80896628 0.81622678
0.3256118 -0.80193633 0.87655318
0.36149919 -0.80287468 0.98600012
0.3262251 -0.79700983 0.91743052
0.30233541 -0.79355228 0.86653858
0.26599169 -0.80955547 0.84393018
0.2468085 -0.64000332 1.047141
0.094968908 -0.80885911 0.9931258
0.16982991 -0.76980197 1.0778461
-0.08251217 -0.2764833 1.3352619
0.003671095 -0.83443737 1.110873
-0.12172 -0.81234193 1.265792
-0.1737491 -0.81553513 0.96534371
-0.080129549 -0.76726162 1.093696
-0.2235765 -0.81005388 1.3564121
-0.28866789 -0.71584618 1.280826
-0.3409529 -0.82617283 1.442481
-0.31451529 -0.79420221 1.124776
-0.40005779 -0.81158727 1.195358
0.34124249 -0.37697709 1.113523
-0.04994363 -0.79683572 1.092436
-0.2019311 -0.77546221 1.2343431
-0.19354831 -0.77880448 1.247726
-0.01531315 -0.7745946 1.112118
-0.1951666 -0.77574933 1.245481
-0.21309499 -0.77498817 1.246261
-0.37855801 -0.61035877 1.50253
-0.01692819 -0.77657092 1.113433
-0.34182861 -0.7644347 1.427018
-0.36647779 -0.77475423 1.4101419
-0.079057947 -0.2369193 1.422353
-0.35993269 -0.77536547 1.383737
-0.16357359 -0.79391807 1.204028
-0.1212152 0.03019275 1.479179
-0.1789618 -0.77325732 1.268914
-0.1069494 0.03913781 1.475829
-0.1034705 -0.1480273 1.464426
-0.2238833 -0.77859563 1.020245
-0.01732778 -0.78036958 1.1301219
-0.21985491 -0.75532138 1.23037
0.26292241 -0.2476548 1.126888
-0.1636245 -0.2318496 1.466235
0.28203279 -0.27150741 1.0830899
0.46797839 -0.80564839 0.3935017
0.13783979 -0.77842373 0.67202258
0.1733209 -0.80779183 0.66239351
0.56478691 -0.80892158 0.27560359
0.26603049 -0.80123627 0.54908001
0.5188024 -0.79509169 0.33263549
0.16181611 -0.77154762 0.66645491
0.096477523 -0.79713261 0.70923787
0.24241599 -0.81382138 0.55736232
0.3070766 -0.81157708 0.5068782
0.3239384 -0.3706964 1.050588
0.61251283 -0.72776723 0.24655411
0.31097859 -0.3294538 1.098549
0.1946115 -0.2627033 1.0071959
0.2022628 -0.28041849 0.9973976
-0.1173012 0.053690098 1.491258
0.70358151 -0.84010619 0.45007771
0.30544811 -0.29981509 1.044275
0.74256277 -0.86162812 0.29670179
0.2821666 -0.26897019 1.085629
0.59068561 -0.79256368 0.40336421
0.65922928 -0.80982488 0.46265149
0.30384839 -0.36117429 1.085875
0.51262718 -0.75870937 0.42215049
0.58952618 -0.86177373 0.2149165
0.31849411 -0.34534389 1.069069
0.68691182 -0.8055079 0.28790891
0.6427694 -0.81885588 0.47928539
0.56741452 -0.90928912 0.215275
0.4888061 -0.72624469 0.45188129
0.29714429 -0.39915949 1.0085911
0.19996031 -0.28509101 0.99860662
-0.1461599 0.03437328 1.448578
-0.14415529 0.032975059 1.466801
0.19911 -0.29113159 0.95881468
0.202961 -0.27948841 0.95940739
-0.71386921 -0.82226157 1.372527
0.3182404 -0.412357 1.025812
0.31081191 -0.37228879 1.0265861
0.66290551 -0.83979779 0.35102591
-0.66046518 -0.81853998 1.400485
0.44088721 -0.51116502 0.91811281
0.45748749 -0.85652459 0.33128929
0.51676297 -0.85355759 0.30061451
0.52057248 -0.86452627 0.32776889
0.5749681 -0.86597031 0.2814565
0.63575143 -0.8570407 0.30460161
0.65484959 -0.94774002 0.34831771
0.68340212 -0.86017591 0.3428469
0.70235741 -0.8458398 0.41551709
0.70011717 -0.86887312 0.28528541
0.29518351 -0.26914939 1.031334
0.2387656 -0.3972401 1.167677
0.43263769 -0.83200037 0.33174899
0.4904952 -0.84580988 0.3440299
0.54536718 -0.88554281 0.2244875
0.4852564 -0.39917201 1.188653
0.61435997 -0.86002511 0.27333021
0.67676568 -0.84944862 0.27946341
0.1038193 -0.27423689 1.253029
-0.0122295 -0.3922509 1.415064
0.023759101 -0.38232061 1.423911
-0.092928268 0.052107431 1.495095
-0.01337005 -0.33830771 1.458748
-0.032617431 -0.33746529 1.435241
-0.01376976 -0.3378275 1.4713269
-0.043350529 -0.24272791 1.43411
0.2266899 -0.81465638 0.659392
0.3588317 -0.81763732 0.79393488
0.33767119 -0.81291068 0.74258858
0.1624413 -0.80466741 0.70704049
0.1190656 -0.81653702 0.6561079
0.2056064 -0.80332911 0.72602731
0.45413271 -0.80416751 0.97055328
0.6813218 -0.79306722 1.2034431
0.2045756 -0.8132593 0.61442763
0.17497879 -0.8250466 0.74293739
0.33022219 -0.80633092 0.90793347
0.2853699 -0.80772328 0.63844693
0.4048875 -0.80409437 0.78460008
0.68497801 -0.79611331 1.1119879
0.66318458 -0.80177331 1.184932
0.1830989 -0.82220072 0.63712507
0.1181745 -0.85068321 0.57354861
0.2043398 -0.82054639 0.65033787
0.47644809 -0.82675147 0.81281477
0.2245571 -0.8145293 0.83228779
0.2596944 -0.82166982 0.86988962
0.1211609 -0.81006479 0.72514611
0.14267039 -0.82278287 0.73365068
0.2181551 -0.8033396 0.79889637
0.29404891 -0.80288649 0.86821717
0.1582505 -0.81400102 0.71034229
0.26773649 -0.82268602 0.88710493
0.33982459 -0.80202693 0.76950622
0.6723457 -0.77988023 1.192216
0.71207708 -0.80529922 1.112358
0.2382852 -0.81263041 0.58004433
0.73497349 -0.79762799 1.112002
0.35947439 -0.80213141 0.80027199
0.52123302 -0.8143512 0.96312392
0.2348896 -0.82425398 0.61139762
0.71434498 -0.791363 1.124662
-0.035230331 -0.35723719 1.443426
-0.037620891 -0.3589527 1.455366
-0.0085701104 -0.39806911 1.417272
0.34546781 -0.83057749 0.56580001
0.4376547 -0.80083013 0.85210258
0.59268308 -0.7638346 1.00667
0.2895816 -0.82942599 0.51348883
0.34689951 -0.81533909 0.54536849
0.74599433 -0.80456758 0.96703118
0.43246809 -0.82046783 0.64663231
0.6440109 -0.79225808 1.05758
0.49852341 -0.82548368 0.76338202
0.63391322 -0.81732053 0.84219152
0.42298511 -0.80961752 0.63051063
0.71301907 -0.81221652 0.98359448
0.34216741 -0.83042568 0.61771673
0.7315914 -0.80929178 0.9808526
0.53927273 -0.82007849 0.83369583
0.44738191 -0.83318752 0.68098772
0.28394809 -0.2716096 1.054145
0.4653582 -0.81864738 0.73490858
0.45290589 -0.80253822 0.87959391
0.58258581 -0.8083002 0.9535495
0.4500486 -0.82691932 0.82579648
0.68062657 -0.80728441 1.069243
0.60975927 -0.81922209 0.87670499
0.35618129 -0.83413458 0.67457712
0.46070331 -0.82386172 0.78494507
0.64744061 -0.81451273 0.94461709
0.41634649 -0.81828469 0.71507102
0.56921411 -0.81277293 0.81699097
0.70360982 -0.77862197 1.135633
0.50542837 -0.80771393 0.90999192
0.6869697 -0.80378222 0.95926303
0.53111899 -0.82670248 0.8634032
0.47632509 -0.83534908 0.73141718
0.64336091 -0.80231178 0.99790901
0.330452 -0.81476128 0.82600701
-0.04078076 -0.1938926 1.428637
0.60139 -0.78826088 0.71066761
0.72157508 -0.80161762 0.96346539
0.2547082 -0.80370951 0.71311861
0.025103111 -0.79702407 0.79155701
0.31103271 -0.79240048 0.75823861
-0.1239481 -0.80195719 0.63398999
-0.0099512842 -0.86389017 0.75982249
0.1046386 -0.8210178 0.74021739
-0.25656429 -0.78476381 0.4871136
0.01272468 -0.80903208 0.75786072
-0.1253655 -0.83018953 0.61766791
0.31170231 -0.82817668 0.92383802
0.60215902 -0.78909087 0.76814049
0.65875119 -0.79250848 0.84901023
0.47045341 -0.78899562 0.93776798
0.47525999 -0.79884559 0.75609428
0.69578159 -0.80591178 0.91818029
-0.063633427 -0.145118 1.477767
0.56853849 -0.79106247 1.006472
0.3061263 -0.39007029 1.0489039
-0.1273624 -0.2366188 1.442201
-0.1029369 -0.210265 1.4453321
0.42191619 -0.81563121 1.0246691
-0.1113395 -0.1882426 1.4384429
-0.023055 -0.34696141 1.435987
-0.66957688 -0.82110691 0.52124298
0.66079062 -0.77461141 1.166499
0.6627261 -0.76684159 1.180508
0.65568358 -0.76262343 1.199056
0.29034531 -0.40270221 1.037307
-0.182916 -0.85550231 0.61411768
-0.1676397 -0.84128273 0.60161489
-0.2495867 -0.84830332 0.5217126
-0.32231891 -0.84042418 0.46784511
-0.7379176 -0.78251833 0.33862379
-0.335673 -0.84159547 0.42796639
-0.1466945 -0.84470427 0.60657078
0.43507519 -0.81424809 0.94333369
0.484092 -0.81090063 1.034307
0.45296231 -0.81165212 1.003279
0.42175761 -0.81391472 0.97209042
0.40754569 -0.81568593 0.95784211
0.082921483 -0.38282529 1.322646
0.0074549718 -0.27588931 1.315745
0.1650968 -0.27575219 1.181481
0.111757 -0.2641829 1.263352
-0.0087213134 -0.37875801 1.435876
-0.083372153 -0.38028771 1.450891
0.0088842465 -0.3830232 1.424051
-0.075077221 -0.37837929 1.460674
-0.069197252 -0.37268859 1.448301
-0.1246041 0.050137181 1.479262
0.044622831 -0.4135927 1.283267
-0.19928791 -0.2355015 1.400696
-0.027581111 -0.34959009 1.4711
-0.049368769 -0.23340151 1.4123141
-0.003741048 -0.3835066 1.418288
-0.071544044 -0.25170389 1.436018
-0.049894091 -0.3598989 1.45187
-0.01182807 -0.3943606 1.41879
0.02201833 -0.24395449 1.387709
0.1316395 -0.35114151 1.34442
-0.03445581 -0.2898916 1.489154
-0.059471291 -0.26178119 1.4338599
-0.046734199 -0.35679999 1.439118
0.04636291 -0.37695459 1.436409
-0.04271489 -0.3726663 1.461428
0.29086569 -0.40588021 1.044764
0.41550961 -0.82976168 1.025279
0.2402897 -0.85012019 0.85919583
0.67242008 -0.79197609 1.186216
0.1251186 -0.84305322 0.72617662
0.4388299 -0.83515882 0.95673537
0.4539451 -0.83312201 0.97398949
0.33511549 -0.81990957 0.85586852
0.1847803 -0.84060109 0.81493682
0.45555601 -0.79455107 0.93998462
0.54659063 -0.82688272 1.0222321
0.3462621 -0.79572892 0.83312988
0.4762252 -0.82776082 0.95147449
0.69606 -0.81516761 1.138523
0.442568 -0.83463973 0.91479081
0.2234858 -0.84414113 0.68703282
0.4671739 -0.8325935 0.98991191
0.68262267 -0.82761139 1.121907
0.35561961 -0.84332043 0.93668008
0.2239767 -0.85008061 0.80595821
0.15250731 -0.85248458 0.61130118
0.69368428 -0.82221472 1.112879
0.2539255 -0.83341181 0.69275528
0.27316171 -0.83958107 0.72779799
0.30913731 -0.84202027 0.74546498
0.14041319 -0.86154062 0.72040921
0.5896517 -0.79339051 1.008041
0.2063863 -0.83917367 0.64206922
0.2685163 -0.79497999 0.687554
0.40690601 -0.84520131 0.82614392
0.60094112 -0.82928121 0.99293989
0.4839865 -0.84800577 0.88940918
0.67566872 -0.83054882 1.058296
0.31451339 -0.84255397 0.72474802
0.69364738 -0.81706989 1.071014
0.43613341 -0.84973627 0.81047988
0.26694289 -0.83652061 0.61305279
0.66408807 -0.82230037 1.014894
0.2090863 -0.85271913 0.54366261
0.58925849 -0.82464713 0.91931158
0.63869369 -0.81407249 1.0439529
0.039933261 -0.41294891 1.306553
0.15231711 -0.81552619 0.69724292
0.2248372 -0.84212363 0.59226602
0.3382099 -0.8452853 0.54851842
0.6506353 -0.81687099 1.031666
0.72280341 -0.81029958 0.95705968
0.42167389 -0.81259042 0.54709721
0.16183139 -0.85795122 0.68502033
0.1626531 -0.83784109 0.71410632
0.2201139 -0.84086531 0.66230953
0.73518097 -0.80848938 0.96053338
0.40518779 -0.7676006 0.56704462
0.2101125 -0.820494 0.64875448
0.73555052 -0.81662643 0.97579533
0.72726732 -0.83745861 0.87623471
0.33389279 -0.81976622 0.55805022
0.62802589 -0.84035629 0.82616001
0.34154129 -0.82509291 0.53080791
0.4440836 -0.80221379 0.65605909
0.28566751 -0.83512151 0.50291198
0.37947741 -0.8164373 0.60682029
0.25594091 -0.83137381 0.57922292
0.4986175 -0.83104157 0.75606853
0.59292281 -0.79528362 0.9614476
0.3549346 -0.81404221 0.78820759
0.50603408 -0.79903227 0.9206773
0.534872 -0.79435629 0.97197998
-0.1319204 -0.81066722 0.62980682
0.39695549 -0.83904082 0.83389288
0.1993503 -0.84247673 0.81796831
0.69326627 -0.82178479 0.90712261
0.56806529 -0.82943201 0.71097481
0.57444549 -0.82825488 0.9045682
0.64641547 -0.82481807 0.82654083
0.71088427 -0.828197 0.97387201
0.48626381 -0.81855559 0.71323502
0.71376163 -0.80114102 1.119478
0.55269313 -0.8047089 0.8417415
0.65201509 -0.84770483 0.77238542
0.41970491 -0.81801111 0.62115109
0.67877477 -0.83104712 0.8721326
0.41891009 -0.81303412 0.58941603
0.49493411 -0.80970043 0.71902722
0.57545799 -0.84625977 0.72496128
0.34802499 -0.82313633 0.61781079
0.42846039 -0.80453038 0.72088349
0.71316648 -0.79969388 0.78929532
0.62330562 -0.81297249 1.0018179
0.36235121 -0.82925022 0.67372721
0.57419997 -0.81803012 0.76782012
0.56983852 -0.81404048 0.90937692
0.51875722 -0.80773431 0.73573917
0.50127858 -0.84417552 0.66432548
0.71003348 -0.82592249 0.856094
0.45084941 -0.80909461 0.8778252
0.44890851 -0.82638037 0.60967141
0.59952718 -0.81427151 0.85942441
0.49339131 -0.85026711 0.5567975
0.46895239 -0.81596613 0.73125309
0.65010399 -0.81765282 0.94085419
0.59214282 -0.79690528 0.90889579
0.27289951 -0.27915019 1.0481369
0.59561849 -0.80171382 0.89049691
0.02628844 -0.43389681 1.3143671
-0.01253942 -0.41331291 1.425566
-0.095806003 -0.2774289 1.421548
-0.1030888 -0.38389719 1.4740421
0.01082986 -0.3823404 1.455067
-0.086168759 -0.26055971 1.44476
-0.083873667 -0.2334436 1.464191
-0.1107499 -0.1807549 1.461946
-0.101192 -0.25220481 1.467145
0.52361101 -0.81869328 1.073421
0.63078099 -0.83333588 1.18414
0.00455481 -0.39692831 1.451636
-0.007187942 -0.4091872 1.426065
-0.1019818 -0.2992796 1.440411
-0.081800088 -0.39316681 1.445183
0.084860519 -0.28440869 1.261714
0.65973037 -0.48465681 1.3407151
-0.73705178 -0.86213982 0.51300782
0.66284162 -0.48032609 1.337512
0.58758241 -0.81580979 1.200171
0.56370282 -0.81935889 1.175439
-0.63817692 -0.85457689 0.43927369
0.57778662 -0.83099449 1.1770279
0.61399609 -0.8278293 1.161245
0.55714428 -0.8174088 1.103063
-0.0029694531 -0.40741661 1.424606
-0.025639201 -0.26967531 1.429672
0.1004692 -0.38793901 1.314798
-0.035600409 -0.25001839 1.42549
0.184742 -0.39633891 1.2376111
0.076679833 -0.39080659 1.337422
0.064834587 -0.3731944 1.46842
-0.02947039 -0.39085901 1.443632
-0.066399731 -0.040866569 1.4881409
0.1921114 -0.39509639 1.243716
0.1483244 -0.4016754 1.2691441
0.2335384 -0.39334211 1.185655
0.25845209 -0.38740781 1.16458
-0.094526887 0.03881219 1.499702
-0.070520058 -0.018762469 1.498558
-0.05430714 0.028335851 1.5008661
-0.046086531 0.03311814 1.48616
0.04026711 -0.39066911 1.38903
-0.072235867 0.02047864 1.487949
-0.06200533 -0.39488739 1.472611
-0.031955179 -0.35154909 1.474859
-0.0030268419 -0.39025119 1.422287
0.00086697651 -0.31915501 1.485407
-0.05280653 -0.25871691 1.428068
0.1167906 -0.28128079 1.267976
-0.066619612 0.02338082 1.500504
-0.066472717 0.01316297 1.494598
-0.086829983 0.033275709 1.495849
-0.086674742 -0.0537779 1.492378
-0.086938627 -0.079515152 1.488531
-0.1255278 -0.1016973 1.4914
-0.12960149 -0.1063163 1.489709
-0.31539649 -0.27112511 1.4813941
-0.0038537739 -0.34579331 1.471419
0.041504651 -0.39249349 1.470366
-0.01263841 -0.34859869 1.4740061
-0.083262041 0.001606533 1.491667
-0.091720402 0.039029099 1.499501
-0.092731431 0.001512322 1.498462
-0.067356162 0.001412077 1.4834909
-0.036757719 -0.29384801 1.423175
-0.068290867 -0.28824061 1.475551
-0.070940897 0.006339401 1.497506
0.1666123 -0.3968423 1.333123
-0.079733759 0.017013419 1.487836
0.05032558 -0.3810046 1.443622
-0.094121933 0.022846 1.493348
0.02010813 -0.348537 1.470533
0.071770318 -0.3871533 1.435328
-0.049673691 -0.30327421 1.469679
-0.072786473 -0.2614437 1.439939
-0.044078231 -0.28476641 1.429903
-0.04375653 -0.29346329 1.42536
-0.028364049 -0.3168335 1.458884
0.273323 -0.27503291 1.079322
-0.1562091 -0.85652882 0.93621641
0.2236191 -0.70413828 0.95809132
0.2608768 -0.74221802 0.79155159
0.55839199 -0.86487138 0.6026485
0.2037535 -0.28192791 0.99538422
0.1854334 -0.77547479 0.73313153
0.31115451 -0.80826563 0.59898198
0.144759 -0.81827629 0.73967397
0.1367633 -0.78192991 0.78151292
0.05820493 -0.80448729 0.76375562
0.34736291 -0.76147038 0.59856403
0.2064593 -0.86819792 0.6066969
-0.02165205 -0.72404587 1.178022
-0.01023955 -0.73547077 1.178773
0.16138721 -0.79554093 0.74864697
-0.1666975 -0.72029811 1.331077
0.2132681 -0.78472948 0.68044758
0.41318759 -0.81656688 0.6235429
-0.1943831 -0.79409409 1.266782
-0.32851639 -0.8086952 1.1279531
0.37729901 -0.82682472 0.6914618
0.39831379 -0.84251219 0.80931902
-0.34337229 -0.82602888 1.122016
-0.20246971 -0.78321362 1.244145
0.63573521 -0.81669569 0.55550128
0.27819109 -0.76984209 0.85709351
-0.2153561 -0.79785401 1.265308
0.38964221 -0.7461133 0.62545347
-0.19375759 -0.79313213 1.2329741
-0.2253646 -0.80137438 1.268311
-0.039916068 -0.79700488 1.082304
-0.049736649 -0.8212319 1.103151
-0.01375451 -0.80289519 1.102523
-0.03182907 -0.80965722 1.126431
-0.035790179 -0.7856369 1.073302
0.3641386 -0.82173347 0.53710502
0.50739598 -0.77671129 0.4024283
0.50200689 -0.73434031 0.38603109
0.38003039 -0.8119607 0.47562721
0.1546661 -0.8426109 0.71270281
0.27750501 -0.83952951 0.52314979
0.2038936 -0.7560578 0.83556128
0.66964799 -0.82488072 0.36638799
-0.4881832 -0.8294183 0.93205643
-0.41423759 -0.78723931 1.208015
0.01071999 -0.85186148 1.1112731
0.46160901 -0.79476732 0.55858779
-0.34834021 -0.76858318 0.82205451
0.076979317 -0.79338109 0.71215338
0.50045842 -0.82741368 0.5180915
0.38599691 -0.85375392 0.41643119
-0.35911131 -0.78702199 1.153589
0.37649381 -0.82070023 0.51499468
0.01586131 -0.84171081 0.78310329
0.25878829 -0.81471312 0.56978512
0.3999868 -0.79666448 0.86223292
0.1519202 -0.81120551 1.00263
0.45299941 -0.83041972 0.70136708
0.6873033 -0.77907407 0.31590971
0.1498573 -0.83662248 0.32345209
0.2260835 -0.89432943 0.56848139
-0.37362781 -0.79216272 1.168461
-0.1785744 -0.74311942 1.289346
0.52320439 -0.80578732 0.54057789
0.46606499 -0.94885349 0.38589609
-0.35670409 -0.78817832 1.423267
-0.37749749 -0.78853041 1.422426
-0.47374901 -0.78524917 1.291123
-0.35485131 -0.78388029 1.4453011
0.56451309 -0.81171131 0.45780751
-0.6505574 -0.83914667 0.78324598
-0.52108133 -0.82856327 0.67033678
-0.4882434 -0.81211609 0.64321381
-0.36334181 -0.76511753 1.425141
-0.35234109 -0.80983251 1.404955
-0.38176221 -0.80492228 1.427667
-0.35267901 -0.79853362 1.394991
-0.4538832 -0.79303819 1.250353
-0.1548757 -0.76105481 1.017555
-0.4850961 -0.83085889 1.264083
-0.50339448 -0.82694358 1.2818381
0.1249158 -0.75726467 0.7961095
-0.4446488 -0.83054441 0.62456858
0.53093278 -0.79556 0.65349603
-0.3882046 -0.7635591 1.491444
-0.3207117 -0.82735968 1.4300489
0.2245474 -0.78210932 0.57689428
-0.64184147 -0.81731439 1.123273
-0.34871179 -0.75766343 0.86738157
-0.50024688 -0.78464782 0.69662851
0.3546806 -0.75654608 0.69408232
-0.4921158 -0.7932784 1.286801
-0.1795859 -0.80543852 1.272449
0.096452586 -0.80576313 1.012494
-0.33920431 -0.78322518 0.81764811
-0.4997485 -0.76607668 1.009801
-0.51423901 -0.86715817 0.94693542
-0.6211291 -0.78192401 0.81284249
0.2156036 -0.77719218 0.9277724
-0.1137082 -0.80130982 0.97259903
0.64546752 -0.85060281 0.33808431
0.2082784 -0.79210979 0.77637517
0.3002781 -0.76779068 0.66466779
0.41204959 -0.77682722 0.7631923
0.61285681 -0.86571091 0.24077579
0.49479941 -0.91985309 0.3264524
0.26487029 -0.65622848 0.9405306
0.1209505 -0.77135581 1.053648
-0.4899469 -0.78603911 1.307497
0.40447319 -0.75084782 0.77678221
0.26291019 -0.90075129 0.5762791
-0.1603339 -0.81920642 1.216188
0.3264657 -0.80479687 0.87712622
0.63236922 -0.76169401 0.3721166
-0.72693002 -0.86096478 0.4758805
0.50620639 -0.68851382 0.2174893
0.41958171 -0.54067647 0.2113218
0.6528396 -0.75630051 0.2854954
0.29048041 -0.81983858 0.50482982
0.46691701 -0.65633053 0.26024869
-0.52670628 -0.8107363 0.67836058
0.29025471 -0.78352278 0.61513889
0.1425297 -0.81144208 0.74104297
0.55255443 -0.78794771 0.3461681
0.25577641 -0.78832048 0.65040487
0.63360518 -0.82567698 0.2357956
0.41654071 -0.76439857 0.40004241
0.073729858 -0.8207798 0.75254059
0.25319391 -0.81798798 0.55720848
0.27904639 -0.83832598 0.52346402
0.63235259 -0.81817979 0.2732839
0.17098901 -0.81885052 0.62996233
0.19334389 -0.80485451 0.63244587
0.1092561 -0.83523548 0.691113
0.3998147 -0.79743421 0.53578651
0.1655715 -0.81168842 0.61370081
-0.35623229 -0.79604697 1.1491621
-0.3408553 -0.78030682 1.1327029
-0.5056234 -0.75671959 1.269803
-0.47010121 -0.80047381 1.287106
-0.33912089 -0.7880125 0.81358761
-0.4985508 -0.77962679 0.94883502
-0.4826234 -0.81487858 1.304998
-0.27592081 -0.86095577 1.104582
-0.51952922 -0.77029002 1.285812
-0.31620201 -0.82996112 1.141964
-0.36781541 -0.77494073 0.82158881
-0.3203406 -0.82808977 0.82414681
-0.35266659 -0.75142908 0.80744439
0.070970878 -0.79560977 0.68641841
0.037846152 -0.81659251 0.75854951
-0.49355739 -0.8021065 0.6464026
-0.65359348 -0.81123912 0.79207832
-0.48697591 -0.82345968 0.66268468
-0.4559668 -0.83758968 0.95078897
0.55743062 -0.83037531 0.4211666
0.60035819 -0.81175172 0.3672058
0.27742401 -0.88767898 0.73807871
0.06688714 -0.8505103 0.70482379
-0.47536269 -0.72929478 0.68107218
-0.1990938 -0.75639057 0.70690078
0.2277904 -0.81658661 0.56774747
-0.4804109 -0.77103478 1.308149
0.71531087 -0.82228601 0.33546421
0.50151211 -0.77597243 0.40360591
0.43510759 -0.84586382 0.6489616
0.60804647 -0.88124472 0.38630649
-0.31575119 -0.90150702 1.404705
0.01423441 -0.94916737 1.081022
-0.1143083 -0.8582992 1.175982
0.43763411 -0.84695733 0.65099323
0.60712987 -0.87892848 0.39077631
-0.1715254 -0.83730561 1.222666
-0.1834933 -0.80727309 1.2350529
-0.35470131 -0.85267931 1.419842
0.1018614 -0.84366882 0.73489243
0.3163965 -0.88333791 0.50482309
0.67257333 -0.84582943 0.53618503
0.61444199 -0.87200278 0.6085431
0.29388469 -0.78716439 0.9559136
-0.47650489 -0.84360331 1.277784
0.38042521 -0.82513177 0.51730198
0.0104946 -0.8263185 0.78730679
0.74422812 -0.87866169 0.3120715
0.45582041 -0.84798491 0.60240078
0.69877762 -0.82682681 0.4595142
0.39883801 -0.86418933 0.4137224
0.004057514 -0.86212361 1.086836
-0.1868124 -0.85164988 1.254783
0.245703 -0.81308591 0.74719822
0.17200319 -0.81769532 0.75497627
0.2500619 -0.80535388 0.66418892
-0.34175071 -0.82704669 1.141044
0.2369407 -0.73294431 0.94761878
0.0039186608 -0.76971281 1.171241
-0.36905861 -0.84143251 1.423673
-0.1283126 -0.89528102 1.258008
-0.20316841 -0.85227609 1.259379
0.24356 -0.6749354 0.9806239
0.1768038 -0.85479248 0.62415141
0.64990819 -0.88177037 0.2193107
0.65235442 -0.82639748 0.26305959
0.66770571 -0.87586039 0.25507471
0.552571 -0.82107067 0.36402261
0.4151926 -0.80439007 0.85849643
0.47603551 -0.82051408 0.73254681
0.365491 -0.80865908 0.79857928
0.244332 -0.75922108 0.98611557
0.086813323 -0.82398093 0.74715978
0.67047739 -0.83268678 0.53576487
-0.3210867 -0.80888373 1.1223429
0.58995742 -0.83658499 0.62865108
0.69006538 -0.80290902 0.72993088
-0.033217721 -0.2685703 1.463334
0.66772968 -0.90648532 0.62152088
0.37211651 -0.75838912 0.84962517
0.63728338 -0.77093238 0.71979558
0.64122218 -0.76960868 0.47214809
0.45505881 -0.81095308 0.70282292
