# .PCD v0.7 - Point Cloud Data file format
VERSION 0.7
FIELDS x y z normal_x normal_y normal_z curvature
SIZE 4 4 4 4 4 4 4
TYPE F F F F F F F
COUNT 1 1 1 1 1 1 1
WIDTH 577
HEIGHT 1
VIEWPOINT 0 0 0 1 0 0 0
POINTS 577
DATA ascii
0.3054592 -0.36573094 0.60624266 -0.0300327 -0.99948895 -0.010948776 0.00018804752
0.16673653 -0.35653791 0.60063648 -0.35064504 -0.93131375 0.098502964 0.065080896
0.3159689 -0.36690596 0.5107156 -0.024408707 -0.99967211 0.0077400631 0.0003995802
0.25214124 -0.36544028 0.7369954 -0.048848607 -0.99861735 -0.019420562 0.00032684868
0.073929772 -0.36488461 0.83604175 -0.10525247 -0.97585624 -0.1913802 0.026433118
0.29639101 -0.36532104 0.61941981 -0.029737873 -0.9994489 -0.01475279 0.00016703516
0.11221635 -0.17068185 0.73099172 0.91440696 0.21932635 0.34022927 0.017055957
1.3210293e-05 -0.34735703 0.77885926 -0.089358486 -0.98635995 -0.13823603 0.14297946
0.24334525 -0.36500633 0.71535528 -0.048814103 -0.99857163 -0.021722279 0.00027102302
-0.024574526 -0.32884502 0.77178985 -0.64340276 -0.23214251 0.72948116 0.10222044
0.21288152 -0.36284423 0.57632905 -0.052625768 -0.99854642 0.011639042 0.001776927
0.27208579 -0.36445707 0.63442963 -0.036158517 -0.99927992 -0.011499688 0.00037391967
-0.042182378 -0.35111013 0.76978344 -0.78262603 0.10280921 0.61394358 0.15146509
-0.0066060978 -0.047820706 0.65453231 -0.07773412 0.99361587 -0.081762068 0.032594636
0.034378719 -0.053741373 0.73195273 0.0657138 0.98459882 0.16200899 0.0073501044
0.32806525 -0.37077117 0.87997413 0.016393356 -0.99963731 0.021365592 0.0010133657
0.061157953 -0.32468623 0.78137636 -0.3041636 -0.81586605 -0.49177951 0.151417
-0.069751531 -0.35841605 0.86493915 -0.030984413 -0.99875891 -0.038994297 0.0017247782
0.080259033 -0.36175421 0.78413653 -0.20473033 -0.95314664 -0.22270343 0.05521512
-0.055697534 -0.10932351 0.78927189 -0.54210544 0.14623989 0.82748759 0.032514464
0.3364704 -0.36542925 0.59022599 -0.026597202 -0.99963897 0.0038111233 0.0002796216
0.33921263 -0.36825457 0.85193682 0.016718173 -0.9997766 0.012931475 0.00070326321
0.095521338 -0.052819677 0.67415977 0.84044695 0.52687228 -0.12670624 0.045470174
0.32144967 -0.36854014 0.84453064 0.012037639 -0.99991989 0.0039139315 0.00021721781
0.2156087 -0.36458725 0.73623616 -0.050399125 -0.99863672 -0.013583375 0.00035991176
0.044313084 -0.35116801 0.78122967 -0.14000311 -0.93605429 -0.32280245 0.083713427
0.22350675 -0.36384213 0.66778946 -0.066278309 -0.99743336 -0.027091553 0.00080975454
0.17997321 -0.36705163 0.36701223 -0.012611987 -0.99987364 -0.0096802013 0.0028573573
0.40658161 -0.3678413 0.45506281 -0.023919215 -0.99939835 -0.025114367 0.002688397
0.14985956 -0.36082852 0.50602746 -0.0095233303 -0.99995458 0.00027676817 0.0061479709
0.01154049 -0.056597639 0.74198091 0.0042289454 0.97408396 0.22614709 0.014482579
0.15494759 -0.36253777 0.29554731 -0.0062826434 -0.99714798 -0.075209327 0.0036105679
-0.074210286 -0.35669845 0.91125685 -0.00042540996 -0.99990821 -0.013539602 0.00059614511
0.048441973 -0.35584658 0.8030619 -0.10615343 -0.94867837 -0.29789385 0.066777579
0.34609452 -0.36798248 0.84946835 0.017095502 -0.99977595 0.012483131 0.00068596989
-0.005487463 -0.33558363 0.783382 -0.46956566 -0.12378862 0.87417638 0.15919523
0.058577169 -0.18156601 0.79301298 0.53800762 0.02942146 0.84242636 0.017267779
0.078132719 -0.3658613 0.86778724 -0.01062568 -0.99993879 -0.0030768577 0.002320833
0.36365554 -0.36986059 0.67410004 -0.010019832 -0.99962062 -0.025658075 0.00063961186
0.070988923 -0.36323395 0.89315557 -0.014646299 -0.99986219 0.0078139491 0.0013043939
-0.03439673 -0.34232742 0.76028925 -0.73911899 -0.18224469 0.64845198 0.1047262
0.027349928 -0.35859644 0.77303827 -0.13858277 -0.99035019 0.0011602052 0.096193664
0.067937009 -0.36402497 0.89302665 -0.032345232 -0.99946851 0.0040551792 0.0013278595
0.10862868 -0.1635022 0.74067152 0.85970557 0.099165663 0.50107151 0.020240322
-0.0026861378 -0.059277333 0.59168398 -0.0071147811 0.44165424 -0.89715713 0.055528056
0.10123695 -0.063020892 0.70931965 0.66153896 0.74080235 0.11652511 0.04135875
-0.08908847 -0.060269706 0.71377158 -0.76548117 0.58216226 0.27409059 0.082053348
0.10092716 -0.070532985 0.72162253 0.71166211 0.66509384 0.22624587 0.050925579
0.14373392 -0.30814952 0.66318685 0.95368385 0.23906304 -0.18258162 0.061007109
0.23365045 -0.3646529 0.48056245 -0.039894629 -0.99857914 -0.035329383 0.0046129809
0.34968632 -0.36624855 0.5758605 -0.035683222 -0.99932456 0.008778722 0.0012066758
-0.064902291 -0.22681591 0.75182462 -0.87665212 -0.15692134 0.45481503 0.0058473186
0.3637411 -0.36830729 0.84988904 0.021227434 -0.99968791 0.013175217 0.00072978565
-0.02582805 -0.13370654 0.80568439 -0.35721278 0.022949055 0.93374103 0.015640445
0.2849502 -0.37129778 0.88011223 -0.01118761 -0.99991363 0.0068971058 0.00072318141
-0.03955818 -0.36006755 0.85759544 -0.043016989 -0.99844557 -0.0354391 0.0030051041
0.10785214 -0.090778254 0.71308517 0.95180845 0.25319731 0.17306559 0.030588727
0.10365587 -0.07464391 0.71611887 0.86144096 0.46774805 0.1978161 0.052329466
0.23283324 -0.36491197 0.75051361 -0.053254046 -0.99841446 -0.018238934 0.00039254394
-0.068558484 -0.052897695 0.66933078 -0.32894731 0.94421053 0.016130505 0.055365957
-0.0020521004 -0.051761702 0.6820839 -0.053186215 0.99481189 0.086720459 0.00049858569
0.20526606 -0.36358565 0.71749395 -0.084268197 -0.9962402 -0.020107878 0.0036637357
0.1454531 -0.36869055 0.68954891 -0.25454161 -0.9506861 -0.17721315 0.055186417
0.011669587 -0.10237489 0.80969948 0.03196742 0.16594931 0.98561597 0.034140591
0.080271021 -0.34146529 0.76827711 -0.27270937 -0.91568875 -0.29520103 0.10511744
0.36226824 -0.36750248 0.8604278 0.024067774 -0.99962294 0.013214251 0.00087967201
-0.012361203 -0.13638617 0.80918682 -0.26947236 0.013267497 0.96291673 0.019340718
0.25614381 -0.37129101 0.78388226 -0.044102624 -0.99899602 -0.0078709703 0.00025921961
-0.05680215 -0.35986423 0.82325596 0.15354177 -0.97298819 -0.17239182 0.049980659
0.4068405 -0.36582068 0.62544912 -0.043405734 -0.99903738 0.0063423668 0.0050566169
-0.12664391 -0.35814971 0.87223566 -0.005703548 -0.99975592 -0.021344608 0.0010564573
0.076217279 -0.044300321 0.63638896 0.60913771 0.65299803 -0.45004982 0.06159367
0.057130158 -0.35929731 0.56300831 0.23022464 0.62330395 -0.74732107 0.10011087
0.09011469 -0.047854535 0.66457272 0.80420375 0.55682528 -0.20785095 0.04338894
0.27256846 -0.36422843 0.58899891 -0.024914604 -0.99966425 0.0071123778 0.0012783383
0.1238481 -0.34078279 0.61408591 0.7523663 0.1824466 -0.63297564 0.089288101
0.090235904 -0.049535368 0.66165233 0.82021546 0.52731061 -0.22178844 0.043782488
0.034468222 -0.35853446 0.50836301 -0.053033754 -0.98120838 0.18551956 0.053541381
0.089675203 -0.063935585 0.64097637 0.8050127 0.37261349 -0.46164241 0.035338942
0.099585779 -0.061119113 0.67020166 0.89139664 0.41740796 -0.17658624 0.037613582
-0.06675832 -0.35591096 0.44077581 0.001362675 -0.99998236 0.0057794238 0.0016978054
0.075383045 -0.044904165 0.63147068 0.5991081 0.63071144 -0.49322674 0.060704347
-0.11310619 -0.35637131 0.4390747 -0.0096825166 -0.99987715 -0.012326183 0.0014263889
0.068023935 -0.042099819 0.62747633 0.48411354 0.73420417 -0.47600237 0.060025651
0.18432528 -0.35915914 0.45090061 -0.011957111 -0.99989426 -0.0082772411 0.0049215737
-0.056827974 -0.35697681 0.47821748 0.016133994 -0.99986345 -0.0035653124 0.00073384633
0.10948069 -0.34631974 0.59466678 0.62197077 0.34658027 -0.70216417 0.10276559
0.098452836 -0.23983884 0.5898506 0.59909433 0.18516874 -0.7789728 0.023041511
0.1270436 -0.31035745 0.61519605 0.78573471 0.15676033 -0.59837037 0.058585398
0.070940621 -0.055898052 0.61998361 0.5676018 0.44377926 -0.69346106 0.048856813
0.057705648 -0.044445399 0.61699915 0.38308692 0.65843779 -0.64784575 0.055172667
0.10669909 -0.13022129 0.64037013 0.86107683 0.19560091 -0.46934742 0.015619474
0.1140837 -0.24906881 0.60238081 0.74094492 0.14576089 -0.6555565 0.022002483
0.01647442 -0.076324947 0.59117705 0.14583725 0.33436438 -0.93109179 0.035236176
0.14787294 -0.36042196 0.51359618 -0.029902589 -0.99955225 -0.0010380901 0.0057071256
0.13850941 -0.35451147 0.58574474 -0.27485681 -0.9181475 0.28541031 0.096418642
-0.036079686 -0.3403323 0.56375813 -0.34376338 0.63273418 -0.69388342 0.15096428
0.046734173 -0.36860836 0.55562931 -0.15093486 -0.75235379 0.64123511 0.09066496
-0.050149195 -0.35641411 0.37100732 -0.050504889 -0.99833465 -0.027880851 0.0046472223
-0.037567262 -0.34178987 0.56155235 -0.3429383 0.63169658 -0.69523585 0.15290105
0.11397354 -0.25017208 0.60206604 0.74198681 0.14421496 -0.65471953 0.021778421
0.11592053 -0.30322716 0.60082352 0.67733556 0.099784963 -0.72887552 0.045683868
0.13860987 -0.35825023 0.40198129 -0.0068099126 -0.99984491 0.016240915 0.0046295221
-0.023047674 -0.21083896 0.57909548 -0.42775989 0.11956758 -0.8959493 0.021455873
-0.069509193 -0.35735831 0.4671616 0.0026445834 -0.99999654 -0.0001868508 0.0004697986
0.079330198 -0.25855017 0.57256639 0.39037418 0.054455768 -0.91904438 0.01598558
-0.059705775 -0.35624748 0.44884959 0.0032107823 -0.99997932 0.0055868621 0.0012817133
0.077927887 -0.050792981 0.63179386 0.67348051 0.49126336 -0.55234432 0.050290085
0.089401804 -0.33634201 0.58460754 0.50421047 0.15724932 -0.84914333 0.06230139
0.095473424 -0.31925115 0.58700556 0.60135102 0.088232026 -0.79409826 0.054783419
0.096856594 -0.34242105 0.58931482 0.5797646 0.22561921 -0.7829234 0.076950438
0.091547132 -0.32521492 0.58541673 0.57117826 0.10819885 -0.81366354 0.059265871
0.21211515 -0.36507767 0.58648759 -0.053039495 -0.99855739 0.0083557023 0.0017702689
0.1240158 -0.29529664 0.60894543 0.76216584 0.1247657 -0.63524538 0.042787172
0.2118434 -0.3621023 0.57178146 -0.052750923 -0.99850339 0.014438307 0.0018484243
0.11429787 -0.33826673 0.60138279 0.69740659 0.20889854 -0.68555492 0.084538691
0.20821486 -0.36587316 0.56246102 -0.053944439 -0.99832422 0.020946596 0.0017977309
0.016917273 -0.049475729 0.59925294 0.1337916 0.55072069 -0.82389712 0.060813148
0.080648243 -0.05204536 0.63398474 0.69163924 0.51492256 -0.50644821 0.051266193
0.086702056 -0.050095107 0.64971316 0.7790243 0.53591806 -0.32544261 0.049468748
0.051403079 -0.36485407 0.9507736 -0.057721302 -0.99821979 -0.015017155 0.0021144741
0.022531178 -0.055423781 0.59763736 0.19111691 0.4853473 -0.85317773 0.051656898
0.065848559 -0.12582085 0.59759682 0.52141058 0.18013588 -0.83407557 0.015017145
-0.068414129 -0.35641113 0.44290072 0.006904996 -0.99991369 0.011171984 0.0014485624
-0.22219917 -0.35890117 0.53259957 0.057477143 -0.99832457 0.006665051 0.00056711189
0.087128773 -0.26963475 0.57767981 0.45465252 0.015494207 -0.89053416 0.01343431
0.069552757 -0.32238755 0.57696968 0.36860493 0.07829608 -0.92628294 0.043998122
0.10137153 -0.34449112 0.50253439 -0.034546673 -0.998312 0.046687186 0.0075359582
0.080074593 -0.2527785 0.57420433 0.41452217 0.087404251 -0.90583211 0.017511379
0.13488482 -0.30976519 0.62640631 0.84205693 0.16900733 -0.51222724 0.053183675
0.096551456 -0.35819235 0.38337764 0.0032202718 -0.99843252 -0.055875137 0.0034227145
-0.035811208 -0.28499675 0.5773378 -0.59038854 0.14304838 -0.79434162 0.040988706
0.02376082 -0.35514233 0.30303428 -0.053096946 -0.99359989 0.099699162 0.0061538899
0.085200571 -0.35801816 0.31779933 -0.032490171 -0.99935126 -0.015541429 0.0036982279
0.11382905 -0.28664243 0.5974049 0.69043773 0.066984117 -0.72028393 0.033677019
0.11523553 -0.1545077 0.64800417 0.89964867 0.20665778 -0.38460985 0.017620616
0.11167944 -0.13723731 0.6479575 0.90567958 0.19911671 -0.37429541 0.014912399
0.036810528 -0.17145051 0.57576638 0.20888576 0.17169531 -0.9627499 0.025661789
0.14215472 -0.34772778 0.65000308 0.67645544 0.71431911 -0.17932169 0.14533381
0.024550648 -0.092454657 0.58693355 0.17506517 0.26606759 -0.94792414 0.017629754
-0.038612071 -0.23761755 0.5832684 -0.6423341 0.10959602 -0.75854832 0.026219159
0.02345462 -0.35550618 0.28312537 -0.046489589 -0.9867577 0.15539576 0.0058017247
-0.083203465 -0.35032201 0.34114507 -0.06602145 -0.98991603 -0.1253289 0.0089047905
0.019052284 -0.10048831 0.58469445 0.1491874 0.24475466 -0.95803875 0.011130578
0.28417024 -0.36477008 0.58771616 -0.025016155 -0.99967134 -0.0056007132 0.00028396054
0.0089487089 -0.16238093 0.57717782 -0.07761161 0.11888392 -0.98987025 0.0064103291
0.0032242334 -0.048399378 0.59881365 0.037796579 0.61668104 -0.78630525 0.081121691
0.0077819079 -0.34683001 0.56012642 0.023557935 0.49399206 -0.86914724 0.073344298
0.21637264 -0.36289999 0.57773757 -0.050881371 -0.99864459 0.010956028 0.0016800811
0.075027972 -0.34069583 0.57566631 0.34910777 0.22730541 -0.90909624 0.074198313
0.13670622 -0.3116557 0.63266844 0.8512013 0.1596854 -0.499957 0.054892264
0.026404992 -0.35414803 0.30076918 -0.053096946 -0.99359989 0.099699162 0.0061538899
0.16064067 -0.36080435 0.51274168 -0.049080815 -0.99867982 -0.015153684 0.006940396
0.042809814 -0.16494241 0.57642096 0.35943112 0.20348226 -0.91071635 0.01762167
0.055424362 -0.27577612 0.56976831 0.27453485 0.038496606 -0.96080625 0.011641389
0.036755119 -0.15745142 0.57775098 0.28470287 0.20949832 -0.93544364 0.019513136
0.16438204 -0.35917246 0.54044604 -0.089438647 -0.99498522 0.044778228 0.0040047886
-0.038849905 -0.054288089 0.6003449 -0.16461264 0.73760188 -0.65486342 0.097220667
0.0058573508 -0.34013042 0.56016803 -0.010611805 0.4281185 -0.9036603 0.083608158
-0.029194156 -0.24516772 0.57597417 -0.53900445 0.12779155 -0.83255249 0.030913131
0.10370725 -0.29341635 0.58843237 0.60802323 0.048511956 -0.79243577 0.035547357
0.034827631 -0.13815489 0.58314073 0.28585148 0.23657331 -0.92861289 0.022397719
0.017008634 -0.091940194 0.58654201 0.13191324 0.26857325 -0.95418411 0.01711588
-0.029433677 -0.2997793 0.57383227 -0.45326456 0.29804704 -0.8400709 0.085265219
0.065735899 -0.36252335 0.9454658 -0.059367009 -0.99821717 -0.0061640139 0.0025056209
0.10813235 -0.14335373 0.72855449 0.95010763 0.095263571 0.29701915 0.012843003
0.11220724 -0.35339814 0.58659965 -0.40917006 -0.76982737 0.48984259 0.13896167
0.10484264 -0.14721492 0.63217878 0.80638593 0.18706396 -0.56102479 0.013662558
0.048426408 -0.054470353 0.60492879 0.36068499 0.50476056 -0.78429788 0.054038998
0.024354098 -0.13644254 0.58187073 0.16064958 0.21369942 -0.96359962 0.015200377
0.1396977 -0.30895746 0.63786179 0.85477406 0.1610072 -0.49339426 0.058756087
0.14508373 -0.33937344 0.64666367 0.70171833 0.69030488 -0.17626856 0.1432479
0.014838181 -0.047612894 0.6108408 0.057646595 0.79523265 -0.60355771 0.084014766
0.12730975 -0.18864852 0.65841758 0.9698686 0.19612984 -0.14452644 0.016948551
-0.10677535 -0.061903939 0.69230247 -0.88264161 0.41622686 0.21840101 0.099930182
-0.038794767 -0.061368834 0.59978575 -0.23245934 0.60173792 -0.76411659 0.10405602
-0.10181318 -0.056765359 0.64935625 -0.79892308 0.57804757 -0.16608077 0.092975706
0.029985946 -0.32100126 0.56662452 0.10848096 0.19852267 -0.97407424 0.041763503
0.10857428 -0.104083 0.65386277 0.92348343 0.25142881 -0.28976199 0.011253651
-0.033717059 -0.046208654 0.60397655 -0.10766839 0.84998596 -0.51568538 0.089180343
-0.0032359899 -0.12385491 0.5836395 -0.12181544 0.13028038 -0.98396546 0.0087867873
0.086556502 -0.27046406 0.57645756 0.44054049 0.017939366 -0.89755344 0.014174942
0.0076427492 -0.12301487 0.58446181 0.013665072 0.17690951 -0.98413223 0.0090289591
-0.015497875 -0.2331758 0.57472122 -0.42032599 0.13828747 -0.89677352 0.02431405
0.1100279 -0.17543945 0.62945086 0.86545908 0.20934564 -0.45514283 0.013244499
0.0089066541 -0.08856909 0.58675623 0.076618969 0.28215587 -0.95630419 0.023860374
0.04747875 -0.18469901 0.57182568 0.26899168 0.17120437 -0.94780403 0.017898548
-0.023367472 -0.049936276 0.5985111 -0.13638769 0.69963372 -0.7013638 0.095745601
0.0058006123 -0.15410395 0.57953012 -0.092517681 0.12084073 -0.98835111 0.0091269994
-0.044055481 -0.27873901 0.58454138 -0.69417095 0.074348293 -0.7159602 0.032350134
0.10407553 -0.34486583 0.59011734 0.59304929 0.30174276 -0.7464878 0.097786881
0.1110286 -0.12834215 0.64881349 0.90085196 0.20851649 -0.38077104 0.012152377
-0.045199957 -0.23974103 0.59146047 -0.69532412 0.075376526 -0.71473259 0.021668095
-0.040950149 -0.35656247 0.52699399 0.065871149 -0.96240729 0.26350206 0.075558469
-0.10661283 -0.35476419 0.41058418 -0.019418795 -0.9989835 -0.040681094 0.0023011332
-0.0018661682 -0.057983682 0.59431416 0.0065586101 0.49387521 -0.86950809 0.061222412
0.087040268 -0.35672641 0.55265027 -0.11749874 -0.88756114 0.445454 0.10598877
0.10928644 -0.13997199 0.64051235 0.86561346 0.1952503 -0.46107545 0.015629377
0.086111523 -0.062164359 0.63162184 0.72393405 0.40960774 -0.55510443 0.044206556
0.026869835 -0.049168598 0.60105789 0.18606943 0.58438295 -0.78985739 0.058308788
0.10556372 -0.085803524 0.71696866 0.92792493 0.31086552 0.20571315 0.042966556
-0.0012510407 -0.046876471 0.60022253 0.011419832 0.63415194 -0.7731241 0.088841178
-0.048218124 -0.049517438 0.60698408 -0.14953034 0.88172269 -0.44744363 0.075527631
0.075077116 -0.36187205 0.44809029 0.035490178 -0.99795198 0.053219054 0.0058773439
-0.0030179825 -0.10172936 0.58710021 -0.012581746 0.21871451 -0.97570783 0.011730222
-0.046882853 -0.26700857 0.5870834 -0.7023046 0.064275041 -0.70896888 0.018534236
-0.050895583 -0.29369715 0.59120834 -0.73107868 0.12509139 -0.67072803 0.062359471
0.01489656 -0.16393641 0.57649928 -0.030760616 0.11958084 -0.99234784 0.0056753061
0.078832924 -0.35737056 0.2813684 -0.042062551 -0.9961555 0.076843888 0.0021663797
0.085332885 -0.35696682 0.34083867 -0.044122431 -0.9988336 -0.019613007 0.0065566427
-0.034605145 -0.34685686 0.5551731 -0.13046494 0.81166399 -0.56936842 0.13922907
0.033283498 -0.34054461 0.563923 0.14885244 0.41930026 -0.8955614 0.064615242
0.055829771 -0.34006846 0.56830913 0.22612782 0.32366803 -0.91875201 0.084935993
-0.060162973 -0.35603112 0.42434335 0.0048759156 -0.99998665 0.0016994403 0.0018840026
0.057198774 -0.15434703 0.582789 0.47190273 0.22873908 -0.85146123 0.017781142
0.10171551 -0.21674372 0.74531513 0.79658657 0.011001822 0.60442442 0.009189927
0.10563666 -0.3134957 0.59312308 0.63879031 0.08584208 -0.76457703 0.05238381
0.083799325 -0.10715954 0.61644369 0.66702235 0.19707727 -0.71849954 0.01239573
0.002347393 -0.10472558 0.58590513 0.0025943602 0.21739231 -0.97608089 0.0078346748
0.29624322 -0.36296082 0.45316774 -0.053147562 -0.99836904 -0.020847183 0.00045610667
-0.038749281 -0.20091359 0.58449244 -0.5514484 0.091753669 -0.8291477 0.023159444
0.13690014 -0.29120252 0.63733745 0.83595622 0.13240415 -0.53258455 0.031817023
0.027902326 -0.16905493 0.57591498 0.084309034 0.14391671 -0.9859919 0.017822025
0.1077676 -0.10322553 0.65212417 0.91859055 0.2572583 -0.30001599 0.010681401
0.049073026 -0.18769035 0.57424539 0.2828266 0.18027422 -0.94207764 0.018373845
0.017730974 -0.21894082 0.57230067 -0.080287322 0.073542371 -0.99405497 0.0081870602
0.33564124 -0.36831486 0.5152353 -0.024155518 -0.99966055 0.0097597567 0.00046004896
0.27255064 -0.36437285 0.63188475 -0.035868183 -0.99929732 -0.010877003 0.0003782842
0.25975987 -0.35999477 0.40345281 -0.013030031 -0.99960572 -0.024871577 0.003971755
0.14431714 -0.35195476 0.64732075 -0.54379594 -0.8376621 0.051071215 0.13428496
0.12189773 -0.345323 0.60882509 0.72161627 0.22321062 -0.65532213 0.096486576
0.039313048 -0.14637955 0.58059365 0.33811066 0.22777213 -0.91312712 0.021073889
0.018662872 -0.11891884 0.58342415 0.12557194 0.21186884 -0.96919727 0.0075824265
0.028147666 -0.36623591 0.55181068 0.095532514 0.72355717 -0.68362153 0.069610082
0.16575204 -0.35788283 0.61909437 -0.36861208 -0.9279294 0.055426229 0.079914674
0.11521945 -0.20660044 0.62149948 0.82161057 0.19010532 -0.53741616 0.0079328716
0.25299224 -0.35917985 0.40599555 -0.026150636 -0.99934328 0.025082549 0.0055272863
0.11755364 -0.29236883 0.60020572 0.71011198 0.070391789 -0.70056117 0.036854617
-0.055494983 -0.35126078 0.56491077 -0.44439736 0.70043898 -0.55847669 0.1544427
0.15438424 -0.357887 0.64731228 -0.38404277 -0.92331278 -0.0021341355 0.10697713
0.16906379 -0.36040917 0.53264862 -0.068167515 -0.99758667 0.013190198 0.0039043361
-0.06321153 -0.33565679 0.71070939 -0.94865793 -0.21012792 0.23641971 0.053697839
-0.10671218 -0.071191028 0.70582145 -0.91206467 0.29418007 0.28565028 0.092261657
-0.08897233 -0.06082109 0.71744835 -0.76706553 0.57696694 0.28057015 0.081072427
0.05574654 -0.36372155 0.85279018 -0.092948556 -0.9905836 -0.1005225 0.014025106
0.078018337 -0.36517578 0.84924966 -0.05162587 -0.99576968 -0.076010302 0.011599309
-0.045750022 -0.34501907 0.74403679 -0.82989949 -0.091595314 0.55034268 0.085567564
-0.10427863 -0.061192226 0.69661582 -0.88035572 0.41131935 0.23619945 0.098797843
-0.077895358 -0.25953248 0.71037626 -0.9630909 -0.16722685 0.21092921 0.013263365
0.043080732 -0.04716232 0.60790503 0.3247017 0.57395273 -0.75176263 0.05797521
-0.036253665 -0.21797673 0.79199612 -0.58874428 -0.16063365 0.79219759 0.018681148
-0.071572863 -0.093649738 0.77631944 -0.70075125 0.22258189 0.67779428 0.041802865
-0.02376317 -0.31738052 0.77690953 -0.62471938 -0.22945149 0.7463764 0.084435828
-0.10104651 -0.069711916 0.72186089 -0.89905065 0.29025418 0.32781166 0.068491586
-0.0026096432 -0.12672909 0.81172824 -0.16414402 0.074131481 0.98364687 0.022375718
-0.03654382 -0.22502296 0.7905817 -0.59703368 -0.16266249 0.78555191 0.018249821
-0.057356738 -0.35142878 0.71308225 -0.94369137 -0.18155351 0.27655888 0.07389918
7.1550683e-05 -0.36218968 0.85707182 -0.069173597 -0.97101361 -0.22879593 0.0093103722
-0.090253949 -0.062910095 0.72613335 -0.79330152 0.50775719 0.33593947 0.063756347
-0.065595523 -0.066088758 0.77965021 -0.52443719 0.58634096 0.61738956 0.045788389
0.0685011 -0.36303076 0.92498046 -0.037412629 -0.99929959 -0.0007444183 0.0012509837
-0.068758182 -0.14834566 0.77211219 -0.78940809 -0.068590902 0.61002481 0.018917108
-0.046667814 -0.1839339 0.7897743 -0.56812412 -0.11009867 0.81554472 0.018754346
-0.01674713 -0.35880852 0.94710493 -0.038738459 -0.99892229 -0.025564747 0.0024466
0.016264331 -0.046897717 0.60772312 0.085346609 0.74367791 -0.66306794 0.078483164
-0.086238854 -0.062362656 0.73440081 -0.59883797 0.72480285 0.34066689 0.056494709
0.089892387 -0.047654334 0.66693437 0.77057564 0.61276186 -0.17531684 0.048021704
-0.029124903 -0.067217574 0.79167956 -0.34239498 0.51133108 0.78822982 0.058034621
-0.035812851 -0.26113847 0.78054488 -0.77956593 -0.19977289 0.5936057 0.0068272445
0.04610271 -0.35219094 0.77853107 -0.13029334 -0.9379468 -0.3213712 0.085385308
-0.077828899 -0.059979096 0.73009837 -0.44730967 0.85219938 0.27142262 0.04831446
-0.048868872 -0.049471609 0.60750937 -0.15668066 0.88567632 -0.43706825 0.074830227
-0.053011414 -0.068787046 0.78990811 -0.46882668 0.49694231 0.73023969 0.054584522
0.063035131 -0.36385861 0.8531 -0.065863013 -0.99503416 -0.074626416 0.01154353
-0.062338371 -0.065390438 0.78212506 -0.49217761 0.60542363 0.62547857 0.048411123
-0.054776508 -0.28489017 0.74896479 -0.8486861 -0.14909537 0.50744706 0.01279693
-0.057153378 -0.25690591 0.75444525 -0.846367 -0.19047229 0.49737635 0.0032799947
-0.087587669 -0.065765806 0.75128865 -0.6228863 0.63814884 0.45252478 0.042218026
-0.066488624 -0.090080313 0.78341419 -0.64881098 0.25898823 0.71552038 0.045212843
-0.073844984 -0.28659481 0.70752633 -0.9576 -0.16967574 0.23283567 0.014735621
-0.017489113 -0.061021268 0.76972878 -0.18987966 0.82161063 0.53749573 0.056398954
-0.01569658 -0.36006829 0.95898128 -0.04490022 -0.99871492 -0.023504646 0.0026827189
-0.062366489 -0.150884 0.77806944 -0.72010064 -0.06346079 0.69096142 0.021842884
-0.10155756 -0.064426191 0.71065575 -0.88860637 0.34923229 0.29734772 0.079162292
-0.0030843995 -0.047604404 0.60281312 0.0052927956 0.67570865 -0.73714972 0.095606834
-0.034796461 -0.048964515 0.60265309 -0.13621305 0.78788227 -0.60057253 0.093897596
0.0073168441 -0.18236318 0.81351793 -0.080985628 -0.10993472 0.99063402 0.027477479
-0.054447543 -0.18596601 0.78045982 -0.69379234 -0.1147402 0.710976 0.022918716
-0.047380917 -0.066034675 0.79130399 -0.43530259 0.51959848 0.73520684 0.056460131
-0.099488147 -0.067238785 0.72166348 -0.87817234 0.35506189 0.32053763 0.068641745
-0.098498508 -0.064308152 0.71368015 -0.88759667 0.34753683 0.30230835 0.074858114
0.22080505 -0.36441898 0.76024312 -0.055939987 -0.99830127 -0.016287876 0.00039959472
-0.02570747 -0.12878178 0.80591786 -0.35350785 0.062496759 0.9333415 0.022876209
-0.0039261431 -0.068997189 0.79639018 -0.10562415 0.46693432 0.87796122 0.058205158
-0.077289052 -0.24216962 0.71795076 -0.94157207 -0.13458148 0.30875525 0.0094064604
-0.095762044 -0.13629691 0.70490617 -0.95450872 -0.14273898 0.26179889 0.0096641229
-0.1114535 -0.065356694 0.66759002 -0.90043139 0.43471831 0.015597305 0.10904418
0.24163173 -0.36516899 0.74877816 -0.052307848 -0.99848962 -0.016803013 0.00034393428
-0.01224116 -0.071985252 0.79849112 -0.16993697 0.41722089 0.89277554 0.048714459
-0.090154119 -0.20915809 0.69021595 -0.98642612 -0.16012052 0.036398686 0.015218155
-0.076458983 -0.052176185 0.61253196 -0.32639301 0.90319508 -0.2787585 0.051569726
-0.09427131 -0.092180319 0.71920305 -0.9303425 0.11340627 0.34871444 0.06237109
-0.051272456 -0.33307943 0.59271812 -0.78870815 0.23452704 -0.56827497 0.11649387
0.079893172 -0.04662158 0.64023113 0.66444695 0.60801828 -0.43453875 0.052408744
-0.071042895 -0.13577065 0.77028668 -0.78700864 -0.047171805 0.61513579 0.015605981
-0.043006133 -0.071254455 0.79306114 -0.41897961 0.48778802 0.76584524 0.058432493
-0.022605572 -0.262182 0.79564905 -0.60504353 -0.16810934 0.77824265 0.023564471
-0.043323617 -0.35946432 0.85974348 -0.040307224 -0.99844539 -0.038500145 0.0026493981
-0.035800837 -0.20461588 0.79627329 -0.55239677 -0.13451272 0.82265669 0.017381182
0.31585193 -0.36657616 0.67546409 -0.013067759 -0.99962896 -0.023899069 9.8482204e-05
-0.040445052 -0.1831474 0.79650843 -0.53932285 -0.10850257 0.83507967 0.018556798
-0.027597804 -0.075360321 0.79793215 -0.34420082 0.37950289 0.85878015 0.050963935
-0.092530407 -0.1419097 0.71026534 -0.95152694 -0.16622022 0.25878036 0.0052951174
0.095884934 -0.051951241 0.67871153 0.79586589 0.6012826 -0.071111627 0.048748221
-0.042621247 -0.35945064 0.86080122 -0.040307224 -0.99844539 -0.038500145 0.0026493981
-0.044964869 -0.13473366 0.7952528 -0.44568205 -0.0012616337 0.89519048 0.013316129
-0.04385446 -0.34375516 0.74593288 -0.81153673 -0.1193758 0.57197696 0.083221912
0.01460402 -0.068083629 0.80145007 0.081211515 0.4805294 0.87321031 0.057070903
-0.029604578 -0.13989769 0.80475205 -0.38480398 0.00032303587 0.92299825 0.015510282
-0.037691921 -0.27042234 0.77518451 -0.79349822 -0.19771278 0.57556087 0.0069658118
-0.068635069 -0.31541187 0.70388061 -0.96850294 -0.17989202 0.17216516 0.025377443
-0.028555281 -0.26148558 0.78853172 -0.66750991 -0.19280984 0.71920431 0.019681547
-0.069101296 -0.35623264 0.44505355 0.006904996 -0.99991369 0.011171984 0.0014485624
0.069956511 -0.36414331 0.84085792 -0.095934555 -0.97607911 -0.19510533 0.027025627
-0.061566856 -0.08668337 0.78754473 -0.59909737 0.30306855 0.74110174 0.047628894
0.019656025 -0.067678221 0.79971081 0.10601159 0.50772536 0.85497159 0.057393339
-0.11139943 -0.070409998 0.68666565 -0.93238002 0.30188221 0.19883338 0.10626514
-0.068549342 -0.12955536 0.77630353 -0.74212867 0.00012341332 0.67025745 0.018194025
-0.060773578 -0.25283545 0.75011212 -0.86462253 -0.17128479 0.47232339 0.0041883565
-0.034072857 -0.13985276 0.80209035 -0.41402581 -0.0062150853 0.91024393 0.014238447
-0.049845394 -0.20643319 0.77957886 -0.69141608 -0.15890667 0.70476419 0.01699087
-0.072772935 -0.081213586 0.77396458 -0.67414534 0.32426989 0.66360915 0.046805274
-0.1094544 -0.059011649 0.66366482 -0.8561554 0.51662838 -0.0096472809 0.1036355
-0.076430812 -0.1268632 0.76348615 -0.81098127 -0.011202298 0.58496481 0.016584571
-0.068319179 -0.064573981 0.77152354 -0.53660423 0.60338628 0.58989906 0.045708988
0.0013492538 -0.10708189 0.80937034 -0.06707716 0.16223501 0.98446965 0.029963177
-0.058152325 -0.2074881 0.76963651 -0.83970505 -0.16175228 0.51839328 0.0072060009
-0.1605143 -0.35456571 0.4299925 -0.030357795 -0.99824953 -0.050756589 0.0038765457
-0.10734202 -0.064694189 0.69886613 -0.89796978 0.35172135 0.26446614 0.1006227
-0.11007611 -0.10296401 0.67495072 -0.99335098 0.019732544 0.11342151 0.084060915
-0.1061319 -0.059136495 0.65823478 -0.81472456 0.57070053 -0.10259029 0.096535921
-0.025225203 -0.070195138 0.79559779 -0.32072523 0.44472501 0.83627445 0.051233362
0.048703272 -0.36462957 0.96041799 -0.058077585 -0.99789149 -0.028975019 0.0023706162
0.019217597 -0.091703191 0.80742931 0.096130997 0.26618031 0.95911777 0.043279823
0.0037502607 -0.064329401 0.80011451 -0.027282739 0.50364816 0.86347795 0.055272937
0.0080230739 -0.10564556 0.80959016 -0.012404643 0.1505989 0.98851711 0.031127293
-0.015104497 -0.34768948 0.77245593 -0.60815573 -0.28558919 0.74066544 0.14595309
0.048307382 -0.36449108 0.85264915 -0.07526736 -0.99149168 -0.10620362 0.013730383
-0.024099916 -0.1326773 0.80703926 -0.33945903 0.027162891 0.94022852 0.016341593
-0.068435401 -0.16839811 0.7690506 -0.83018476 -0.092420839 0.54977423 0.016208731
0.048951067 -0.3501339 0.78050584 -0.13354006 -0.94014382 -0.31352308 0.08303386
-0.00090044679 -0.14518432 0.81317878 -0.17416923 -0.012753598 0.98463309 0.021204723
0.0042971247 -0.34883857 0.77888972 -0.096556358 -0.9776932 -0.18652859 0.13177435
-0.058006827 -0.34934849 0.71295971 -0.94390386 -0.19448552 0.26687267 0.071190424
-0.029987846 -0.19926533 0.80419141 -0.524468 -0.1161936 0.84346449 0.018896086
0.0083300611 -0.071986862 0.80263567 0.022021934 0.43734238 0.89902544 0.055924941
0.20234868 -0.36292619 0.77432919 -0.052970037 -0.99834251 -0.022504851 0.0005355209
-0.042905219 -0.15535037 0.79611838 -0.49416319 -0.059067801 0.86736023 0.014642295
-0.031816203 -0.17169903 0.80482882 -0.47012258 -0.085911795 0.87840986 0.022818496
-0.11363719 -0.35602677 0.43581384 -0.0096442178 -0.99987978 -0.012138055 0.0014676299
-0.18082134 -0.35564893 0.51458961 0.049715515 -0.99846762 0.024307951 0.00056354626
-0.087488562 -0.17514242 0.70882213 -0.96489859 -0.1150815 0.23606579 0.010026209
-0.21901251 -0.358437 0.53036708 0.057477143 -0.99832457 0.006665051 0.00056711189
-0.045569345 -0.1219877 0.79551423 -0.44187504 0.068131231 0.89448565 0.023400573
-0.0485209 -0.31555945 0.7454263 -0.8322255 -0.14555714 0.5349896 0.044523694
-0.09104462 -0.1921888 0.68847108 -0.98569965 -0.16127923 0.048837189 0.012713702
-0.074620746 -0.064005651 0.76361889 -0.52290994 0.67737371 0.51742643 0.039976452
-0.051114209 -0.26609528 0.76071399 -0.83709168 -0.19121142 0.51255798 0.0029594596
0.048126165 -0.36566144 0.97923809 -0.056286231 -0.99766546 -0.038670715 0.0027363221
-0.017748851 -0.081519626 0.80252928 -0.23694168 0.29905489 0.92435104 0.042051636
-0.059796818 -0.08588884 0.7884835 -0.5767796 0.31112897 0.75533038 0.048163235
-0.040662475 -0.35950112 0.86216778 -0.040867228 -0.99845243 -0.037716974 0.0027084025
-0.067481145 -0.35819098 0.86222523 -0.039324053 -0.99831676 -0.042629968 0.0022916542
-0.015297963 -0.36017567 0.94577056 -0.039228022 -0.99888939 -0.026098853 0.0024600059
0.069755271 -0.36264139 0.92383564 -0.037412629 -0.99929959 -0.0007444183 0.0012509837
-0.015207354 -0.35928544 0.95733309 -0.043074813 -0.9987213 -0.026463818 0.0026102378
0.35577738 -0.36837918 0.84926337 0.021133095 -0.99970758 0.011753388 0.00072800746
0.078865178 -0.36617988 0.86914241 -0.010558243 -0.99993843 -0.0034059358 0.0023631735
0.205056 -0.36313134 0.9152745 -0.029189294 -0.99953002 -0.0093609821 0.00058928458
0.18597671 -0.364337 0.91731709 -0.0051820064 -0.99996382 -0.0067438153 0.0010880727
0.15546624 -0.36388442 0.91597879 0.028938407 -0.99956352 -0.005947209 0.0020155322
-0.064084314 -0.36099777 0.93979937 0.01829759 -0.99964011 -0.019618277 0.001559115
-0.016871018 -0.36266351 0.95153654 -0.038738459 -0.99892229 -0.025564747 0.0024466
-0.10732106 -0.35991225 0.89215976 -0.011083073 -0.99968827 -0.022373885 0.00099554565
-0.097643323 -0.36025783 0.93965518 0.0032740361 -0.99984437 -0.017339436 0.0014500418
0.15585041 -0.36401081 0.86129045 0.019282175 -0.99981266 -0.0016851263 0.0013759499
0.36749172 -0.36341909 0.94758815 0.0012829581 -0.99980074 0.019922554 0.0026681381
0.050785061 -0.36537296 0.97766697 -0.056818824 -0.99771351 -0.03659869 0.0026576701
-0.082943566 -0.35942474 0.92119193 -0.0017223542 -0.99991399 -0.012997571 0.00067432865
-0.090433262 -0.35929814 0.90518093 -0.0093495697 -0.99971229 -0.022089126 0.0011986353
-0.068076365 -0.064135402 0.77165103 -0.53637731 0.60328609 0.59020776 0.045979239
-0.13754565 -0.35536137 0.85953784 -0.016111784 -0.99938136 -0.031261515 0.00080057193
-0.0023675042 -0.36192966 0.85847837 -0.07633727 -0.96294892 -0.25865412 0.009371453
-0.18123794 -0.35572621 0.52069193 0.053608529 -0.99833947 0.021079056 0.00059801515
0.090723865 -0.057317816 0.73744941 0.39208752 0.88056087 0.26623285 0.031118292
-0.025209593 -0.06959945 0.79533249 -0.32072523 0.44472501 0.83627445 0.051233362
0.067034647 -0.06816107 0.78003621 0.34618899 0.72940207 0.59002179 0.048047695
-0.059268475 -0.34098789 0.71669018 -0.93308914 -0.15443006 0.3248015 0.067360595
-0.062102225 -0.34021732 0.70851028 -0.95045626 -0.22220652 0.2173873 0.059652753
-0.033840835 -0.26426595 0.78174973 -0.7427693 -0.2029897 0.63803524 0.010896742
-0.045697864 -0.34569624 0.7441147 -0.82989949 -0.091595314 0.55034268 0.085567564
-0.070216432 -0.31110668 0.70126981 -0.97055596 -0.17978413 0.16030864 0.023675358
-0.023061642 -0.25923941 0.79622096 -0.59059078 -0.16469491 0.78998619 0.023280025
-0.018195838 -0.32032758 0.78257012 -0.54396355 -0.174593 0.82074416 0.10464004
-0.047996171 -0.04900327 0.60728002 -0.14953034 0.88172269 -0.44744363 0.075527631
-0.0060822247 -0.04976863 0.59827709 -0.0092919357 0.61027503 -0.79213512 0.089239135
-0.019135321 -0.061161041 0.76970071 -0.19934341 0.81459737 0.54469562 0.057473566
0.079546154 -0.045738462 0.64090925 0.66444695 0.60801828 -0.43453875 0.052408744
-0.060933195 -0.063653551 0.78221655 -0.47428533 0.62554592 0.61947209 0.046718128
-0.095980726 -0.13508995 0.70521748 -0.95252544 -0.13379824 0.27348369 0.010693188
-0.078894213 -0.26376796 0.70644522 -0.96884763 -0.17329624 0.17692555 0.013313541
-0.051860202 -0.067030936 0.79060501 -0.45233116 0.52523792 0.72077847 0.054695144
0.20717792 -0.36385998 0.91570777 -0.029189294 -0.99953002 -0.0093609821 0.00058928458
-0.10730859 -0.081531025 0.70486635 -0.92512482 0.24501121 0.29002348 0.09425211
-0.024420043 -0.067833312 0.79316938 -0.30769169 0.49234602 0.81419975 0.056027222
0.0097337449 -0.084604502 0.80600995 0.020275367 0.30664927 0.95160657 0.042198669
-0.091549598 -0.063404359 0.72543269 -0.80960852 0.48018885 0.33756894 0.066265978
-0.027026625 -0.066356778 0.79096752 -0.32424062 0.5286541 0.78446978 0.060342178
-0.039518919 -0.16091752 0.79847604 -0.49092892 -0.068576865 0.86849642 0.016290283
-0.078858562 -0.060428686 0.72780544 -0.47989142 0.83153212 0.27974725 0.053993687
-0.016499199 -0.061599113 0.76808327 -0.18363462 0.82787317 0.53000408 0.054758139
-0.073197551 -0.089952566 0.77279145 -0.70139247 0.23732878 0.67210388 0.042293843
-0.10814014 -0.065224662 0.67055047 -0.88864923 0.45547718 0.053320471 0.11067753
-0.10775487 -0.064870551 0.69562048 -0.90567988 0.34977961 0.23957926 0.10135311
0.044817984 -0.050653432 0.60670215 0.33855993 0.53885102 -0.77137321 0.056506168
-0.079943664 -0.24593621 0.70978278 -0.96420139 -0.15379629 0.2160148 0.012376938
0.054738108 -0.36421886 0.85585946 -0.054796278 -0.99670881 -0.059740856 0.0062335003
0.068314679 -0.3628571 0.92764926 -0.036884557 -0.99931931 -0.00059201679 0.001202182
0.069718257 -0.36434713 0.84918177 -0.074181624 -0.9902705 -0.11773495 0.018209651
-0.085999534 -0.22619665 0.7001195 -0.98028302 -0.14090504 0.13853157 0.016621029
-0.058989193 -0.31198591 0.72927433 -0.89782995 -0.1302097 0.42065039 0.04213411
-0.058706123 -0.057974581 0.71473694 -0.2895923 0.93993407 0.18072125 0.039712269
-0.044080451 -0.34444296 0.74559641 -0.82109493 -0.10534391 0.5609864 0.083883829
-0.10696081 -0.1138074 0.66073 -0.99251842 -0.068595588 -0.10100389 0.04629115
-0.017247597 -0.3590064 0.94876456 -0.038738459 -0.99892229 -0.025564747 0.0024466
-0.077565931 -0.25830805 0.7117911 -0.9597404 -0.16192977 0.22951524 0.01310729
-0.10718386 -0.059930071 0.68310815 -0.83182526 0.54336834 0.11321493 0.10251708
-0.073813252 -0.28934768 0.70615053 -0.9603529 -0.17185636 0.21951687 0.015368083
0.38870597 -0.36730835 0.9441976 -0.22927964 -0.97328746 0.011925314 0.0039537079
0.18986019 -0.35892275 0.99486285 -0.024663545 -0.99969572 0.00028671176 0.0072888993
-0.10265246 -0.058827531 0.67414308 -0.81273133 0.57948333 0.060554709 0.10116345
-0.067607269 -0.16506161 0.77044702 -0.82287693 -0.087436207 0.56145215 0.017796233
0.020229999 -0.13716872 0.81001484 0.05439667 0.026553657 0.9981662 0.015894419
-0.028751928 -0.26080853 0.78865278 -0.66547912 -0.19180368 0.72135216 0.019550992
-0.062420815 -0.33460906 0.71052569 -0.94586664 -0.20771146 0.24938367 0.053609006
-0.059238099 -0.34332719 0.71280009 -0.93929577 -0.19984791 0.27889821 0.066718839
0.15152393 -0.36378023 0.91769707 0.00089152303 -0.99998927 -0.0045391568 0.0019647924
-0.062926389 -0.064238831 0.78116673 -0.49803662 0.60769773 0.61859769 0.048178636
0.074237883 -0.36347127 0.85551208 -0.022195265 -0.99948883 -0.023009783 0.0024638709
0.010470979 -0.37090358 0.85492325 -0.059194833 -0.98380411 -0.16919065 0.0063224034
-0.10114434 -0.063391231 0.71071333 -0.88860637 0.34923229 0.29734772 0.079162292
-0.035351828 -0.35689586 0.52160192 0.089302465 -0.97839701 0.18645224 0.0556597
-0.068549663 -0.28308254 0.62796241 -0.94328672 -0.13066222 -0.30518436 0.015846482
-0.10833545 -0.066531152 0.69327843 -0.91326135 0.32954952 0.23948011 0.10062021
-0.077751942 -0.26797435 0.70719606 -0.96755433 -0.17147693 0.18556513 0.01340883
-0.010196104 -0.36421913 0.52714038 0.0081147812 -0.93266445 0.36065373 0.076756142
-0.034010578 -0.20686796 0.58403414 -0.52951032 0.099324882 -0.84246868 0.024643557
-0.10606809 -0.059852649 0.65918612 -0.82207668 0.56196499 -0.091571733 0.097635426
-0.10802664 -0.062268563 0.6600439 -0.86711162 0.49466714 -0.058497082 0.10219359
-0.045339063 -0.19289044 0.78952754 -0.57516903 -0.12428086 0.80853879 0.014175021
-0.07103648 -0.2583299 0.62973481 -0.92907339 -0.13899688 -0.34278634 0.019094173
-0.030844785 -0.23080032 0.57804382 -0.53523916 0.15783733 -0.82982314 0.029209346
-0.067495428 -0.16689116 0.77044618 -0.82287902 -0.087542579 0.56143254 0.017599855
-0.0030246926 -0.055345312 0.59549415 0.0051038484 0.50921637 -0.86062348 0.06138555
-0.093612358 -0.16567639 0.67869979 -0.98175263 -0.17230812 -0.080447465 0.010436147
-0.10607082 -0.087967664 0.70806825 -0.94146353 0.15024629 0.30178219 0.082830623
-0.089824498 -0.20780921 0.67459476 -0.98320419 -0.16747466 -0.072537795 0.0083259288
0.15152234 -0.36367366 0.91634679 0.00089152303 -0.99998927 -0.0045391568 0.0019647924
0.15009189 -0.3630155 0.90146285 0.0088701667 -0.99993062 -0.0077458909 0.0020299142
-0.014801623 -0.35843363 0.9591924 -0.043071505 -0.99872106 -0.02647776 0.0026103456
0.14829263 -0.36348808 0.86607111 0.01860808 -0.99982309 -0.0027325787 0.0012211084
-0.06424582 -0.25441319 0.61410689 -0.82945383 -0.011274944 -0.55846143 0.016584758
0.35134873 -0.36784729 0.85173506 0.016783353 -0.99977332 0.013097043 0.00072544726
-0.09311714 -0.16845347 0.67743689 -0.98123378 -0.17166215 -0.087820068 0.010764387
0.36512637 -0.36101291 0.91643631 0.028813154 -0.9995597 0.0070828181 0.0021095413
-0.084311284 -0.21556045 0.65186352 -0.97368747 -0.17832112 -0.14189531 0.010193384
0.36415485 -0.36807427 0.87386459 0.027479379 -0.99951404 0.01471405 0.0010460011
0.37260845 -0.3633939 0.91995841 0.029461043 -0.99954104 0.0070484835 0.0023402837
-0.081681766 -0.19607428 0.63315731 -0.94653171 -0.13060719 -0.29499045 0.017524557
0.064005703 -0.36263049 0.95159227 -0.061206006 -0.99806803 -0.010684539 0.0023220449
-0.093271881 -0.16179986 0.65070111 -0.97517866 -0.16829813 -0.1438828 0.012392554
-0.088383675 -0.21731132 0.69206405 -0.98759514 -0.15145193 0.04144967 0.01541139
-0.090331234 -0.20806742 0.68870169 -0.986274 -0.16288535 0.027052747 0.01474979
-0.066734195 -0.28190455 0.61765552 -0.89379424 -0.079046272 -0.44145605 0.02103729
-0.11082812 -0.067389481 0.66631287 -0.91333705 0.40716702 0.005512788 0.10917169
-0.096673667 -0.092348494 0.71807158 -0.93083006 0.11618668 0.34649104 0.064447314
-0.068856701 -0.18431373 0.76314282 -0.86332184 -0.10964233 0.49259916 0.01028931
-0.0015251032 -0.12228043 0.81099844 -0.14480135 0.096047275 0.98478806 0.027055657
-0.11191171 -0.089100987 0.68061388 -0.97201711 0.13605188 0.19150086 0.10308668
-0.062760472 -0.057024851 0.70916241 -0.32060391 0.93484986 0.15254091 0.057463676
-0.061273463 -0.17729968 0.7749033 -0.79118758 -0.07495787 0.60696256 0.021153325
-0.056257926 -0.065085866 0.77804732 -0.47281417 0.59899801 0.64625704 0.04779575
-0.065544806 -0.058311373 0.72435921 -0.31615826 0.92356205 0.21697219 0.042854887
-0.071324728 -0.060006972 0.7394172 -0.43668044 0.83868235 0.32545674 0.047069252
-0.10594945 -0.072422989 0.70591319 -0.912063 0.29416832 0.28566772 0.092258357
-0.030792387 -0.23000921 0.79467124 -0.58114195 -0.16119859 0.79767728 0.019014455
-0.08355356 -0.065614842 0.75269747 -0.60950655 0.64508343 0.46083528 0.042171728
-0.078835055 -0.061227269 0.73745793 -0.48474184 0.8078984 0.33514997 0.04637726
-0.031436734 -0.18350695 0.80240726 -0.4900479 -0.10618016 0.86520457 0.024421219
-0.068264201 -0.14700508 0.77266628 -0.78173095 -0.063468054 0.62037778 0.019727169
-0.046222419 -0.18223478 0.79060948 -0.54920858 -0.11771273 0.82735336 0.017854512
-0.046118569 -0.06855005 0.78921723 -0.43891025 0.51972747 0.73296732 0.057134323
-0.077504642 -0.2748518 0.70150459 -0.97197104 -0.17552803 0.15640442 0.013510951
-0.05096006 -0.058099121 0.71529704 -0.24764067 0.95205516 0.17962478 0.034525234
-0.10147575 -0.12846063 0.65530562 -0.98471689 -0.14678329 -0.093740411 0.015064938
-0.10182875 -0.065441623 0.70968008 -0.88856846 0.34924123 0.29745016 0.079965748
0.034648072 -0.096873216 0.80405557 0.20204738 0.24940859 0.94708616 0.044303995
0.18716127 -0.37995705 1.0614948 0.015932122 -0.99193197 -0.12576669 0.021320699
0.047492988 -0.36589289 0.98130649 -0.055569924 -0.99767655 -0.039412595 0.0025961576
-0.097844534 -0.082958557 0.72489774 -0.90864933 0.21413566 0.35847223 0.06145139
-0.082146406 -0.082819149 0.75105304 -0.79331797 0.24068999 0.55920911 0.048501272
-0.045696437 -0.059919477 0.74321806 -0.21891551 0.93302518 0.2855522 0.033640314
-0.055636294 -0.31921196 0.73172319 -0.87363899 -0.13696028 0.46690124 0.046045858
-0.024679428 -0.31317717 0.77765363 -0.65076005 -0.20061153 0.73230207 0.0818251
-0.09957765 -0.066575982 0.71853262 -0.88969928 0.33071393 0.31474358 0.070680626
0.15044616 -0.3610163 1.0411624 0.046584018 -0.99861538 -0.02443965 0.01100106
0.073933206 -0.36577901 0.8273111 -0.11286174 -0.97317517 -0.20048036 0.030088237
-0.10466286 -0.12352696 0.67251062 -0.99472928 -0.10245422 0.004096217 0.029106535
-0.083255745 -0.06389229 0.74767661 -0.62354892 0.63891292 0.45052969 0.041736446
-0.11051176 -0.098824374 0.67873287 -0.98615342 0.045519788 0.15946561 0.090536363
-0.036057048 -0.27913186 0.57821244 -0.59702146 0.11009084 -0.7946353 0.033588335
-0.10768867 -0.058707349 0.68280333 -0.82078791 0.56095099 0.10789459 0.10201018
0.034424029 -0.09840399 0.80513906 0.19764999 0.24361104 0.94951993 0.044279151
0.019701334 -0.12173038 0.81115222 0.065545842 0.08427681 0.99428421 0.018924989
0.18288399 -0.3644104 0.92045969 -0.0051820064 -0.99996382 -0.0067438153 0.0010880727
0.080956139 -0.36576396 0.83774626 -0.087707259 -0.98036474 -0.17661369 0.029355668
-0.022739932 -0.27076587 0.57107413 -0.44862837 0.13141604 -0.88400358 0.035857823
0.10335036 -0.36484438 0.83029878 0.00094100105 -0.98139143 -0.19201547 0.023022711
0.10513507 -0.37653062 0.86428803 0.003192174 -0.99994659 0.009836128 0.00089625811
0.16946919 -0.36211631 0.8848415 -0.0024951936 -0.99998838 -0.0041351872 0.002837101
-0.035818685 -0.26405364 0.77938038 -0.76882803 -0.20454016 0.60586035 0.011277234
-0.030700643 -0.21022391 0.80029231 -0.54848367 -0.13916895 0.82449847 0.018223176
-0.038015429 -0.16529827 0.79966295 -0.48692238 -0.074402444 0.87027055 0.019269941
-0.047417291 -0.30555239 0.58777809 -0.74325252 0.18598799 -0.6426385 0.082665108
-0.042865265 -0.33946091 0.74783534 -0.81676126 -0.11366281 0.56566942 0.084867075
-0.10103456 -0.068767868 0.72221655 -0.892443 0.3059155 0.33160385 0.067955628
-0.10316481 -0.060653154 0.69618201 -0.88035357 0.41132253 0.23620202 0.098796688
-0.073257476 -0.30139711 0.69706082 -0.97224498 -0.18192467 0.14711569 0.021040974
-0.096134916 -0.15658513 0.66818219 -0.97524214 -0.17988816 -0.12861955 0.011178665
0.0077721956 -0.15079764 0.81291324 -0.076721758 -0.046708383 0.99595785 0.021367792
-0.08730416 -0.18108664 0.70658654 -0.96872497 -0.12006178 0.21715692 0.011042568
-0.081856422 -0.060145922 0.72123361 -0.63941813 0.71102124 0.29256323 0.069311678
0.038868394 -0.072218567 0.79644686 0.16666049 0.63746828 0.75223565 0.058889311
0.058675032 -0.36356813 0.95136827 -0.053941332 -0.99844956 -0.01373909 0.0020282031
-0.024181401 -0.36017859 0.85876924 -0.056704246 -0.98947543 -0.1331279 0.0082617793
-0.026340831 -0.24526422 0.57474762 -0.51031554 0.13966377 -0.84857064 0.029134665
-0.059270121 -0.10043054 0.78655845 -0.60224646 0.20247187 0.7722075 0.040902212
-0.053999517 -0.30829021 0.59823537 -0.79189813 0.11466581 -0.59979087 0.085988209
-0.094691277 -0.12998436 0.71048552 -0.93862361 -0.084618025 0.33440331 0.020961981
-0.099299371 -0.11305027 0.7129038 -0.93120617 -0.042634174 0.36199084 0.039409671
-0.05474085 -0.26755938 0.75461918 -0.841892 -0.18128914 0.5082835 0.0030917753
-0.045533407 -0.30213174 0.75333065 -0.82966518 -0.14240661 0.53979272 0.035611857
0.31801936 -0.36898276 0.79163975 -0.0085233031 -0.99994653 -0.0058478792 0.00032576203
-0.048059009 -0.17839248 0.78943336 -0.56453276 -0.11482237 0.8173852 0.019382114
-0.049837671 -0.20903234 0.77867639 -0.70401347 -0.16048601 0.69181591 0.016450003
-0.0039191423 -0.0477781 0.59907818 -0.0006071183 0.61595714 -0.78777945 0.084131904
-4.1812851e-05 -0.048167322 0.60134703 0.01758091 0.63883036 -0.76914662 0.086773179
-0.068334177 -0.052192889 0.61031669 -0.2680015 0.90422767 -0.33248672 0.059548337
0.019236809 -0.046912458 0.6080187 0.073703244 0.81600624 -0.5733251 0.070730202
0.10016095 -0.056139402 0.697007 0.63515317 0.76992351 0.061629426 0.045245346
-0.070494324 -0.052495666 0.65886027 -0.33129367 0.94348067 -0.0094248531 0.061798587
-0.1092212 -0.058734357 0.66511655 -0.85318381 0.52158761 -0.0048756576 0.10311726
-0.054542717 -0.068043485 0.78904271 -0.47064608 0.5223062 0.7111178 0.051640309
-0.051031034 -0.067560427 0.79173905 -0.45038244 0.50037986 0.73944277 0.05495077
-0.046136566 -0.18347391 0.79042822 -0.55686438 -0.11117968 0.82312888 0.01685149
-0.077025674 -0.25813586 0.71318698 -0.94955075 -0.15276356 0.27389199 0.012484305
-0.035694476 -0.26370576 0.77977175 -0.76530778 -0.20564017 0.60993117 0.010961548
-0.058979034 -0.33967784 0.71489424 -0.93247443 -0.15818764 0.32475859 0.065922119
-0.074983031 -0.060262319 0.73763335 -0.44390395 0.83797938 0.3173956 0.047000118
-0.042540964 -0.15704134 0.79644883 -0.49715534 -0.067012161 0.86506987 0.01505415
-0.047153261 -0.068096995 0.78849626 -0.43975973 0.53005642 0.72501838 0.056880385
-0.011641414 -0.070791289 0.79723561 -0.16078553 0.43263265 0.88711721 0.051696304
0.0035265204 -0.068616219 0.79978198 -0.02929333 0.48242366 0.87544805 0.055758283
0.0085603045 -0.18264468 0.81425643 -0.0684264 -0.1067647 0.99192697 0.025736133
0.011478781 -0.084223107 0.80592668 0.041219313 0.30954763 0.94999015 0.0429735
-0.0075186947 -0.12546292 0.8116501 -0.21861802 0.07790529 0.97269571 0.026585042
0.2252368 -0.36291477 0.57716674 -0.043532126 -0.99898934 0.011192962 0.0014957214
