# .PCD v0.7 - Point Cloud Data file format
VERSION 0.7
FIELDS x y z
SIZE 4 4 4
TYPE F F F
COUNT 1 1 1
WIDTH 1408
HEIGHT 1
VIEWPOINT 0 0 0 1 0 0 0
POINTS 1408
DATA ascii
-0.092707813 -0.1992683 0.63201421
-0.02703958 -0.33106479 0.47821349
0.0051103532 -0.3172451 0.69466293
0.023085911 -0.41476831 0.3321383
-0.093765043 -0.2541931 0.58848113
-0.21636119 -0.41699859 0.47856581
-0.1987711 -0.41459259 0.54142869
0.64958602 -0.079533987 0.41327891
-0.065119527 -0.39015079 0.61193478
0.44358349 -0.108009 0.33543959
0.72851878 0.076398388 0.55745709
-0.1214677 -0.38632369 0.66459268
-0.1082641 -0.092859097 0.61790693
-0.099283829 -0.19404531 0.58974719
0.023093389 -0.088187553 0.71840608
-0.059788849 -0.2741504 0.66638267
0.01214925 -0.19931971 0.71196949
-0.01496164 -0.36056331 0.68713528
-0.04908374 -0.1034871 0.70683539
0.3932769 -0.1226966 0.34034109
-0.09312775 -0.27842551 0.60419607
0.69406992 -0.1222021 0.4660227
-0.091781273 -0.2061176 0.63709998
-0.003009903 -0.37792471 0.76723909
-0.047019452 -0.3815372 0.77070838
0.23704299 -0.38134381 0.78848797
-0.080708712 -0.094119214 0.55824041
-0.1003282 -0.1037949 0.5779922
-0.095096387 -0.2799044 0.56652158
-0.1996277 -0.40376109 0.62174928
-0.02417176 -0.35593411 0.675946
-0.1045177 -0.092235766 0.6348381
-0.2021431 -0.40231341 0.60603279
-0.096511729 -0.1652623 0.63394791
-0.083372429 -0.2447004 0.64489949
0.0087809553 -0.21972039 0.70272678
-0.067010798 -0.39060521 0.6267035
0.56924081 0.08721941 0.79726362
0.43010789 -0.37618229 0.73553461
0.15234169 -0.39407039 0.78017271
-0.1028201 -0.087919593 0.65419298
-0.060546469 -0.30574489 0.65440059
-0.033710249 -0.3843593 0.65606147
-0.059001919 -0.1559545 0.69133729
-0.064231843 -0.1979209 0.5269534
-0.090875573 -0.19463921 0.64375699
0.30241919 -0.1019633 0.75878441
0.045204271 -0.088770486 0.67169458
-0.02775109 -0.090262793 0.694763
0.02047319 -0.091938607 0.72073919
-0.02883351 -0.38608459 0.75236958
0.01057364 -0.091259576 0.71772438
0.079126254 -0.095291987 0.6819579
-0.020384669 -0.088191062 0.61312449
-0.04580532 -0.089427873 0.68433231
-0.043345839 -0.091804311 0.6942656
-0.016740721 -0.089638442 0.68896669
-0.01453557 -0.089579962 0.6959008
-0.039153509 -0.3785221 0.67209512
-0.02415021 -0.088399142 0.67120647
-0.024529791 -0.085275352 0.56751972
-0.033691742 -0.089162089 0.58205527
-0.03460782 -0.090581618 0.58821273
-0.047373209 -0.090741351 0.62824643
-0.020512581 -0.091810822 0.60104883
0.02054389 -0.093628094 0.72149128
0.026597001 -0.091047853 0.61165649
-0.070793293 -0.090500303 0.62241668
-0.035778008 -0.089846097 0.69241643
-0.040287539 -0.085839063 0.58325809
-0.01023196 -0.09463238 0.71003193
-0.054103442 -0.08624588 0.55445403
0.069016993 -0.091818541 0.69027418
-0.059968188 -0.088723943 0.63128912
-0.01486674 -0.087375477 0.60170507
-0.049944829 -0.090981223 0.66206533
-0.041139148 -0.093781471 0.68616849
-0.029210649 -0.09257295 0.69238591
-0.03653843 -0.085907131 0.58454323
-0.073431812 -0.091112487 0.63232207
-0.073388606 -0.088828273 0.63431728
-0.086148508 -0.090565279 0.63655913
-0.073219553 -0.089649707 0.6627546
-0.088858657 -0.090113163 0.60208797
-0.042600889 -0.091548927 0.698138
-0.01319201 -0.090869591 0.69208407
-0.082698561 -0.094201922 0.67591548
0.02897512 -0.38652691 0.75628328
-0.02430482 -0.38802731 0.73094839
0.29134461 -0.39630511 0.32398751
-0.086811133 -0.09467303 0.67659259
-0.082238778 -0.091252171 0.67469418
-0.097852036 -0.094346114 0.67495602
-0.057461008 -0.098992936 0.70581901
0.33305779 -0.40420049 0.20878039
0.35790581 -0.39663199 0.210416
0.03555074 -0.3900471 0.74965918
-0.005196162 -0.3855415 0.76709139
-0.06704361 -0.093043543 0.6877259
-0.01741014 -0.090466402 0.70584601
0.38539439 -0.38183779 0.2341449
-0.01996024 -0.3884427 0.78053588
0.022287801 -0.3928411 0.78608382
0.0320311 -0.38473639 0.73642981
0.04081551 -0.39377791 0.79051179
-0.02361349 -0.092197508 0.68802118
0.021636611 -0.39152431 0.74691337
0.04707063 -0.39349961 0.78590077
-0.02167858 -0.09013734 0.70362532
0.38899651 -0.39097679 0.28266829
0.39303771 -0.37399149 0.2591517
0.38857991 -0.2702463 0.29654029
0.3841297 -0.23473351 0.29683831
0.38068581 -0.20703121 0.29650939
0.38382819 -0.25194541 0.2877427
0.3660782 -0.29231161 0.35207859
0.047759838 -0.38881609 0.79222471
0.38393271 -0.26343441 0.2329744
0.36653379 -0.38646549 0.41955829
-0.069426291 -0.1045919 0.6909076
-0.068226613 -0.090698913 0.69115227
0.40502369 -0.2752738 0.3392854
0.3986702 -0.2796253 0.33197331
0.39443311 -0.26527259 0.32432961
0.3712652 -0.33015981 0.4184128
0.3804546 -0.2213255 0.41576779
0.3987754 -0.26428279 0.31101909
0.39969361 -0.26228461 0.3069329
0.39928091 -0.2606017 0.3345696
0.38340849 -0.22680239 0.42332399
0.38550901 -0.326114 0.25766069
0.39006421 -0.27739561 0.28158951
0.3820174 -0.28878149 0.25594479
0.036909651 -0.38721621 0.80275011
0.37412119 -0.2345926 0.40368649
0.3675741 -0.36724049 0.41405761
0.36502111 -0.35671371 0.40068081
0.36919749 -0.37838051 0.45162839
0.39545569 -0.22925781 0.35147849
0.37052771 -0.36373529 0.44573131
-0.076371491 -0.091765933 0.67806959
-0.033123199 -0.086862624 0.68475568
0.38277519 -0.38341141 0.52929813
0.39012441 -0.37797159 0.49953341
0.051341169 -0.38825011 0.80017883
0.043002941 -0.38603821 0.80897307
0.031498469 -0.38631311 0.82333207
0.01540823 -0.104723 0.72372609
0.040038269 -0.3889218 0.81751871
0.029607991 -0.38862279 0.79882622
-0.015959039 -0.087549053 0.61964709
0.0041598212 -0.086491637 0.56529588
0.38246161 -0.227648 0.46447769
0.37325439 -0.3388665 0.44205609
0.38310799 -0.36128831 0.23375329
0.37941319 -0.36157301 0.48972711
-0.03983504 -0.09148895 0.68086457
0.393666 -0.37553781 0.53119838
0.41764599 -0.37914851 0.52230859
0.38665649 -0.38500699 0.54566199
0.05367811 -0.38952839 0.82494938
0.046878319 -0.38367519 0.80929792
0.039141189 -0.3862972 0.81806809
-0.02698601 -0.38369659 0.76275402
-0.026020469 -0.38304341 0.77140158
0.4184545 -0.2135561 0.45675641
0.39006329 -0.20638581 0.4166173
0.02757193 -0.3868145 0.7688958
0.052361149 -0.383183 0.81521922
0.3902415 -0.2332669 0.4850193
0.01603288 -0.090096958 0.62881267
-0.077584453 -0.088440739 0.64061081
-0.1020727 -0.090944149 0.58459169
0.39193761 -0.37937611 0.2423324
0.38905111 -0.38271859 0.53045392
0.3832173 -0.2236858 0.47409949
0.38520271 -0.3893761 0.55907291
0.032173939 -0.38819841 0.86839461
-0.04207512 -0.086735398 0.56970972
0.37837771 -0.38980579 0.2116352
-0.040601149 -0.087003767 0.58796859
-0.086537749 -0.092034921 0.61183429
0.36734331 -0.39853409 0.3189247
0.3967821 -0.33653 0.52143002
0.40419751 -0.35813639 0.55805981
0.4070583 -0.38753179 0.5818069
-0.066949211 -0.089196756 0.63139403
-0.08299078 -0.088851571 0.60374248
-0.088239327 -0.091899224 0.63658297
0.37925869 -0.40379581 0.54448712
-0.036550801 -0.088591076 0.56988567
-0.078034103 -0.09103898 0.68257987
0.4138867 -0.37265381 0.54406399
0.39802831 -0.2000124 0.3976512
0.40393949 -0.3703298 0.52674359
0.50580949 -0.2318812 0.4940362
0.37215719 -0.21054859 0.2653724
0.53150678 -0.2111913 0.44626129
0.02117848 -0.087838233 0.65316862
0.3853991 -0.1492513 0.39380199
0.14828131 -0.39270759 0.77559811
0.0092895217 -0.19583111 0.71272272
0.26748851 -0.39344379 0.72775543
-0.083657727 -0.097306527 0.67897868
-0.04798004 -0.090367027 0.68391162
0.3743715 -0.3302277 0.43855771
0.0177748 -0.14779229 0.71739638
-0.053198092 -0.089092977 0.62876803
0.365502 -0.15966 0.25602421
0.47323149 -0.25512081 0.54400247
0.4054327 -0.30146289 0.60659963
0.39860529 -0.29491261 0.53326601
0.39370471 -0.2013402 0.3777805
0.40320539 -0.1404022 0.37912419
0.48215869 -0.23082601 0.52159947
0.39389229 -0.15306909 0.3801212
0.39712569 -0.29220861 0.61710888
0.017336421 -0.38079101 0.76109213
0.38694361 -0.32025331 0.25153661
0.030411631 -0.096886419 0.68015963
0.39801821 -0.38221401 0.65717721
0.3832128 -0.1363591 0.34765029
0.028163191 -0.091787256 0.72111511
0.3712188 -0.209236 0.2670081
0.38186091 -0.14935841 0.33565971
0.3801803 -0.27050921 0.2112004
0.41578719 -0.1335195 0.3744238
-0.075840697 -0.095929138 0.54205298
0.41498959 -0.37816489 0.62843192
0.42158571 -0.33629721 0.61798918
0.50039327 -0.21293969 0.38076231
-0.073070839 -0.090998322 0.56152463
0.36691731 -0.1373757 0.27783859
0.38022071 -0.1434314 0.35755521
-0.079964317 -0.1048532 0.687527
-0.062522583 -0.1041743 0.7021594
-0.1057311 -0.091610312 0.58868498
0.33398429 -0.1544352 0.92498738
0.37826961 -0.2359363 1.295061
0.34939951 -0.17670549 0.9984746
0.38526931 -0.2205881 1.300491
0.30153519 -0.24063709 1.317852
0.31372511 -0.2388669 1.306366
0.17824361 -0.2169797 1.398862
0.16192161 -0.21169101 1.402518
0.1071171 -0.2035818 1.447626
0.1486789 -0.2095658 1.405993
0.1164126 -0.25506279 1.420086
0.1186153 -0.27815959 1.396795
0.096061163 -0.2305205 1.416339
0.03312508 -0.1929407 0.49553701
0.27026111 -0.38125911 0.61345732
0.0065572318 -0.35806271 0.47870731
-0.0213427 -0.1655198 0.49555501
0.02213786 -0.2881476 0.47400481
0.04708536 -0.30060819 0.4749175
-0.033555921 -0.3135612 0.49005169
0.0080757132 -0.2738111 0.47420979
0.0065888208 -0.27600959 0.47344661
-0.031165071 -0.31104541 0.48571339
0.048857421 -0.1658875 0.49589401
0.0063666012 -0.1474447 0.49292091
0.01459183 -0.1401931 0.50010657
0.092982337 -0.27615511 0.50442672
0.25911209 -0.38654459 0.66754639
-0.051246081 -0.20531119 0.50397569
0.016244611 -0.1694265 0.49949369
0.03105519 -0.27851781 0.47726789
0.072037823 -0.2433749 0.49822271
0.079193242 -0.2229885 0.4953281
0.038377859 -0.16835891 0.4953053
0.0224167 -0.1995782 0.49194551
-0.024163179 -0.36549991 0.49295381
0.079412997 -0.2255441 0.4988558
0.01104006 -0.14236569 0.49764571
-0.045309629 -0.2597014 0.4854081
0.02476052 -0.28149769 0.4749741
0.28038201 -0.38290441 0.77320307
-0.0424788 -0.2749685 0.48859271
0.01128785 -0.1882311 0.49087521
0.00131069 -0.3816011 0.48137119
-0.01893612 -0.28610739 0.47622061
-0.094610058 -0.31145099 0.56885082
-0.066055618 -0.3699578 0.52696192
-0.069306977 -0.3616387 0.53037947
-0.074506342 -0.30778971 0.53433943
-0.082946748 -0.23763689 0.55263638
-0.1781143 -0.39268231 0.67982662
-0.090112261 -0.40113601 0.54613298
-0.0068956981 -0.26144239 0.4805831
0.040001482 -0.25785571 0.48082611
0.04843495 -0.1765368 0.49399301
-0.0876818 -0.252518 0.56158811
-0.01546762 -0.28566149 0.47651061
0.041203491 -0.33901969 0.47364351
-0.057451021 -0.25210559 0.49907091
0.031441558 -0.1696381 0.49821621
0.042433821 -0.15989511 0.49610081
0.035953671 -0.244892 0.48418641
0.042447429 -0.31349239 0.47383371
-0.20107611 -0.39692381 0.66836852
-0.01186532 -0.3746326 0.48343059
0.023497291 -0.39773011 0.48168141
0.0368708 -0.1647432 0.4963004
0.088558212 -0.38935319 0.44370171
-0.004240172 -0.38008639 0.4867588
-0.079600751 -0.3838428 0.53446388
0.04972754 -0.28987709 0.4720355
0.027529901 -0.2199792 0.4879491
0.039841712 -0.34475189 0.47802851
0.25478491 -0.37973529 0.77367628
0.3008244 -0.37176979 0.75538212
0.25733 -0.38533759 0.62609053
-0.066571437 -0.28092289 0.52312219
0.038617808 -0.37945229 0.4814671
0.2553041 -0.3825621 0.6011495
0.002394472 -0.31915769 0.4700743
0.25651231 -0.38620791 0.72034359
-0.0179497 -0.3765747 0.48745021
0.068463467 -0.3514781 0.47775349
-0.1342425 -0.39533699 0.64240402
0.2567375 -0.38338429 0.74375641
0.26489019 -0.38652459 0.76302719
-0.02597151 -0.29124859 0.48029879
-0.05194414 -0.2253433 0.50028342
0.29508671 -0.38350579 0.66237241
0.076944709 -0.2364396 0.49501261
-0.086609587 -0.29442811 0.56472951
0.069839351 -0.3899799 0.4438875
0.2821697 -0.3852458 0.75854558
0.2224739 -0.38922819 0.66698641
0.27446669 -0.3772856 0.72158372
-0.1992061 -0.39474589 0.67347592
0.27355751 -0.3846007 0.73494679
0.057759639 -0.2092506 0.49174991
0.22060069 -0.38271981 0.5377419
0.26212841 -0.38745281 0.6427114
-0.050569471 -0.2236627 0.49812499
0.25368509 -0.38649419 0.57898289
-0.043439101 -0.25882721 0.49218941
-0.0291411 -0.27570489 0.47985291
0.039849129 -0.28256601 0.47540379
0.058380309 -0.1720746 0.50164229
0.118837 -0.38641101 0.43988609
0.042242721 -0.1756703 0.4947859
-0.1096775 -0.34992641 0.59679282
-0.098945901 -0.39884281 0.56273109
-0.26277089 -0.37793791 1.221032
-0.33178771 -0.38345549 1.096843
-0.29651329 -0.38562569 0.95509392
-0.23693269 -0.3841587 1.020069
0.1495408 -0.38362169 0.77365929
0.16337921 -0.38018659 0.73165637
0.1840816 -0.39629191 0.44438279
0.1703527 -0.3947807 0.44370291
0.1983656 -0.39212891 0.4430843
0.2360211 -0.39605951 0.4906843
0.1889157 -0.3972013 0.4400875
0.2061865 -0.39438599 0.55616617
0.1453926 -0.3787379 0.7721045
0.23911691 -0.389256 0.52373773
0.2384733 -0.3916997 0.52526259
0.24494921 -0.39533621 0.49244139
0.1878363 -0.38106501 0.78438938
0.22074869 -0.38246319 0.74931031
0.2378682 -0.39239851 0.57347471
0.22825231 -0.38211921 0.64628822
0.2571699 -0.39242399 0.52909279
0.2326013 -0.39388159 0.55347991
0.2453959 -0.39709309 0.56895941
0.19336911 -0.3935889 0.555327
0.2709356 -0.38439909 0.6161086
0.25833151 -0.3799729 0.6645543
0.28279969 -0.39331099 0.59868008
0.2165949 -0.37921941 0.7826767
0.2183477 -0.3891685 0.66166848
0.25358289 -0.38827309 0.72115147
0.25450879 -0.39333761 0.58381081
0.26877519 -0.3979736 0.55426782
0.2533375 -0.3923527 0.58649433
0.2558229 -0.3895686 0.62251443
0.26055321 -0.39027861 0.63327253
0.29125851 -0.39539841 0.56072873
0.27939531 -0.4021638 0.5663228
0.27515811 -0.40127301 0.55764502
0.2575632 -0.3812038 0.70328432
0.2411022 -0.39216319 0.53763789
0.21866859 -0.38211051 0.6065011
0.2348205 -0.3809686 0.7871182
0.086974472 -0.084677391 0.54885978
0.071549572 -0.2400824 0.49449319
0.259442 -0.37711129 0.71501929
0.073012903 -0.079845093 0.52947068
0.040820882 -0.16041949 0.49097729
0.222039 -0.3831912 0.65818441
0.1307255 -0.2041492 1.40794
0.1001276 -0.108132 1.43303
0.1111969 -0.2166508 1.402553
0.079829723 -0.221056 0.4939515
0.01795643 -0.081831403 0.51256198
0.1033002 -0.1320345 1.436705
0.25452879 -0.37232 0.86858082
0.26306549 -0.37606639 0.82631999
0.218219 -0.37540919 0.89768618
0.1104248 -0.085381031 1.443912
0.114709 0.01992102 1.495761
0.17359561 -0.1695116 1.391188
0.1257724 -0.2479327 1.4139121
0.1954919 -0.1639148 1.380406
0.2824744 -0.3834298 0.77596962
0.2608633 -0.36152229 1.030513
0.01388478 -0.08757931 0.50607771
0.0078089759 -0.14223529 0.4873738
0.040956538 -0.084396288 0.52342713
0.02421896 -0.2001963 0.4949317
0.01464252 -0.074911639 0.5029673
0.046367791 -0.13873111 0.49629331
0.049838308 -0.1643935 0.49643111
0.054519311 -0.13308351 0.50418627
0.05810811 -0.207882 0.4929004
-0.01489592 -0.2842055 0.47559151
0.2234973 -0.3811698 1.001464
0.22070511 -0.36591741 1.098142
0.19087049 -0.38070029 0.99311173
0.037759811 -0.2421681 0.48140749
0.2384948 -0.3659825 1.003293
0.26443011 -0.36262831 1.00762
0.249689 -0.35950339 1.040859
0.059886839 -0.079423413 0.51760972
0.2462517 -0.3702724 1.158798
0.2010099 -0.37065259 1.316892
-0.0194009 -0.29743519 0.47593099
0.1245176 0.05402087 1.488201
0.29854071 -0.2345715 1.3107851
0.007596809 -0.27532199 0.47546661
0.2427417 -0.3720673 1.153353
0.3106159 -0.18525919 1.326821
0.31156549 -0.2009099 1.323005
-0.50010312 -0.38276219 1.4702981
0.2833797 -0.35615829 1.033736
0.1906167 -0.20205981 1.395116
0.2636666 -0.37088099 0.65801358
0.26574779 -0.3575446 1.2863851
-0.00078800193 -0.073789664 0.50291222
-0.058278099 -0.089441597 0.53410387
-0.00070559041 -0.085679203 0.49907121
-0.0079017663 -0.077409737 0.49687251
0.04656269 -0.069341041 0.51493043
-0.028491169 -0.2866911 0.46491489
-0.05062478 -0.1104241 0.52832347
0.24834929 -0.37554729 0.9922471
0.094739698 -0.080872796 0.56507802
0.2895577 -0.3614659 1.2786011
0.3117964 -0.2239532 1.279888
-0.19301809 -0.382622 0.65271908
-0.3398093 -0.37331641 1.4500459
-0.08597666 -0.39343771 0.53829157
0.09845607 -0.3375417 1.422895
-0.096026577 -0.1014948 0.57930088
-0.094748907 -0.093954377 0.57903081
-0.2011216 -0.39616981 0.7274071
-0.016186509 -0.076188907 0.50579411
0.01670575 -0.129954 0.48034611
-0.074248217 -0.16213439 0.54587489
-0.050699361 -0.12902901 0.51881278
0.021100231 -0.109484 0.51268238
0.34434161 -0.34857741 1.241164
0.347343 -0.2149933 1.285602
-0.085809968 -0.35976309 0.53763002
-0.6624524 -0.40054521 1.343074
-0.01409572 -0.32857409 0.48510939
0.1709469 -0.349186 1.3201081
-0.084211208 -0.40309489 0.49448001
0.015956709 -0.31812409 0.46767199
0.02303621 -0.28866571 0.47328681
0.005537217 -0.077874668 0.50367367
0.05945925 -0.16841801 0.49516079
0.01674691 -0.35101959 0.47555149
0.083165117 -0.09148515 0.54395378
0.01008904 -0.3296282 0.46869561
0.029602511 -0.33241689 0.47281891
-0.07118199 -0.082906343 0.53335029
0.062491789 -0.34646991 0.4876551
-0.69313258 -0.38727701 1.497777
-0.0687121 -0.37247401 0.49931839
-0.1715114 -0.38126379 0.6668545
-0.065350354 -0.37479371 0.52995569
0.060312789 -0.3232401 0.47194481
-0.3954812 -0.38189021 1.407986
0.2556766 -0.383358 0.5748015
-0.017449999 -0.28599849 0.47453699
-0.40689591 -0.39201581 0.80755138
-0.4141278 -0.38664609 0.84928572
0.1754418 -0.37487879 0.98228723
-0.18602289 -0.38266611 0.68613458
-0.081555933 -0.4029372 0.48322561
-0.1664394 -0.40691879 0.48579219
0.04417092 -0.34813929 0.46853921
-0.082286842 -0.2354966 0.54665732
0.01668906 -0.10028 0.5072068
-0.048844911 -0.37184361 0.5130049
-0.57292128 -0.3882378 1.027993
0.045862541 -0.37500131 0.4759143
-0.4328419 -0.3924675 0.7944687
0.0070023509 -0.35123131 0.47453949
-0.1123537 -0.34813359 0.56271052
0.0019721671 -0.1476191 0.49321541
-0.06115257 -0.27998391 0.50925738
-0.094072349 -0.30913249 0.56683052
-0.046765 -0.2203197 0.49095801
-0.0290046 -0.38976741 0.4991748
0.01308614 -0.1824221 0.4821133
-0.01350048 -0.31242761 0.48414251
0.023558989 -0.3175869 0.46471119
0.2401804 -0.36739171 0.86764401
0.05966216 -0.34165901 0.4752776
0.24989671 -0.36958891 0.87588978
0.003833048 -0.358805 0.4794111
-0.2069708 -0.41359341 0.4342289
-0.3001509 -0.41503209 0.55386698
-0.06973166 -0.12965889 0.5359025
-0.036124691 -0.33076859 0.49891949
0.01557644 -0.38450089 0.48166811
-0.316066 -0.4193584 0.56189018
0.024865519 -0.33716211 0.46716961
0.2391829 -0.3831628 0.51621622
0.03445226 -0.084149532 0.51326948
-0.2125255 -0.41710401 0.46247581
0.24963909 -0.3846626 0.52694517
0.1027698 -0.37972239 0.4873448
0.040358469 -0.16962311 0.48913881
0.2603322 -0.39668629 0.58146518
0.053909719 -0.091948457 0.51870918
-0.061411768 -0.1316063 0.51872092
-0.050961051 -0.3368336 0.50464129
-0.056346372 -0.30340001 0.49604759
-0.4206847 -0.39173421 0.79585558
0.016993331 -0.3049207 0.48011979
0.0028506231 -0.1105339 0.4973039
-0.1517811 -0.3508493 0.68182492
-0.034881279 -0.2982696 0.48041749
0.02752929 -0.1768949 0.4938553
0.104191 -0.3719632 0.48298699
0.036350191 -0.39560989 0.44494379
0.2232185 -0.3778916 0.44293541
-0.2501784 -0.3895317 0.80968052
-0.32960421 -0.3856329 1.09991
-0.01416223 -0.32756129 0.48186889
0.042132702 -0.3212465 0.46023479
-0.071368031 -0.27416861 0.53254747
0.042501289 -0.2738418 0.46501631
0.0047139619 -0.4056614 0.479698
0.2400281 -0.3715235 0.57180071
0.072696187 -0.33766061 0.47658521
0.18610869 -0.380869 0.4317486
-0.1880818 -0.4044016 0.34131619
-0.45415819 -0.40218279 0.68592769
0.026153689 -0.37051919 0.40072259
-0.084118433 -0.37780181 0.5357098
-0.091162473 -0.39867729 0.41382501
0.05005715 -0.38940841 0.46667579
-0.036594659 -0.34946409 0.49327889
0.023324231 -0.28511849 0.47679931
-0.28894079 -0.41242811 0.4533487
-0.084817357 -0.3832154 0.4031266
-0.37536159 -0.41424051 0.57181728
-0.1297016 -0.3854681 0.63053387
-0.1836708 -0.3889223 0.31090519
0.2580606 -0.38102001 0.5976035
0.23527899 -0.3794322 0.43159041
-0.1302347 -0.40390271 0.45664889
-0.27374181 -0.40389001 0.44113591
-0.1544372 -0.3920894 0.55579168
-0.3586131 -0.41705459 0.56990361
0.03938999 -0.42478991 0.4509652
-0.097353518 -0.39707309 0.3537387
-0.28819889 -0.4176963 0.55829591
-0.2159092 -0.40040821 0.26470739
-0.1953153 -0.40099019 0.26766139
-0.069155633 -0.2026976 0.53025979
-0.093040869 -0.099844702 0.57144558
-0.0096098334 -0.082767807 0.50685507
-0.042257741 -0.088737257 0.69052672
-0.04678135 -0.2039333 0.4999086
-0.057667691 -0.2101371 0.50608671
-0.03098614 -0.080821753 0.69097519
-0.089065753 -0.1015074 0.57068509
0.042176809 -0.081629217 0.6686883
0.2415525 -0.36857149 1.15286
-0.15854821 -0.38833311 0.66794318
0.27405429 -0.35644671 1.199024
0.25743759 -0.36502609 0.99389762
-0.031642351 -0.087036431 0.68534672
-0.046876881 -0.24032091 0.4943029
-0.073466673 -0.083179802 0.63292658
-0.092476703 -0.086381249 0.57127267
0.23761161 -0.36384141 1.008419
-0.071964398 -0.1830077 0.5343321
0.33133119 -0.1996229 1.263847
0.17769539 -0.37190911 1.012246
0.31828809 -0.1948857 1.32163
0.3153713 -0.22132739 1.295933
0.28099841 -0.21907701 1.309864
-0.13235579 -0.37524 0.84714723
0.40136001 -0.20808581 1.279287
0.15340979 -0.36221921 1.010417
-0.1074418 -0.089027628 0.58673632
0.27902651 -0.1659573 1.336264
0.25577441 -0.16267841 1.357556
0.3893508 -0.19771311 1.288291
0.4758572 -0.35432091 1.226899
0.073862568 -0.3644799 1.000375
0.4089053 -0.1770142 1.288828
0.45698151 -0.086051174 1.275667
0.40622339 -0.14541601 1.270695
0.41770679 -0.1497829 1.282149
0.049191311 -0.3639147 0.98345178
-0.016313899 -0.081950739 0.69039148
0.36290789 -0.1869659 1.226997
-0.077065192 -0.094002493 0.53619438
0.4637998 -0.32266349 1.1996059
0.3846575 -0.33444881 1.2479089
0.01523848 -0.39095691 0.48202819
0.33099639 -0.2277464 0.9883042
-0.072892137 -0.13487861 0.54829037
-0.067018911 -0.1547488 0.5225808
0.4812631 -0.059512611 1.289987
0.216068 -0.36761931 1.009235
0.47435659 -0.052104529 1.282509
0.47195339 -0.09573409 1.294448
0.6742481 -0.3090218 1.29188
0.61975342 -0.3188875 1.225877
0.46288019 -0.1019939 1.254464
0.50014001 -0.061599951 1.2798311
0.049885329 -0.3812212 0.97920811
-0.1067167 -0.089804567 0.60810453
-0.07838165 -0.37537029 0.66355813
-0.1036507 -0.37289441 0.66947538
-0.074842058 -0.081792913 0.55967712
0.024957029 -0.28582901 0.47461629
-0.033402249 -0.29432791 0.47996879
-0.082395762 -0.37347281 0.78227818
-0.084166877 -0.36626309 0.8062095
-0.1052995 -0.084142573 0.64596641
-0.097314179 -0.37299559 0.79444402
-0.070226893 -0.1829547 0.53303123
0.4940691 -0.032032799 1.281835
0.35233629 -0.31353801 0.94285262
-0.067221127 -0.1623321 0.53750151
0.046235889 -0.138936 0.49939609
-0.076021813 -0.1557824 0.5419305
0.66721249 -0.30941159 1.3285021
-0.083819173 -0.128985 0.55593097
-0.0080209989 -0.086350322 0.500278
-0.065444238 -0.3781994 0.62650287
0.34554091 -0.1448213 0.93537289
-0.089104369 -0.33170891 0.59122741
-0.022110481 -0.2895762 0.47781211
-0.049101889 -0.2222919 0.49663651
0.28913179 -0.076582447 0.79437947
0.2966485 -0.085108899 0.78599572
0.5654006 0.017384799 1.307556
-0.059128609 -0.20740061 0.51503509
-0.05687312 -0.2092413 0.50632918
-0.077257633 -0.1020702 0.5521816
0.39327049 -0.34387159 1.240207
0.33460501 -0.27657071 0.87311131
0.3317146 -0.1951354 0.89988017
0.66698319 -0.34816191 1.303988
-0.09444461 -0.2517314 0.59091842
0.4881064 -0.33825839 1.32403
-0.045443989 -0.2643435 0.4887068
-0.089490138 -0.23377991 0.56376588
0.1065666 -0.39258769 0.4463363
-0.098092698 -0.2968294 0.60315472
0.29029229 -0.066183478 0.69173712
0.3059299 -0.074546993 0.68389308
0.28710419 -0.0747867 0.68889171
0.50654268 0.040636528 1.26644
0.48696101 -0.01004974 1.238843
0.3120912 -0.1746743 0.66677529
-0.080907412 -0.2660462 0.54575467
-0.079284683 -0.089455754 0.53462392
0.29591581 -0.36273631 1.316631
-0.099064261 -0.33964461 0.59661239
0.043249421 -0.36913061 0.93150991
0.3164579 -0.17822631 0.90023971
0.29603741 -0.080101296 0.74460107
0.28060549 -0.074272864 0.67125982
0.31060171 -0.1751375 0.70436162
0.3014307 -0.1094915 0.67725652
-0.093540683 -0.1992328 0.62808722
0.43116269 -0.28479281 0.72985959
0.40900931 -0.2016059 0.64882272
0.502226 -0.003754243 1.285954
0.47826189 -0.0048420271 0.77175111
0.4792397 -0.0032597741 0.83483303
0.28042239 -0.05631401 0.70258301
0.4522121 -0.030828699 0.72699523
0.41440529 -0.01421011 0.75833398
0.322736 -0.1820962 0.71560538
0.3018046 -0.1304272 0.68858951
0.41684079 -0.0123616 0.82082027
-0.075051174 -0.094591983 0.55464929
-0.110197 -0.091336682 0.5981521
0.039998591 -0.3732107 1.014657
-0.082833111 -0.086324982 0.67361039
-0.05006006 -0.3998937 0.81072968
-0.035240259 -0.38238651 0.77711958
0.42884979 -0.2485019 1.0891089
-0.033290431 -0.39302531 0.80408448
0.1875556 -0.3676385 1.022931
0.158531 -0.3645916 0.94563031
0.4431079 -0.33430719 1.177743
0.35186979 -0.1588054 0.9179582
0.3262468 -0.2898398 1.285313
0.32355699 -0.20689809 0.77144939
0.28337359 -0.35710731 1.184975
0.50492531 -0.35001591 1.30585
0.3181318 -0.1626038 0.9107098
0.4680424 -0.17358109 1.269935
-0.106706 -0.095696658 0.5820986
0.02109015 -0.087102957 0.72051078
0.28506419 -0.3076165 1.274693
-0.055001739 -0.21178091 0.49585789
0.51728213 -0.13817661 1.29646
-0.079768769 -0.30925369 0.5634647
0.032037299 -0.366016 0.92845511
-0.06225884 -0.23785511 0.51848137
0.33459681 -0.23098031 0.90428329
0.59958851 -0.23715749 1.3837039
0.62706292 -0.3216483 1.405826
0.32491639 -0.22501729 0.75784838
0.2951476 -0.13530371 0.72544491
-0.066714272 -0.12904011 0.5221867
0.22576991 -0.3828187 0.44243741
0.171377 -0.37588191 0.44196311
-0.074580081 -0.1447853 0.53055722
0.2275503 -0.39191201 0.45658419
-0.070312381 -0.1309904 0.52896541
-0.027118379 -0.2741138 0.47713631
0.53547132 0.0237264 1.3075089
0.561432 0.03054129 1.292882
0.44133729 -0.1076505 1.278338
0.54944038 0.063106753 1.3010401
0.56498653 0.085516542 1.308044
0.2280132 -0.34883639 1.1248029
-0.082284093 -0.085659049 0.56406599
-0.04014945 -0.071378946 0.67560631
-0.033904228 -0.086217642 0.58838183
0.2303443 -0.36882469 0.4289977
0.53696698 -0.3060123 1.378324
-0.077599727 -0.1074065 0.54065859
0.3783358 -0.3376621 0.53814048
0.20930161 -0.36736611 0.43209401
0.38067979 -0.33020809 1.0078681
0.37464339 -0.29119319 0.72035319
0.68063247 -0.335742 1.466903
0.35187119 -0.18783221 0.99519992
0.3222518 -0.2959756 0.97201347
0.006757427 -0.088476203 0.50012642
0.58194423 -0.31212309 1.335548
0.45817909 -0.38052511 0.60532552
0.078756802 -0.38750431 1.001721
0.53094661 -0.36481279 1.302213
0.4186334 -0.3534829 0.57742518
0.2365559 -0.36001211 1.002466
0.2867581 -0.23037989 1.300403
-0.078739747 -0.095892802 0.5554648
-0.094492927 -0.25041211 0.59231561
-0.1052606 -0.177168 0.60417259
-0.1011993 -0.099012569 0.67470002
-0.040355589 -0.37428129 0.67393059
-0.099737361 -0.19057471 0.62058753
-0.084880531 -0.27631271 0.6333468
-0.082018264 -0.39458179 0.55063969
-0.038990669 -0.3175835 0.67685819
-0.091759287 -0.29968849 0.58358997
-0.099749483 -0.084200077 0.67659348
-0.080639049 -0.26941881 0.62714487
-0.079070263 -0.2786893 0.64129013
-0.096259043 -0.27344659 0.60212028
-0.090415657 -0.36100981 0.56928468
-0.087106079 -0.1608426 0.6759342
-0.083606727 -0.30728409 0.63120639
-0.049499031 -0.3774212 0.65196961
0.47036961 -0.069228999 0.32785779
0.4091047 -0.1082746 0.3653222
0.35499379 -0.1029441 0.32036129
-0.087513968 -0.25621179 0.62156761
-0.006207224 -0.37514701 0.68947792
0.45531371 -0.1167783 0.36051571
0.38180399 -0.1514075 0.37051269
-0.077565111 -0.30920511 0.63564807
0.36195111 -0.1540653 0.25971961
-0.071000382 -0.3860074 0.60828668
-0.2331849 -0.4093374 0.51577443
-0.2091102 -0.41519701 0.54129428
-0.25155589 -0.41254449 0.54617971
-0.074700803 -0.41058639 0.34118
0.35512641 -0.1414531 0.2258172
-0.058072951 -0.3814162 0.64342493
-0.2100063 -0.41133791 0.3601484
-0.3049047 -0.41705361 0.55842489
-0.089303851 -0.1650977 0.65517431
-0.1987284 -0.4125638 0.54454851
-0.1661891 -0.40589789 0.48387581
-0.1302267 -0.4068673 0.45771661
0.4356375 -0.07935749 0.31863081
-0.05215485 -0.1672035 0.69379342
-0.077339403 -0.25190651 0.66093552
-0.033603311 -0.29211849 0.69055891
-0.078564383 -0.24238209 0.66194069
-0.2125666 -0.41961321 0.44596761
-0.091309801 -0.2800121 0.61420882
-0.2256339 -0.41123191 0.3315222
-0.21016181 -0.41612291 0.43998441
0.40883821 -0.1209363 0.36562699
-0.081161723 -0.37640411 0.59409028
-0.27473679 -0.41318771 0.34996739
-0.20102809 -0.4117851 0.29764569
-0.19520129 -0.4124864 0.3485797
-0.042589288 -0.37360051 0.67265552
-0.1709861 -0.4093686 0.48965561
-0.1050435 -0.1815169 0.6099267
-0.091543511 -0.14015611 0.67806822
-0.099063799 -0.1076828 0.67359239
-0.075786568 -0.1047491 0.69380838
-0.036947921 -0.085469313 0.68130952
-0.01395142 -0.35710171 0.68949652
-0.077452563 -0.38817981 0.67056698
-0.1004302 -0.079403587 0.67222732
-0.119209 -0.38262749 0.66894752
-0.2470199 -0.4203907 0.4516525
0.36742461 -0.1142704 0.322
-0.30251691 -0.41648099 0.55824089
0.0091236224 -0.4163819 0.2276167
-0.196164 -0.39013779 0.71365583
-0.037780631 -0.3200812 0.67319143
-0.1956629 -0.39490491 0.66597682
0.43857151 -0.097820908 0.32257
-0.1933924 -0.41120821 0.27605361
-0.1031415 -0.093876198 0.66810137
-0.036973581 -0.37691429 0.68584132
-0.3023985 -0.41859391 0.53562433
-0.2498292 -0.410265 0.53613162
0.35431609 -0.1187703 0.2450036
-0.095056564 -0.2241334 0.63874692
-0.093606614 -0.1304161 0.67107898
-0.092923947 -0.16776051 0.64382279
0.35218069 -0.15836351 0.2306623
-0.2078594 -0.41479519 0.4372243
-0.16386449 -0.40492851 0.22522821
-0.33737671 -0.42252451 0.4544431
-0.032600481 -0.28651369 0.69126552
-0.091107897 -0.22212259 0.64841259
-0.1041184 -0.1881471 0.59670448
0.37585539 -0.1137845 0.35011259
-0.26511219 -0.41057119 0.33684221
-0.1046565 -0.084363587 0.64748609
-0.084430769 -0.085231602 0.67952102
-0.057035621 -0.218675 0.6854319
-0.099930227 -0.086264752 0.67910612
-0.05871889 -0.24203169 0.67761022
-0.2175559 -0.41072169 0.34965551
-0.29368591 -0.42019701 0.46206141
-0.080443799 -0.1006224 0.68822908
-0.095619187 -0.1422547 0.66494292
-0.079257049 -0.26488879 0.64267772
-0.080608539 -0.1116272 0.68844253
-0.088312119 -0.30047181 0.61955142
-0.097342953 -0.27211529 0.57379413
-0.1979609 -0.4109813 0.35228279
-0.28853741 -0.41892621 0.45119569
-0.09817259 -0.38692579 0.67350823
-0.051339429 -0.21340071 0.68923122
-0.20059749 -0.38465369 0.7526539
-0.35044849 -0.41831481 0.5579769
-0.2011254 -0.3947649 0.65746242
-0.19162761 -0.40631101 0.2121111
-0.1332666 -0.38880801 0.66873473
-0.033087298 -0.082843669 0.67293829
-0.41218221 -0.42224389 0.49021029
-0.42751989 -0.4151271 0.4800795
-0.426799 -0.41423061 0.49933201
-0.42134619 -0.42086759 0.47205111
-0.05285839 -0.4061532 0.28799269
-0.02721669 -0.083684057 0.69827151
-0.01505757 -0.082979143 0.69567549
-0.087127887 -0.3583352 0.58268821
-0.090356931 -0.30919671 0.62389052
-0.19090641 -0.38474339 0.7822926
-0.1980734 -0.38855919 0.78240532
-0.1929785 -0.38739371 0.78948039
-0.059816569 -0.1134382 0.70778787
-0.094940059 -0.33637261 0.61073208
-0.2136534 -0.3836216 0.76094931
-0.198401 -0.38909319 0.7931971
-0.088309526 -0.18658219 0.66136831
-0.047564231 -0.085534588 0.70756298
-0.20424861 -0.38257861 0.73360223
-0.1993365 -0.38259271 0.76566762
-0.35538289 -0.41746911 0.56247038
-0.096424364 -0.25937611 0.59430373
-0.21978129 -0.41024259 0.54227632
-0.1077057 -0.092381522 0.64081442
-0.2187157 -0.4102352 0.54183233
-0.1774772 -0.38349199 0.81603068
-0.1440921 -0.38189119 0.7899825
-0.1804944 -0.38470849 0.8115086
-0.14750279 -0.38244689 0.78817493
-0.1275003 -0.38297299 0.78828728
-0.1784191 -0.3860406 0.80315131
-0.17641281 -0.3870773 0.7982077
-0.063005283 -0.1057818 0.70241588
-0.058688 -0.2202968 0.69165879
-0.083564967 -0.38688111 0.64240068
-0.2050491 -0.37978971 0.71463531
-0.24080411 -0.38642129 0.79575789
-0.2290418 -0.38347581 0.79493457
-0.083196484 -0.2113187 0.65868008
0.028382311 -0.3708303 0.69243622
-0.082762226 -0.22474471 0.66650718
-0.02000704 -0.082295187 0.7030651
-0.076099753 -0.2006941 0.67400992
-0.06551522 -0.21175671 0.67629677
-0.067257799 -0.2196784 0.68418521
-0.4264704 -0.41362661 0.51589978
-0.31268999 -0.4049955 0.31565851
-0.42038661 -0.41853869 0.4458774
-0.42965931 -0.42007551 0.44799411
-0.4312326 -0.41639599 0.41815409
-0.32781059 -0.40949249 0.35848781
-0.42955291 -0.41531131 0.4393757
-0.31767529 -0.39717051 0.62391788
-0.3264313 -0.41337129 0.3514339
-0.3160809 -0.40461749 0.2695103
-0.3015919 -0.4108299 0.34225279
-0.3013151 -0.4156909 0.33752221
-0.2167547 -0.40657729 0.48979419
-0.074186787 -0.088648312 0.69922751
-0.080164433 -0.084355988 0.68923533
0.04193338 -0.081459053 0.67470747
-0.095506467 -0.13267671 0.6818459
-0.098023199 -0.088075623 0.68839449
-0.1122816 -0.088984393 0.62487102
0.018090909 -0.082971327 0.72342497
-0.07729052 -0.08695519 0.6951893
-0.034800421 -0.31959409 0.68634778
-0.03660363 -0.3742429 0.66159838
-0.019050511 -0.35212931 0.69181108
-0.30058551 -0.41056111 0.46153429
-0.019520819 -0.087242953 0.520634
-0.18807 -0.4028134 0.21119639
-0.1967634 -0.408849 0.24513111
-0.38901871 -0.4230327 0.46084619
-0.41203171 -0.42312261 0.45165429
0.40766791 -0.099979967 0.3658244
-0.065782897 -0.38266569 0.61836791
-0.018009851 -0.38148949 0.6733436
-0.31310251 -0.4077377 0.29358399
-0.43391481 -0.4100976 0.47700721
-0.028198579 -0.2799868 0.69383031
-0.33267179 -0.4183003 0.3608779
-0.2989403 -0.40925691 0.31384099
-0.060695309 -0.37318069 0.68057728
-0.31618699 -0.40627101 0.2303184
-0.26265961 -0.4179557 0.45091099
-0.054925062 -0.23032451 0.69494557
-0.1958598 -0.3845937 0.70093602
-0.1015824 -0.2473661 0.58763742
-0.05343201 -0.084701613 0.71614712
-0.35935631 -0.4104369 0.56895542
-0.42120549 -0.41874519 0.43016499
-0.10813 -0.08959873 0.64221269
-0.086185098 -0.2393322 0.65084761
-0.043191601 -0.24293999 0.69354242
-0.30665809 -0.4047651 0.25037241
-0.003549075 -0.38175979 0.68750978
0.017230731 -0.17606319 0.72324872
-0.079552777 -0.100438 0.68852848
-0.0477545 -0.095243573 0.70724112
-0.081569433 -0.2021416 0.66979802
-0.096294113 -0.093591481 0.68072963
0.03717478 -0.093700387 0.72094959
0.01137326 -0.1193456 0.72241282
-0.0090925302 -0.092311203 0.71776903
0.04684604 -0.094551221 0.71567541
-0.01089062 -0.090581208 0.71521407
0.054914061 -0.091736943 0.70968932
0.067687787 -0.094261862 0.69131142
0.063635841 -0.38554731 0.90358973
-0.077223957 -0.38968679 0.67048782
-0.1368975 -0.38236651 0.76376379
-0.130519 -0.38512039 0.78752339
-0.02496206 -0.38594151 0.72764361
-0.051275309 -0.38626999 0.78579873
0.077159673 -0.38684401 0.90291649
-0.081634954 -0.38483751 0.82901192
0.049966261 -0.38334861 0.82736349
0.0696394 -0.39129519 0.91390717
0.0280008 -0.38095781 0.86789131
0.062319409 -0.3854284 0.89810228
0.033316541 -0.38483509 0.89397389
0.034362379 -0.38497221 0.77696621
-0.019426269 -0.38957229 0.78425473
-0.031711578 -0.38376459 0.68335128
-0.03017504 -0.38380331 0.75239092
-0.02775231 -0.3844811 0.76819563
0.054386579 -0.38426921 0.91314977
0.029656591 -0.3819603 0.83069968
0.027843161 -0.37621829 0.83628488
0.124797 -0.3849183 0.91557783
-0.083974667 -0.38543889 0.83820438
0.068934888 -0.39253321 0.90745652
0.083319083 -0.38702011 0.92676789
0.026879679 -0.38320091 0.89584482
0.05170906 -0.39140439 0.91665471
0.025472529 -0.3902986 0.77953237
0.070247963 -0.39076859 0.90677828
0.052786369 -0.38834491 0.90492707
0.13540439 -0.3817746 0.92741019
-0.2107811 -0.40141109 0.61748451
0.1423808 -0.38860229 0.89460039
0.1196501 -0.39157671 0.79311162
0.13558111 -0.38585249 0.89577442
0.1311741 -0.39055261 0.79007173
0.1497031 -0.38671121 0.78241342
0.238213 -0.38413951 0.80092102
0.025839319 -0.36515281 0.75754821
-0.00069100288 -0.37764651 0.68822759
0.085272029 -0.141977 0.69912899
0.14051419 -0.3885428 0.77885199
0.1590385 -0.39791381 0.69512719
-0.1404075 -0.39800289 0.63721007
-0.038285121 -0.3827706 0.79803717
0.02222882 -0.39068049 0.79884708
0.0106609 -0.38100219 0.8752265
0.2481509 -0.3844077 0.75263119
0.2241407 -0.3851482 0.7859177
0.093978502 -0.38736969 0.93104589
0.23588911 -0.3868731 0.79974377
0.04202982 -0.39051089 0.91113371
0.1168668 -0.38745561 0.89622998
-0.087852933 -0.3912288 0.81032193
0.079861797 -0.094034478 0.68194902
0.223334 -0.3795912 0.81521529
0.1447928 -0.38716459 0.73432308
0.1076319 -0.39058319 0.90586549
-0.07383167 -0.38947219 0.79650909
0.2437202 -0.38323191 0.78257853
0.03839818 -0.38762799 0.88765877
-0.01697859 -0.3820264 0.68777561
0.001704274 -0.3852205 0.79928941
-0.0358769 -0.3766816 0.77302623
0.02318118 -0.38110679 0.7547645
0.04794699 -0.38572869 0.9022851
-0.03263269 -0.38063401 0.76703411
-0.028964911 -0.327705 0.6846382
-0.04999939 -0.39192161 0.79496747
0.035769131 -0.38224491 0.87196553
0.0099320477 -0.3856273 0.79555452
0.12765449 -0.39147511 0.81232089
0.022252509 -0.38141751 0.77393287
0.0004167734 -0.38855809 0.79395902
-0.023362869 -0.3858664 0.82539892
0.046922881 -0.38036439 0.83902168
-0.1487373 -0.38514 0.81004697
0.028051671 -0.38713139 0.80536669
0.225099 -0.38065219 0.81410939
-0.1989343 -0.39506391 0.67030698
-0.1996969 -0.3955591 0.6420033
-0.1331773 -0.39237189 0.67030782
-0.001341454 -0.38317239 0.8144213
-0.42523021 -0.4176639 0.5678876
-0.094433039 -0.38755539 0.78529078
-0.1973833 -0.39114919 0.78659278
0.0080311382 -0.3777439 0.76619428
0.01693999 -0.38188949 0.83661252
0.020915421 -0.3868379 0.76820588
-0.44386119 -0.41698471 0.55958718
-0.4734742 -0.41184539 0.5406031
0.13446321 -0.3873159 0.90049553
0.054683179 -0.38647449 0.82187259
0.072533347 -0.38722971 0.8984198
-0.002806545 -0.38172099 0.82167512
-0.2195721 -0.38390711 0.78122759
0.04253085 -0.38660321 0.8983497
0.078471847 -0.095437743 0.68313837
0.15887471 -0.3913258 0.55651891
0.2732307 -0.38740271 0.61774182
0.19346189 -0.393132 0.55664033
0.2109943 -0.39120081 0.55836308
0.20819411 -0.39262101 0.55620003
0.1996578 -0.39153981 0.54492259
0.2834692 -0.39177519 0.60124302
0.2468583 -0.3949852 0.46007121
0.234652 -0.3896437 0.42761981
0.2262056 -0.39550629 0.45489019
0.25729299 -0.3930133 0.53128129
0.2412837 -0.39111269 0.58717269
0.2446437 -0.39055941 0.43032381
0.246931 -0.39325231 0.54737121
0.2399663 -0.39425331 0.33557051
0.2514056 -0.38704461 0.64799893
0.2258594 -0.38785341 0.43671611
0.1748195 -0.39077309 0.55619109
0.2398268 -0.40028271 0.43052149
0.2193705 -0.38657099 0.656712
0.05728247 -0.19780239 0.71960169
0.26355281 -0.3850131 0.66898072
0.2644729 -0.38608551 0.67742437
0.2564742 -0.38697341 0.6707871
0.26385599 -0.38561189 0.69210029
0.24758419 -0.39308321 0.50962847
0.25890219 -0.38970739 0.64882177
0.2446747 -0.39028731 0.3939859
0.216067 -0.39288789 0.55715579
0.25427729 -0.38544551 0.6858393
0.3660318 -0.32427999 0.4232583
0.36727229 -0.360614 0.43866229
0.36218849 -0.36579579 0.4283374
0.28436899 -0.3947112 0.55917847
0.2450923 -0.39729169 0.54625821
0.29926991 -0.39076909 0.66720039
0.35284111 -0.16259439 0.2302635
0.3608923 -0.15775891 0.26403669
0.02389903 -0.3174912 0.70522147
0.3709794 -0.2088391 0.2679176
0.01106507 -0.38123691 0.6901257
0.37328139 -0.21489041 0.42426941
0.411423 -0.1123694 0.36641479
0.4407011 -0.099983342 0.32414651
0.36778489 -0.115745 0.32528529
0.39611551 -0.3810991 0.53480238
0.3811917 -0.38168141 0.54411149
0.38099721 -0.38387081 0.53315538
0.2116406 -0.39149049 0.4499099
0.40556601 -0.38114309 0.54250503
0.38654771 -0.38089979 0.55876952
0.38760561 -0.38790819 0.4734084
0.37112841 -0.38263789 0.5781408
0.37649831 -0.3809422 0.56730777
0.19502629 -0.39400339 0.55579913
0.37759331 -0.3798368 0.55832428
0.3697421 -0.3863005 0.5225963
0.38049921 -0.32117471 0.48496041
0.39047059 -0.3909902 0.6081087
0.38141581 -0.35593411 0.51075512
0.38500881 -0.34834981 0.52135938
0.3590354 -0.38704881 0.5771932
0.37931529 -0.39076021 0.4850584
0.38942689 -0.32111499 0.54448229
0.37989789 -0.2307494 0.30243179
0.3885234 -0.2001002 0.3905656
0.3659007 -0.38758621 0.55552989
0.069903843 -0.1497874 0.7165128
0.3850264 -0.1552825 0.36908579
0.065967672 -0.2091956 0.72242248
0.38067731 -0.28666481 0.25695029
0.37383199 -0.30070141 0.45175621
0.06244095 -0.18930081 0.71978217
0.38392031 -0.27909949 0.4952822
0.39615229 -0.109732 0.34138921
0.03490454 -0.21263979 0.71862382
0.05808441 -0.18545461 0.71894419
0.4436909 -0.083924033 0.31582159
0.0258318 -0.2726337 0.71115041
0.37691301 -0.1180959 0.35010079
0.071566142 -0.28613019 0.71007109
0.4086521 -0.1202981 0.36787111
0.05728196 -0.22086839 0.71982878
0.3687202 -0.34682789 0.4462629
0.35791901 -0.35618731 0.4177399
0.053959958 -0.2113518 0.72049189
0.37669489 -0.1290416 0.35750419
0.37373599 -0.36752731 0.48436141
0.35899031 -0.37596101 0.44647491
0.069782868 -0.1438009 0.71179712
0.3510533 -0.14106511 0.23234659
0.36338979 -0.1070594 0.30135289
0.01021157 -0.19963279 0.71556932
-0.0062891371 -0.34761789 0.688622
0.082523473 -0.1504133 0.70862383
-0.01087972 -0.34516829 0.68795413
0.13528509 -0.31868631 0.62795413
0.0229738 -0.21616331 0.71701461
0.01670884 -0.2852447 0.70808578
-0.01082094 -0.3485539 0.69227022
-0.029589331 -0.34429431 0.68458742
0.48160079 -0.073714033 0.32128891
0.38916379 -0.2693885 0.26770639
0.41951311 -0.1119993 0.3525143
0.3037312 -0.106541 0.67431909
0.39894351 -0.2036797 0.40159521
0.38070571 -0.27979591 0.26263329
0.39601791 -0.21373729 0.39575759
0.4096868 -0.36468661 0.54528278
0.39119479 -0.33334899 0.5276168
0.26027951 -0.3892692 0.70423383
0.364557 -0.2555657 0.37152541
0.050807949 -0.1818762 0.71697628
0.034785591 -0.172305 0.72089612
0.39167571 -0.2035998 0.36800411
0.37015459 -0.18076099 0.2488375
0.35349619 -0.39253899 0.47942039
0.072240449 -0.1479198 0.71946508
0.4025614 -0.3848522 0.62998199
0.26052639 -0.38136399 0.69741982
0.25736251 -0.3881889 0.64974803
0.41048551 -0.3828769 0.62031949
0.30719849 -0.1292287 0.66933298
0.2167566 -0.39086619 0.43517879
0.01930402 -0.34301201 0.69821823
0.3870956 -0.23058669 0.45792729
0.017686641 -0.35886869 0.69535601
0.2955848 -0.094586588 0.68729198
0.01496879 -0.19568931 0.72067499
0.4118745 -0.3817476 0.55768108
0.02506388 -0.2369581 0.71526819
0.01416978 -0.1982532 0.71877432
0.44296139 -0.1053311 0.34178901
0.2630572 -0.38576379 0.69928962
0.24743161 -0.3922064 0.5293839
0.38949889 -0.38187689 0.56898248
0.47424319 -0.085061871 0.33479309
0.084804699 -0.091447257 0.67684913
0.39447251 -0.1909586 0.39648911
0.3869082 -0.2804873 0.49290681
-0.01347771 -0.34395459 0.68267918
0.2692782 -0.3903082 0.61929828
0.04511809 -0.092279643 0.71700168
0.4007901 -0.1213741 0.36157
0.38336301 -0.1604355 0.36831751
0.3929401 -0.26036271 0.30579239
0.39079279 -0.37980211 0.57160002
0.070595093 -0.093515292 0.68864328
0.055734731 -0.2953583 0.70255572
0.37701359 -0.1474438 0.34079289
0.19985931 -0.39274129 0.53986877
0.36829451 -0.22993331 0.40819499
0.36052871 -0.1271698 0.26562721
0.078248203 -0.150125 0.70757222
0.48928881 -0.13042711 0.30917749
0.02345323 -0.2004156 0.7199719
0.36116269 -0.1928128 0.2093408
-0.047520202 -0.090591669 0.70831692
0.39177749 -0.18853851 0.391377
-0.02460603 -0.08684203 0.67487472
-0.047208749 -0.088741943 0.70618802
-0.046356879 -0.087239191 0.68785429
-0.02432053 -0.08837644 0.69045931
0.39373219 -0.211184 0.38846889
0.3965306 -0.20776489 0.4037607
0.3806468 -0.20835499 0.43016559
-0.016536901 -0.087555729 0.69133002
-0.036115121 -0.087740928 0.69528639
-0.037274271 -0.090276547 0.69907129
-0.002145526 -0.086219601 0.71511972
-0.088775508 -0.39419901 0.60111737
-0.032803278 -0.3204475 0.68897527
-0.01371864 -0.36406651 0.69135672
-0.02427198 -0.31840459 0.69020081
-0.062768362 -0.38796431 0.6478442
0.004860179 -0.33593079 0.69470572
-0.0053639291 -0.38514131 0.69831371
-0.076870039 -0.38859719 0.67325628
-0.0037045369 -0.37728491 0.68996477
-0.0067230128 -0.37505621 0.69023943
-0.098471202 -0.3914513 0.6774314
-0.026838711 -0.31896231 0.6913799
-0.1303694 -0.39575291 0.63974738
-0.048972622 -0.087871112 0.69074738
-0.066628084 -0.2157556 0.67837203
0.063905917 -0.2868754 0.71102852
-0.1196487 -0.3880384 0.67064738
-0.03675773 -0.086377718 0.6781016
-0.1147092 -0.39224541 0.67625052
-0.052274879 -0.087320097 0.66720808
-0.020915151 -0.38544109 0.78369218
-0.04320443 -0.086525626 0.68182027
-0.026878901 -0.28872961 0.69464201
0.37145171 -0.2117525 0.4175182
0.38187039 -0.2076719 0.42244619
-0.034085311 -0.38316 0.68529248
0.01487499 -0.38086829 0.76802921
0.022990139 -0.38343039 0.76631677
0.035685219 -0.38557419 0.77101213
-0.043049291 -0.090434201 0.68991989
0.027938221 -0.383351 0.76050347
0.033666778 -0.38413581 0.75733501
-0.0074617099 -0.385703 0.71933597
0.3775858 -0.22149239 0.42849571
0.01312444 -0.39002559 0.78986847
0.018029271 -0.38348451 0.76549608
0.02107764 -0.38889259 0.78887922
-0.02988724 -0.38434711 0.75531191
-0.039427102 -0.38340691 0.78878647
0.02245155 -0.38253349 0.77514482
0.046112791 -0.39107871 0.7899003
-0.04688821 -0.385454 0.78829581
0.063779317 -0.28315121 0.71150237
-0.034232091 -0.38509071 0.79398292
0.02073863 -0.38699731 0.78907567
-0.037861679 -0.090079658 0.70078027
0.047490209 -0.38747451 0.79649287
0.035205461 -0.3843742 0.77579921
0.033890381 -0.38499081 0.75435019
0.056098081 -0.088070713 0.7074815
0.0015130939 -0.34228179 0.69160903
0.03218602 -0.3859129 0.74023908
0.043144111 -0.39095959 0.78002208
0.38196129 -0.2578927 0.2399711
0.0304277 -0.3854247 0.81269842
0.021333359 -0.38465661 0.75402528
-0.1349829 -0.39460921 0.64283937
0.060335722 -0.1979569 0.72004068
0.031799719 -0.38581711 0.73080122
-0.0289819 -0.3836073 0.74761188
0.018500149 -0.3823413 0.77260172
0.032914221 -0.38516849 0.75008398
-0.024984131 -0.38348791 0.78160912
-0.031954352 -0.092258967 0.71242929
0.016769979 -0.31368431 0.70418179
-0.044177879 -0.088163801 0.7036835
-0.029238891 -0.088073097 0.68127811
-0.032109849 -0.088302113 0.69658327
-0.2123743 -0.4026159 0.62048161
0.3890107 -0.25970459 0.33170831
0.061824258 -0.37420169 0.71783209
0.38563469 -0.26512319 0.3011857
0.04687237 -0.3883692 0.79706699
0.3823542 -0.2323253 0.29710081
0.01774638 -0.28423059 0.70934153
-0.1524999 -0.39208281 0.67744058
-0.051366549 -0.088989511 0.70624
-0.045001019 -0.088251233 0.69929379
0.38315651 -0.2521615 0.28968391
0.032498948 -0.38783741 0.79807937
0.02525386 -0.31582791 0.70578021
-0.1377988 -0.39208439 0.67799473
-0.019886199 -0.087617747 0.67286408
0.040115699 -0.3905203 0.7938627
-0.01063392 -0.38316521 0.69431943
-0.029411079 -0.272618 0.69345802
0.26153979 -0.39185789 0.63247281
-0.02557542 -0.27681309 0.69456202
0.045384642 -0.38943061 0.80138087
-0.04021284 -0.09119986 0.70744818
0.02837928 -0.3859269 0.79057783
0.36931291 -0.2291916 0.40927261
0.055366188 -0.39031121 0.78976011
0.066463709 -0.088587239 0.69154942
0.028338069 -0.37280661 0.69585168
-0.20170189 -0.4004803 0.63119638
-0.031926531 -0.09021616 0.71242732
0.020378871 -0.1543031 0.72743082
-0.083428062 -0.3940807 0.60517693
0.060686681 -0.2245771 0.72098058
-0.034054 -0.089096643 0.67998773
-0.024461759 -0.089382693 0.7077198
-0.02998933 -0.087371647 0.69294739
-0.052036598 -0.08990664 0.71223772
-0.0331247 -0.088295393 0.70319402
-0.078512117 -0.31193459 0.63658661
-0.088844053 -0.091875598 0.68178481
-0.087585539 -0.1007781 0.68405271
0.39382049 -0.25822359 0.30972531
0.36381519 -0.26393449 0.35642499
0.0617452 -0.08852829 0.70205069
0.27254221 -0.38561669 0.61936003
-0.061463092 -0.38228169 0.78838599
-0.02695453 -0.38529789 0.78756428
0.036746841 -0.38531411 0.81382978
-0.02516317 -0.38379529 0.73512
-0.060388569 -0.3839123 0.79188877
-0.001837492 -0.38555181 0.79083258
0.064021669 -0.2087059 0.72035187
-0.01676202 -0.31516719 0.6934678
-0.092963673 -0.3420617 0.61831671
0.02372653 -0.3591449 0.70033687
-0.081972279 -0.1152008 0.69106889
0.06049018 -0.3361603 0.70578188
-0.077275343 -0.1075953 0.69523889
0.0208678 -0.1112964 0.72514808
-0.02636105 -0.38266709 0.76831633
-0.089182183 -0.1405181 0.68379831
0.04497911 -0.1024559 0.71928209
-0.008743031 -0.34941739 0.69257748
-0.024581069 -0.38314921 0.72484392
0.01194761 -0.3767634 0.69186687
-0.13776159 -0.38668159 0.68579233
0.030625161 -0.13406751 0.72519428
-0.0071407892 -0.3836014 0.70656103
-0.017344991 -0.086745091 0.68607253
0.09255784 -0.13440929 0.69305182
-0.0035485961 -0.08743678 0.71550453
0.3819119 -0.30071339 0.2692551
-0.1328558 -0.39264521 0.67123657
0.05999811 -0.1859318 0.71836412
-0.052292921 -0.087732866 0.69416243
0.026202319 -0.088258721 0.72622561
-0.029993091 -0.382514 0.78516448
-0.01580924 -0.086849593 0.67551267
0.035978071 -0.38810501 0.80670941
-0.017807679 -0.38275269 0.77890611
0.02932274 -0.38312501 0.77392441
0.38363609 -0.38205671 0.48169881
