# .PCD v0.7 - Point Cloud Data file format
VERSION 0.7
FIELDS x y z normal_x normal_y normal_z curvature
SIZE 4 4 4 4 4 4 4
TYPE F F F F F F F
COUNT 1 1 1 1 1 1 1
WIDTH 576
HEIGHT 1
VIEWPOINT 0 0 0 1 0 0 0
POINTS 576
DATA ascii
-0.073493585 -0.30774605 0.53487736 -0.84004599 0.038407009 -0.54115379 0.012619019
-0.083455853 -0.23765747 0.55230999 -0.90768862 5.6554079e-05 -0.4196443 0.010044503
-0.17825067 -0.39040858 0.67990345 0.10483465 -0.99093503 0.084008701 0.020333393
-0.089634895 -0.40129909 0.54636681 -0.97768468 -0.051502567 -0.20366652 0.094786949
-0.0068007624 -0.26157036 0.4811441 -0.22437029 0.13348673 -0.9653182 0.011110327
0.039881174 -0.25811711 0.48185802 0.016314777 0.17478725 -0.98447096 0.0061598276
0.048392177 -0.17673638 0.4958972 0.1501175 0.15018612 -0.97719443 0.0044079078
-0.087928236 -0.25251272 0.56147915 -0.9526934 0.014663666 -0.30357891 0.019625047
-0.014919003 -0.28549364 0.47961372 -0.2922743 0.037894096 -0.95558351 0.017641814
0.041086022 -0.33880565 0.47473553 -0.20536068 0.0046663946 -0.97867525 0.025818329
-0.052350946 -0.25195754 0.50280499 -0.69911963 -0.018993828 -0.71475238 0.016126193
0.031638652 -0.16957346 0.49636063 0.12257887 0.15285483 -0.98061711 0.0050764638
0.042009659 -0.16033675 0.49845621 0.15879856 0.16621791 -0.97321874 0.0041625155
0.036067948 -0.24473649 0.48369947 0.024069298 0.17289616 -0.98464596 0.0046418076
0.042444188 -0.31349468 0.47389102 -0.074135832 0.015626319 -0.99712574 0.010492487
-0.20143934 -0.3962183 0.66837901 0.14683981 -0.98363322 0.10442086 0.028178811
-0.010259224 -0.37417361 0.48826158 -0.43398774 0.015496492 -0.90078545 0.044928569
0.023263594 -0.38781348 0.47520375 -0.33659768 0.16392255 -0.92727095 0.068349369
0.03672855 -0.16484289 0.49730983 0.12777759 0.15616353 -0.97943139 0.0052010254
-0.0042183581 -0.38007766 0.48682404 -0.37572983 0.066255927 -0.92435777 0.05356222
-0.078951553 -0.38403335 0.53476906 -0.89044917 0.089132197 -0.44626868 0.09157256
0.049649097 -0.28978959 0.47146472 0.053265348 0.11070486 -0.99242496 0.010283601
0.02778169 -0.22039251 0.49063352 -0.0097304136 0.17127763 -0.98517478 0.0064155376
0.040003005 -0.34522617 0.4759644 -0.2355665 0.0065712729 -0.97183597 0.027949605
0.25467148 -0.38357323 0.77362627 0.023380622 -0.99914557 0.034081988 0.0010395636
0.30218896 -0.37600833 0.75500852 0.061634053 -0.9975552 0.032937132 0.0010248361
0.25728601 -0.38580084 0.62611729 -0.038737677 -0.99693644 0.06794972 0.0011731861
-0.066562176 -0.28092343 0.52312768 -0.81069738 -0.064106241 -0.58194524 0.0082341516
0.037349593 -0.37905768 0.47610337 -0.32232112 0.15980475 -0.93304425 0.068728633
0.25467098 -0.38755938 0.60141438 -0.014836134 -0.99751145 0.068926573 0.00095988566
0.0036329783 -0.31897381 0.47664952 -0.20138127 -0.054124523 -0.97801638 0.0077286232
0.25638875 -0.38495144 0.72034973 0.017038299 -0.99933219 0.032324765 0.00065206632
-0.016588898 -0.37595761 0.49112785 -0.41594437 -0.004026697 -0.90938109 0.033691268
0.068222895 -0.35129607 0.47975379 -0.19922797 0.0446737 -0.97893435 0.041697986
-0.13458496 -0.39338583 0.64221197 0.1009584 -0.98446012 -0.14368667 0.045699131
0.25672743 -0.38391516 0.74376446 0.024531957 -0.99916214 0.032761078 0.00063265039
0.26471171 -0.38387883 0.7627396 0.023000652 -0.99922305 0.032005001 0.00094634801
-0.024973828 -0.29112884 0.48295563 -0.35826433 -0.015809035 -0.93348634 0.019701086
-0.051059924 -0.22536387 0.50101548 -0.5086928 0.16322258 -0.84533429 0.032881573
0.29481727 -0.38684744 0.66239214 -0.023493202 -0.99886709 0.041381605 0.00087060366
0.076080166 -0.23665117 0.49646541 0.16427584 0.18319027 -0.96925479 0.0033774222
-0.089380302 -0.29452261 0.56339544 -0.97938269 0.0097627463 -0.20177798 0.025592152
0.069790915 -0.39563748 0.44601002 -0.36557603 0.42967725 -0.82567042 0.10171777
0.28183842 -0.38238719 0.75853157 0.031237844 -0.99894637 0.03362114 0.0011051258
0.22239174 -0.38662115 0.66707313 0.00064148469 -0.99942309 0.033958189 0.0008222856
0.27512482 -0.38342211 0.72127587 0.021301413 -0.99928373 0.031277169 0.00083468179
-0.19927725 -0.39459726 0.6734854 0.13321017 -0.98633122 0.096983396 0.024590716
0.27305692 -0.38248017 0.73506552 0.018410876 -0.99920648 0.03531814 0.00086448289
0.057274844 -0.20964643 0.49629852 0.15143052 0.16773203 -0.97413284 0.0033988641
0.22001657 -0.39174917 0.53615433 -0.0090758475 -0.99902874 0.04312015 0.0018722394
0.26207179 -0.38586006 0.64260495 -0.041776005 -0.99791837 0.049129173 0.00093134481
-0.049417473 -0.2236895 0.49907878 -0.49678656 0.1671603 -0.85162234 0.03345117
0.25313318 -0.38990706 0.57987791 -0.016688604 -0.99755478 0.067866899 0.0014777776
-0.042733062 -0.25883055 0.49304017 -0.5592612 -0.0057164738 -0.8289718 0.024420688
-0.02782324 -0.27604678 0.48351514 -0.35057902 0.04213801 -0.93558466 0.020986663
0.039847672 -0.28254196 0.47516772 0.021444716 0.12199119 -0.9922995 0.010869667
0.05828429 -0.17111683 0.4962464 0.15168832 0.15533753 -0.97614598 0.004430884
0.042255964 -0.17574777 0.4959763 0.14053614 0.14543422 -0.97933573 0.0043277219
-0.094993509 -0.34518889 0.59223038 -0.99697053 -0.025821466 -0.073368333 0.046494957
-0.088661686 -0.39914578 0.56357622 -0.99184704 -0.084333397 -0.095537655 0.067156352
0.14917511 -0.38297921 0.77508736 0.069766752 -0.99109155 -0.11344697 0.011921986
0.1845998 -0.39531034 0.44079143 0.060034912 -0.9891116 -0.13436514 0.043490671
0.17397596 -0.39281312 0.43702304 0.079005711 -0.93660396 -0.34136647 0.056384932
0.19836892 -0.39218506 0.44300154 0.06085176 -0.99269533 -0.10417751 0.03672621
0.23594175 -0.39465001 0.49065083 -0.012058916 -0.99968666 -0.021934493 0.0049811965
0.18891001 -0.39718345 0.44052961 0.061166417 -0.99043524 -0.12368011 0.040160846
0.20618185 -0.39338467 0.55621421 -0.0054856534 -0.99881434 0.048371319 0.001970072
0.14536089 -0.37882459 0.77196109 0.06134364 -0.98862082 -0.13735276 0.015824039
0.23851228 -0.39221177 0.5237667 -0.014290454 -0.99963742 0.022820575 0.0015703748
0.23834839 -0.39254898 0.52526212 -0.014290454 -0.99963742 0.022820575 0.0015703748
0.24505022 -0.39431855 0.49237409 -0.012116184 -0.99969375 -0.021576293 0.0048729773
0.18820702 -0.38241991 0.78139585 0.044923708 -0.99832237 0.036526635 0.0039317734
0.22082438 -0.38154668 0.74933404 0.037184093 -0.9987101 0.034575175 0.0016166733
0.23795429 -0.39001802 0.5730024 -0.011739205 -0.99780279 0.065205611 0.0014797029
0.22863474 -0.3878575 0.64712179 -0.015085027 -0.99885559 0.045386545 0.00085565972
0.25637284 -0.39593449 0.5290423 -0.019585529 -0.99945617 0.026530182 0.0014993754
0.23257275 -0.39256459 0.55347592 -0.0087760603 -0.99845779 0.054817457 0.0016202995
0.24588096 -0.39165655 0.56804973 -0.011090556 -0.99807835 0.060964189 0.0016904712
0.19336745 -0.39331317 0.555345 0.0086692767 -0.99836022 0.056583274 0.0013464774
0.27091637 -0.38862786 0.61631763 -0.038225066 -0.99662554 0.072638825 0.0012455749
0.25837749 -0.38503402 0.66486359 -0.03354618 -0.99868131 0.038862832 0.00081632432
0.28297892 -0.39224225 0.59857959 -0.025898967 -0.99693435 0.073831826 0.0015069499
0.21650401 -0.38185632 0.78267014 0.037215434 -0.99869525 0.034967504 0.0020631545
0.21834655 -0.38701525 0.66206545 0.010118713 -0.99937499 0.033869687 0.00069371756
0.25328663 -0.38526052 0.72116625 0.017064327 -0.99932998 0.032377955 0.00065441208
0.2548621 -0.39071587 0.58333474 -0.016688604 -0.99755478 0.067866899 0.0014777776
0.26902246 -0.39550796 0.5542202 -0.020263879 -0.99792349 0.061139643 0.0017510508
0.25372306 -0.39002967 0.58603483 -0.015652727 -0.99763376 0.066946104 0.0012870262
0.25593022 -0.3876102 0.62244385 -0.034955617 -0.9967975 0.071922854 0.0010881504
0.26089525 -0.38589668 0.63316709 -0.038386367 -0.99691182 0.068507798 0.0013160791
0.29139176 -0.39654329 0.56085241 -0.0027278753 -0.99809533 0.061630744 0.0021143751
0.28003848 -0.39709499 0.56557262 -0.055538096 -0.9956935 0.074229129 0.0016010723
0.27566949 -0.39649421 0.55736208 -0.049502313 -0.99642849 0.068408109 0.0015944476
0.25848556 -0.38542172 0.70317131 0.01776077 -0.99935353 0.031259377 0.00079358381
0.24105822 -0.39286137 0.53762734 -0.016543496 -0.9990924 0.039251018 0.0019428789
0.21885204 -0.38379022 0.6071353 -0.005084381 -0.99756634 0.069537394 0.00088725117
0.234667 -0.38263664 0.78711236 0.022816764 -0.99921638 0.032342438 0.0013459651
0.071645506 -0.24005075 0.49422044 0.146354 0.18506101 -0.97176796 0.0028547456
0.26011267 -0.38466969 0.71507263 0.019010099 -0.99931782 0.031660918 0.00067452731
0.070703089 -0.077160656 0.53154832 0.42798352 0.49543378 -0.75589395 0.11422376
0.039598063 -0.16169272 0.49776769 0.1462158 0.16249841 -0.97581512 0.0044900952
0.22204643 -0.38629207 0.65818381 -0.00027139342 -0.99936819 0.035540055 0.00082367123
0.078937165 -0.22085181 0.49756032 0.14065896 0.16966873 -0.97541153 0.0050226692
0.018234935 -0.081760332 0.51146573 0.17237976 0.51650327 -0.83875477 0.14182265
0.26384124 -0.37755832 0.8259576 0.011330849 -0.99948084 0.030161666 0.0012152132
0.28244361 -0.38282329 0.7760191 0.029069824 -0.99897134 0.034803446 0.0011536556
0.012921243 -0.087823391 0.50977564 -0.050080746 0.44151589 -0.89585465 0.13431638
0.0072745825 -0.14228038 0.49534789 -0.10507257 0.13720104 -0.98495471 0.0176326
0.042509463 -0.084507614 0.51849651 0.33896828 0.40375364 -0.84975499 0.09219525
0.024192061 -0.20013565 0.49421945 -0.0030637849 0.13116924 -0.9913553 0.0083074523
0.012380776 -0.075338088 0.50993198 0.03109522 0.51016062 -0.8595168 0.15199113
0.043194965 -0.14104673 0.50381184 0.193886 0.18370435 -0.96367055 0.0058042258
0.04985249 -0.16442575 0.49656129 0.15880227 0.15934208 -0.9743675 0.0043911869
0.051786289 -0.13498046 0.50959808 0.25527418 0.19926473 -0.94611233 0.01163378
0.057910636 -0.20797104 0.49620152 0.15005155 0.16466962 -0.97486842 0.0034376432
-0.014368976 -0.2840068 0.47916141 -0.2922743 0.037894096 -0.95558351 0.017641814
0.2234973 -0.3811698 1.001464 0.51758039 0.22721018 0.82491583 0.0075167376
0.037164114 -0.24276596 0.48341173 0.03176818 0.16996662 -0.98493767 0.0043210578
0.057838552 -0.078420147 0.52231926 0.41238263 0.51519763 -0.75134009 0.11408377
-0.018058861 -0.29701778 0.48053956 -0.34026694 -0.016995696 -0.94017529 0.021689394
0.0076116407 -0.27533311 0.47574127 -0.14940891 0.12554376 -0.98077309 0.01279353
0.26349026 -0.38534769 0.65899056 -0.034047864 -0.9985038 0.04278959 0.00079110317
-0.0020352693 -0.074706495 0.50800741 -0.31439072 0.55161965 -0.77257633 0.11687668
-0.05776139 -0.099726893 0.54238164 -0.48802319 0.74618226 -0.45281947 0.084086873
-0.0025862199 -0.086289413 0.505759 -0.25419471 0.4525753 -0.8547284 0.098171614
-0.009369174 -0.079075105 0.50614637 -0.32983756 0.52368927 -0.7854659 0.084492803
0.046170879 -0.069057852 0.51611704 0.39731953 0.51822841 -0.75734836 0.11240734
-0.02392271 -0.28651637 0.48113257 -0.35146618 -0.0052429447 -0.9361859 0.01966377
-0.050260454 -0.11073148 0.52904683 -0.5168606 0.48149177 -0.70782816 0.061845146
-0.18991244 -0.3929832 0.65353203 0.1175821 -0.9872306 0.10747171 0.025390301
-0.083872236 -0.39399287 0.53920835 -0.93079072 0.12281632 -0.3443031 0.098474823
-0.094794311 -0.10203506 0.58003116 -0.48275724 0.77518255 -0.4074769 0.10041981
-0.092299566 -0.095177315 0.58040732 -0.29612282 0.88439208 -0.3607797 0.0758029
-0.20126007 -0.39617726 0.72737843 0.080148153 -0.99566686 0.047156882 0.0046039736
-0.016285395 -0.07669691 0.50768453 -0.35203013 0.59481823 -0.72267967 0.072696231
0.013552316 -0.13662991 0.49491891 -0.0085907439 0.15618488 -0.98769045 0.013525479
-0.074433327 -0.1621452 0.54575747 -0.84102398 0.057216655 -0.53796369 0.010154658
-0.051736813 -0.12889735 0.5176506 -0.55119514 0.28509098 -0.78416008 0.033557896
0.023124874 -0.10808003 0.50790703 0.12939315 0.32560906 -0.93660885 0.072222009
-0.080904171 -0.36020157 0.54174203 -0.92622584 0.04656934 -0.37408152 0.063875578
-0.014708163 -0.32885218 0.4836759 -0.30618781 -0.085859239 -0.94809133 0.011097705
-0.086056411 -0.40214136 0.49512717 -0.64619356 0.40672985 -0.64575905 0.082387626
0.017095238 -0.31819746 0.47470629 -0.18518193 -0.033333674 -0.98213863 0.009486259
0.02304345 -0.28868827 0.4734309 -0.10257427 0.055643328 -0.99316776 0.016048193
0.0042086649 -0.078305744 0.50839818 -0.1984117 0.50153649 -0.84207714 0.12992828
0.059106246 -0.16889493 0.49837413 0.15947694 0.15451467 -0.97503453 0.0042279824
0.017021842 -0.35074112 0.47701731 -0.2799255 0.012910562 -0.95993495 0.037031632
0.011533931 -0.32907015 0.47543436 -0.20798625 -0.04874016 -0.97691667 0.013818973
0.029543621 -0.33226252 0.47399658 -0.17827435 -0.018971035 -0.98379791 0.018462485
-0.065134726 -0.095014565 0.5455336 -0.46700513 0.76939005 -0.43582699 0.090793557
0.063215204 -0.34747991 0.47861144 -0.21592802 0.031616125 -0.97589731 0.033352397
-0.062180031 -0.37663552 0.50212413 -0.60662335 0.019617837 -0.79474735 0.044224996
-0.17268755 -0.38040546 0.67262042 0.099408284 -0.99151629 0.083746582 0.020952931
-0.071069852 -0.37445045 0.52653009 -0.76837546 0.13444202 -0.62571907 0.062807277
0.059622616 -0.3226735 0.47545734 -0.12079601 -0.0074525075 -0.99264938 0.019362364
0.25440729 -0.39114058 0.57672089 -0.016736122 -0.99758261 0.067444675 0.0015427114
-0.016274435 -0.28588483 0.47923991 -0.2922743 0.037894096 -0.95558351 0.017641814
-0.18543275 -0.38969493 0.68642151 0.11850604 -0.98901391 0.088361353 0.020977335
0.043402031 -0.34752333 0.47515121 -0.23795533 0.042355031 -0.97035217 0.039385457
-0.080120243 -0.23542394 0.54808933 -0.89961016 0.0025939639 -0.43668634 0.0095590847
0.016148731 -0.10049241 0.50873083 0.031357922 0.3419039 -0.93921161 0.092028782
-0.050039906 -0.37202367 0.51144379 -0.58384436 -0.027588092 -0.81139672 0.039820701
0.043748155 -0.37339988 0.47144625 -0.32978806 0.16412602 -0.92967868 0.06960655
0.0080266306 -0.35042834 0.47902727 -0.27074954 -0.0019868785 -0.9626478 0.036637232
-0.094385847 -0.34705886 0.56722265 -0.99363017 -0.077198513 -0.082094923 0.028716097
0.0018792229 -0.14767601 0.49437663 -0.14502184 0.12838165 -0.98106408 0.016979732
-0.058707528 -0.28011173 0.51081932 -0.73263073 -0.074113838 -0.67657918 0.015399762
-0.090722598 -0.30885983 0.56819493 -0.98844916 -0.02270611 -0.14984201 0.022469984
-0.044303909 -0.22037694 0.49299568 -0.43443215 0.18479823 -0.8815431 0.028517632
-0.028156564 -0.38949847 0.50031775 -0.48552495 -0.040548094 -0.87328196 0.037752222
0.012853467 -0.18187626 0.49487123 -0.042047642 0.092782393 -0.99479818 0.01149049
-0.014464581 -0.31299523 0.48134711 -0.31852645 -0.064369626 -0.94572592 0.01535389
0.023847194 -0.31769291 0.47302359 -0.16466421 -0.033099819 -0.98579413 0.0083336066
0.059335578 -0.34123689 0.4774597 -0.21240067 0.030478232 -0.97670728 0.032068491
0.0044527492 -0.35848522 0.4818792 -0.2912133 0.0031583912 -0.95665294 0.043075252
-0.069290578 -0.1296773 0.53619802 -0.58705097 0.38797125 -0.7105276 0.087124437
-0.037286367 -0.33125022 0.49702626 -0.49776721 -0.095497191 -0.86203712 0.015516997
0.015222749 -0.38456732 0.48022029 -0.33272249 0.13375001 -0.93349165 0.0640577
-0.31606609 -0.41956407 0.56182194 0.0067745866 -0.94663864 -0.32222569 0.0011792731
0.024874818 -0.33577129 0.47366336 -0.20893881 -0.0099569522 -0.97787803 0.022366598
0.23736487 -0.39205027 0.51630342 -0.014830587 -0.9998495 0.0089942599 0.0020158398
0.034180634 -0.084097341 0.51435226 0.29976627 0.44548294 -0.84361434 0.11212736
-0.21242306 -0.41846111 0.46252242 0.066980153 -0.98657423 0.14894624 0.019074928
0.24763586 -0.39387295 0.52683681 -0.014134603 -0.99954903 0.026498126 0.0015142598
0.039726432 -0.17034887 0.49678895 0.14203098 0.15539446 -0.97758871 0.0043581012
0.26094171 -0.39165726 0.58051288 -0.016688604 -0.99755478 0.067866899 0.0014777776
0.05341924 -0.092167549 0.52069801 0.35888565 0.40335417 -0.84172827 0.080568619
-0.058016304 -0.13162076 0.5220018 -0.59447753 0.28938442 -0.75023538 0.038429506
-0.049378078 -0.33621195 0.50680625 -0.6228925 -0.052383214 -0.78055167 0.025499029
-0.049749002 -0.30238268 0.50276482 -0.60158068 -0.066201389 -0.79606408 0.021673881
0.016187612 -0.30487397 0.4743236 -0.18478791 -0.036017437 -0.98211819 0.0093591353
0.0019126026 -0.1111351 0.49933276 -0.16671732 0.2481187 -0.95427591 0.064749621
-0.1517811 -0.3508493 0.68182492 0.079776697 -0.98457295 0.15572979 0.023066748
-0.031318575 -0.29716361 0.4856562 -0.39511296 -0.049327649 -0.91730732 0.016366707
0.027439587 -0.17691961 0.49560955 0.071039103 0.13091719 -0.98884481 0.0081133423
0.03802143 -0.40102452 0.44670343 -0.48086831 0.59377509 -0.64513314 0.13082358
0.22269437 -0.38817468 0.43795022 0.059660073 -0.99493074 -0.080952697 0.028657693
-0.013664462 -0.32733876 0.48299396 -0.28061178 -0.077931106 -0.95665228 0.0099795721
0.041169509 -0.32078749 0.47274971 -0.10960166 -0.029483287 -0.99353832 0.0093740225
-0.07159707 -0.27415037 0.53238767 -0.8345983 -0.059455357 -0.54764104 0.0086227432
0.042194244 -0.27551976 0.47602466 0.027027745 0.14272182 -0.98939371 0.0083571747
0.0080220578 -0.39284271 0.47396961 -0.35392064 0.16320294 -0.92092609 0.065528274
0.24035509 -0.38984057 0.57463342 -0.012680372 -0.99767172 0.067009002 0.0015049976
0.07221961 -0.3369582 0.47903839 -0.15158233 0.028423058 -0.98803586 0.031556778
0.18592075 -0.37868854 0.43746495 0.058262017 -0.98701227 -0.14970709 0.047384668
-0.079327658 -0.37851566 0.53794318 -0.89154494 0.049089555 -0.45026416 0.083396085
0.047851678 -0.38640895 0.46374202 -0.32925367 0.22681929 -0.91659421 0.081711903
-0.034695696 -0.34920216 0.49665302 -0.44709978 -0.093875706 -0.88954431 0.022653064
0.023221685 -0.28482485 0.4742789 -0.095756724 0.064725325 -0.99329817 0.015606521
-0.12735713 -0.38794172 0.63043171 0.093697429 -0.9692837 -0.22739837 0.062244795
0.25728199 -0.38812095 0.59793556 -0.014836134 -0.99751145 0.068926573 0.00095988566
0.23119995 -0.38652095 0.42966151 0.061403703 -0.9932006 -0.098904699 0.033457533
0.033661649 -0.42419198 0.4544144 0.22135264 -0.76294208 0.60738975 0.11266991
-0.28821084 -0.41781655 0.55814093 0.0067745866 -0.94663864 -0.32222569 0.0011792731
-0.067876518 -0.20289682 0.53096545 -0.83533049 0.038995668 -0.54836339 0.0059140301
-0.090817444 -0.10064179 0.5726698 -0.36023879 0.82513857 -0.43517169 0.080938414
-0.0089583164 -0.082397386 0.50453824 -0.31635857 0.47210622 -0.82282019 0.088203885
-0.042049445 -0.090208024 0.69023138 -0.26796138 0.90704101 0.32476652 0.071510479
-0.047686901 -0.20377356 0.49928734 -0.42774618 0.1833145 -0.88511527 0.031601362
-0.054710988 -0.21052666 0.50804782 -0.62970555 0.1368711 -0.7646811 0.038719922
-0.03054535 -0.088758707 0.69026345 -0.1474897 0.97124147 0.18691398 0.04311591
-0.089562871 -0.10122757 0.57037604 -0.36023879 0.82513857 -0.43517169 0.080938414
0.042558663 -0.087231442 0.66743243 0.12555511 0.9757964 0.17904513 0.033866882
-0.1586071 -0.38977203 0.66815007 0.097406656 -0.98968315 0.10506737 0.020308256
-0.031548046 -0.088539779 0.6852048 -0.15172854 0.97294867 0.17421091 0.046514921
-0.046814296 -0.24031886 0.49434665 -0.51526946 0.1375096 -0.84592462 0.028867291
-0.073515028 -0.089086324 0.63305181 -0.28092855 0.95734954 0.067536093 0.048272245
-0.087209225 -0.092091478 0.57400799 -0.2603606 0.88774329 -0.37963712 0.075498953
-0.069090113 -0.18302025 0.53599632 -0.83919233 0.052050989 -0.54133803 0.0069968617
-0.1045086 -0.097204775 0.58894455 -0.41761702 0.86849707 -0.26703724 0.07588549
-0.016148895 -0.088168405 0.68980795 -0.068151519 0.97871256 0.19358991 0.028159266
-0.068269402 -0.098747313 0.54337883 -0.50830948 0.70627874 -0.49273899 0.096091233
0.014877826 -0.3909843 0.48066115 -0.34844938 0.1752917 -0.92079091 0.070482507
-0.076091126 -0.13487458 0.546134 -0.75668544 0.28730822 -0.58726585 0.088786952
-0.0626873 -0.154543 0.52520269 -0.6609084 0.17102949 -0.73071814 0.016009584
0.21526925 -0.36781937 1.0078185 0.51758039 0.22721018 0.82491583 0.0075167376
-0.10655032 -0.092050828 0.60824794 -0.34340143 0.93772662 -0.052386072 0.055459455
-0.076975167 -0.38340762 0.66352117 0.38951823 -0.81702691 -0.42513829 0.11934049
-0.10306779 -0.38674593 0.66641182 0.12568644 -0.98008573 -0.15373617 0.072878718
-0.071792215 -0.092005298 0.56079763 -0.29887992 0.85123217 -0.43136367 0.09081202
0.024945136 -0.28576246 0.47402883 -0.078765064 0.064199485 -0.99482387 0.014331129
-0.030339235 -0.29360232 0.48450321 -0.38674742 -0.041825797 -0.92123669 0.017848918
-0.082561642 -0.38094389 0.78017521 0.0042380905 -0.99980026 -0.019530788 0.001195788
-0.082257286 -0.38379133 0.8050319 0.0051879347 -0.99938053 -0.034808654 0.0013510692
-0.10449994 -0.091350816 0.64560741 -0.77629924 0.56171483 0.28606978 0.091212779
-0.096208714 -0.38433975 0.79319465 0.0047093658 -0.99924409 -0.038588498 0.0014078467
-0.068257257 -0.1829868 0.53408462 -0.83407712 0.052801773 -0.54911494 0.0065575009
-0.069129981 -0.16246532 0.53642052 -0.82788092 0.073558472 -0.5560596 0.0081902416
0.044175453 -0.14048077 0.50441039 0.193886 0.18370435 -0.96367055 0.0058042258
-0.073730692 -0.15571855 0.5431124 -0.83097982 0.070882246 -0.5517683 0.014332862
-0.082099453 -0.12903744 0.55690479 -0.79964262 0.2538147 -0.54419649 0.085593395
-0.0090319272 -0.086831249 0.50372392 -0.30178842 0.43072322 -0.85052997 0.08364404
-0.070142582 -0.38044685 0.62839323 0.54098481 -0.75509053 -0.37036967 0.15152536
-0.092984684 -0.33164591 0.59125501 -0.99632746 -0.077989884 0.035343681 0.029124103
-0.020831762 -0.2893883 0.48118415 -0.33835575 -0.00069043727 -0.94101804 0.020256922
-0.048070479 -0.22231589 0.49749047 -0.47222561 0.17113848 -0.86470491 0.031431049
-0.058504067 -0.20750248 0.51542199 -0.73180991 0.083534129 -0.67636997 0.027316272
-0.054569624 -0.20952858 0.50787699 -0.63080567 0.12933798 -0.76508558 0.038243417
-0.076598994 -0.10227538 0.5527029 -0.39482707 0.72471881 -0.56470716 0.09963689
-0.094625466 -0.25172454 0.59093279 -0.99782813 -0.055969071 0.034735594 0.017340641
-0.042417437 -0.2647461 0.49306503 -0.55918968 -0.0064653796 -0.82901448 0.023654418
-0.090004086 -0.23382877 0.56352884 -0.94511491 0.012214376 -0.32650959 0.01575282
-0.091997571 -0.29648125 0.60177821 -0.99629074 -0.0048060487 0.085916884 0.022314131
-0.080161288 -0.26608965 0.54622871 -0.90784043 -0.0088461088 -0.41922238 0.013358924
-0.069626577 -0.09795177 0.54544127 -0.46801585 0.73116952 -0.49633887 0.10142116
-0.094163269 -0.33991256 0.59559143 -0.99930078 -0.036517084 0.0080390079 0.038464043
0.038609825 -0.38001958 0.93177658 -0.1221532 -0.99201411 0.031411324 0.0051633306
0.31769121 -0.17276815 0.70480806 0.9434312 0.31737581 0.095969513 0.0048706252
-0.096327834 -0.19944935 0.62877297 -0.94702423 -0.14851065 0.28476253 0.016803836
0.32079807 -0.18376355 0.71578342 0.9434312 0.31737581 0.095969513 0.0048706252
0.3018046 -0.1304272 0.68858951 0.94303799 0.31377751 0.11055823 0.0043118116
-0.074287713 -0.095116675 0.55529433 -0.30579704 0.83550382 -0.45653209 0.094278924
-0.11018394 -0.093823962 0.59859848 -0.29499671 0.94330239 -0.15217571 0.045060392
-0.0815752 -0.092189133 0.67154241 -0.51275259 0.75367916 0.41115996 0.092500642
-0.051202863 -0.38692561 0.81124192 -1.3955759e-05 -0.99988544 -0.01513589 0.0013886611
-0.035337042 -0.38402548 0.77700722 -0.014899719 -0.99959159 -0.024384072 0.0011946418
-0.03337273 -0.38569409 0.80459636 -0.0066551967 -0.9999702 -0.0039039685 0.00091333699
0.1875556 -0.3676385 1.022931 0.51758039 0.22721018 0.82491583 0.0075167376
-0.097983107 -0.10007699 0.5866971 -0.48186326 0.79855776 -0.36071241 0.094660498
0.021018848 -0.087958425 0.71651632 0.06906344 0.88502419 0.46039376 0.037910897
-0.049459122 -0.21240239 0.49947023 -0.46727809 0.17154327 -0.86730856 0.040044762
-0.087037764 -0.31007469 0.56004751 -0.97263151 -0.0068800161 -0.23225132 0.024626907
0.027910847 -0.37563786 0.92977619 -0.14502478 -0.98868674 0.03829363 0.0049706791
-0.062198229 -0.23785421 0.51851672 -0.80965263 -0.033335816 -0.58596188 0.0075816666
-0.062444758 -0.12891316 0.52583987 -0.60188603 0.33652696 -0.72421187 0.055859577
0.22558799 -0.38917953 0.43944365 0.059660073 -0.99493074 -0.080952697 0.028657693
0.17075802 -0.37747654 0.43813816 0.078264356 -0.9351148 -0.34559372 0.05983948
-0.068902321 -0.14442569 0.53393877 -0.70765358 0.18581474 -0.68168843 0.027595589
0.22776137 -0.39449334 0.4557704 0.0550039 -0.99696892 -0.055023491 0.017106321
-0.066936061 -0.13086016 0.53147137 -0.60417098 0.33996388 -0.72069556 0.062410012
-0.025140101 -0.27488554 0.48275909 -0.33710289 0.044645675 -0.94040859 0.020995686
-0.079010189 -0.092389494 0.56585014 -0.27323431 0.85991299 -0.4311527 0.086118408
-0.039203454 -0.088093214 0.67466682 -0.1823722 0.97081918 0.15572582 0.055757955
-0.033811573 -0.088243507 0.58831507 -0.13188693 0.97502935 -0.17867157 0.031198066
0.22418393 -0.37615147 0.42465442 0.061141998 -0.99045444 -0.12353764 0.040144496
-0.072150327 -0.10911617 0.54452169 -0.58983976 0.50826347 -0.62750089 0.09222357
0.39071134 -0.33896872 0.53172392 0.76798689 -0.62176394 -0.15364185 0.083341971
0.20951848 -0.3737582 0.42556646 0.061141998 -0.99045444 -0.12353764 0.040144496
0.0048090345 -0.089110389 0.50755394 -0.21311559 0.49150056 -0.84439856 0.11729979
0.41474137 -0.35192102 0.5771656 0.6736415 -0.69747543 -0.2444075 0.11397123
-0.077921703 -0.096212745 0.55609965 -0.28327072 0.83152264 -0.47783655 0.093364112
-0.094466105 -0.25041312 0.59231347 -0.99794269 -0.049771931 0.040411275 0.016690962
-0.10091425 -0.17695838 0.60400486 -0.99854338 -0.018198743 -0.050792683 0.022516264
-0.094895877 -0.10017309 0.66954702 -0.65533352 0.58818275 0.47389764 0.10262138
-0.039909776 -0.37440217 0.67310423 -0.62041026 0.41018131 0.66846275 0.10648596
-0.099125825 -0.19052456 0.62045228 -0.98805916 -0.084828936 0.12862004 0.01699402
-0.084226146 -0.276261 0.63309366 -0.91669273 -0.14248982 0.37332425 0.019691102
-0.086414538 -0.39395323 0.54791641 -0.97240198 -0.017609861 -0.23264618 0.087483525
-0.038459487 -0.31742689 0.67634505 -0.59190381 -0.036201961 0.80519521 0.024476664
-0.092884146 -0.29977846 0.58357579 -0.99956518 -0.017087305 0.02403139 0.021497017
-0.091787718 -0.0897201 0.66927826 -0.51475734 0.75842744 0.39976585 0.090921968
-0.08625599 -0.26984137 0.62894446 -0.95979089 -0.073160149 0.27101493 0.013392847
-0.079031333 -0.27868435 0.64127088 -0.86867583 -0.17709343 0.46264479 0.017411778
-0.092782944 -0.27336016 0.60135758 -0.99634421 -0.027406108 0.08091408 0.017848728
-0.092262492 -0.36125755 0.56913316 -0.99139369 -0.045892727 -0.1226062 0.040809531
-0.083066911 -0.15917249 0.67277861 -0.80329072 -0.086741954 0.58923668 0.028598318
-0.082016706 -0.30728611 0.63010383 -0.90364933 -0.11819179 0.41164133 0.018613229
-0.04919092 -0.37859854 0.65192443 -0.64864188 0.32066056 0.6902467 0.10603416
0.47350547 -0.074060813 0.32273698 0.25720656 -0.78668481 -0.56122351 0.022456238
0.41175804 -0.11192057 0.36034274 0.31992853 -0.73824972 -0.59382915 0.029360605
0.3553544 -0.10245461 0.32036167 0.71112573 -0.5456633 -0.44334152 0.065670893
-0.089521728 -0.25652841 0.62210929 -0.97538096 -0.062013421 0.21162789 0.018955097
-0.0072602816 -0.37448847 0.69211727 0.50003731 -0.66036969 -0.56024498 0.095150128
0.45493767 -0.11456679 0.36197686 0.28464827 -0.78198516 -0.55450392 0.017595788
0.38524145 -0.15371653 0.36846721 0.70133954 -0.38278356 -0.60133153 0.047465295
-0.077816471 -0.30921337 0.63582104 -0.88622266 -0.1171925 0.44819114 0.019486645
0.36501485 -0.15406698 0.25875288 0.97384685 0.12886836 -0.18712354 0.0061269845
-0.072814286 -0.3824814 0.60895908 -0.82323903 0.54956418 0.14232594 0.1457662
0.35336745 -0.14107111 0.22672918 0.97119242 0.01758418 -0.23764701 0.010137622
-0.058419503 -0.38046095 0.64341444 -0.57549369 0.53260601 0.62059474 0.11095399
-0.30476573 -0.41660893 0.55905133 0.0067745866 -0.94663864 -0.32222569 0.0011792731
-0.092057504 -0.16566779 0.65595526 -0.89757538 -0.11846704 0.42464584 0.016839959
0.43791005 -0.083652198 0.31331387 0.27372891 -0.84413183 -0.46099237 0.0098640574
-0.051607199 -0.16694412 0.69273359 -0.48666933 -0.11355776 0.8661741 0.018040944
-0.074138686 -0.25081435 0.65868521 -0.84556949 -0.17736849 0.50354016 0.013369177
-0.031885944 -0.29178512 0.68880278 -0.5790754 -0.15823247 0.79977131 0.012643349
-0.075739443 -0.24166368 0.65964502 -0.84479988 -0.18037212 0.50376493 0.012872045
-0.21260953 -0.41904441 0.44594809 0.066980153 -0.98657423 0.14894624 0.019074928
-0.089575998 -0.27999505 0.61367375 -0.98793435 -0.024602629 0.15290675 0.01696967
0.40881065 -0.12090664 0.36566636 0.32311627 -0.6987139 -0.63827485 0.035818808
-0.081489079 -0.37655202 0.59417892 -0.99717569 0.047966894 -0.05779073 0.10131284
-0.042344444 -0.37373 0.67222875 -0.59869325 0.41736829 0.68364471 0.10418124
-0.1013243 -0.18088889 0.60927486 -0.99995321 -0.0082164798 0.0050972621 0.019261554
-0.088162392 -0.13902104 0.67453218 -0.77373582 0.071361303 0.62947625 0.090750448
-0.095062144 -0.10795047 0.67018664 -0.69350982 0.48323715 0.53434628 0.10892536
-0.074040391 -0.10619516 0.69067734 -0.52974546 0.61266464 0.5865252 0.11574157
-0.036547799 -0.088809706 0.68107367 -0.20066333 0.95745754 0.20738655 0.057808552
-0.01262612 -0.35712031 0.68671453 -0.62676358 0.28161001 0.72654188 0.11839007
-0.078245573 -0.38386557 0.67031902 0.3471863 -0.87802011 -0.32945758 0.095005974
-0.094764315 -0.092731997 0.66786903 -0.61507046 0.65401745 0.44039708 0.099333286
-0.11832619 -0.3877669 0.6693483 0.10074681 -0.99491209 9.8428754e-05 0.032734524
-0.24698733 -0.42085236 0.45149037 0.066980153 -0.98657423 0.14894624 0.019074928
0.37010404 -0.11314907 0.321399 0.62538695 -0.72642237 -0.2849592 0.069870688
-0.30248538 -0.41638011 0.55838305 0.0067745866 -0.94663864 -0.32222569 0.0011792731
-0.19668449 -0.39006785 0.71348184 0.14063697 -0.98887885 0.048372164 0.015240487
-0.039195623 -0.32057339 0.67465281 -0.5979439 -0.022287367 0.80122805 0.024747349
-0.19614679 -0.393224 0.66592765 0.12727544 -0.98701584 0.097982615 0.02366288
0.43775126 -0.095451504 0.32424656 0.3458662 -0.80197501 -0.48704472 0.027377212
-0.094897449 -0.096849054 0.66396153 -0.64802611 0.63239574 0.42442632 0.096877575
-0.030617326 -0.3763203 0.67652923 -0.64844346 0.5134418 0.56204855 0.11898559
0.36481944 -0.12207895 0.24266809 0.98548156 0.07690759 -0.15136503 0.010795336
-0.090595588 -0.22349986 0.63728935 -0.93777078 -0.12575214 0.32368556 0.017963452
-0.09359429 -0.1304138 0.67106718 -0.80643708 0.1998044 0.55654061 0.10130042
-0.095672376 -0.16829456 0.64468026 -0.91774708 -0.14090984 0.3713282 0.015046908
0.35260859 -0.158483 0.23043725 0.95982283 0.081553422 -0.26849437 0.0052539343
-0.031961542 -0.28636259 0.69053638 -0.55300766 -0.14891021 0.8197611 0.013120874
-0.087413326 -0.22173026 0.64665312 -0.92133945 -0.13625632 0.36409873 0.016451156
-0.099701293 -0.18754819 0.5968917 -0.99343795 -0.0042780181 -0.11429282 0.024357745
0.38359061 -0.11549439 0.34262905 0.43218052 -0.75955546 -0.48610249 0.049344387
-0.10332467 -0.092153668 0.64672577 -0.77713978 0.5533309 0.29979792 0.089624025
-0.082279235 -0.091771089 0.67529422 -0.49119499 0.7736637 0.40021488 0.090413243
-0.057118859 -0.21868812 0.68553102 -0.60571265 -0.11563329 0.78723639 0.021910429
-0.091810599 -0.090490781 0.67136967 -0.55118871 0.71440178 0.43106967 0.093323976
-0.059754256 -0.24230553 0.67869323 -0.69387972 -0.17016678 0.69969577 0.021727594
-0.078971326 -0.10170339 0.68561095 -0.5699693 0.57541066 0.5865472 0.11631266
-0.094047479 -0.14192349 0.66436851 -0.87549782 0.061212223 0.47932932 0.072514907
-0.079790421 -0.26502153 0.64293629 -0.87367719 -0.17526905 0.45383796 0.017769428
-0.079128645 -0.11181005 0.68607998 -0.59892333 0.50294507 0.62316704 0.11990567
-0.087903969 -0.30047703 0.6193859 -0.94497585 -0.10129641 0.31106225 0.021459311
-0.093807355 -0.27204251 0.5743888 -0.99697977 0.00046327114 -0.077660866 0.026790513
-0.098125182 -0.38805234 0.67325908 0.15534122 -0.98766899 0.019470179 0.060892727
-0.051709767 -0.21344288 0.68973804 -0.56335884 -0.095705517 0.82065052 0.02032982
-0.20044182 -0.38926247 0.75298131 0.041120335 -0.99814987 0.044786289 0.0045532472
-0.35036653 -0.41762725 0.55814654 0.0067745866 -0.94663864 -0.32222569 0.0011792731
-0.20000978 -0.39676911 0.65748423 0.1369177 -0.98508471 0.10421859 0.026383109
-0.13322979 -0.38932353 0.66879839 0.09153752 -0.98915505 0.11486141 0.012153424
-0.032855038 -0.087678865 0.67265457 -0.13711463 0.98217946 0.12854162 0.042003307
-0.026921472 -0.089218386 0.69765741 -0.11712406 0.95900786 0.25804266 0.043577746
-0.01490744 -0.088636294 0.69514459 -0.058953412 0.96858084 0.24161054 0.035276216
-0.090205334 -0.35944268 0.58311588 -0.99846542 -0.017074138 -0.052680761 0.050021835
-0.086750761 -0.30919138 0.62242603 -0.93054253 -0.10837273 0.34977973 0.018339714
-0.19071974 -0.38716483 0.7821542 0.031837173 -0.99805075 0.053676005 0.0056710951
-0.19803922 -0.38744703 0.78239369 0.033729423 -0.99798775 0.053691342 0.0059974566
-0.19298369 -0.38758138 0.78948116 0.03162038 -0.99790132 0.056507774 0.0059860977
-0.061675444 -0.11047294 0.71012336 -0.42632744 0.53035402 0.73278207 0.097528093
-0.090308353 -0.33624119 0.60966963 -0.99285257 -0.0056264144 0.11921509 0.060208201
-0.21396896 -0.38890809 0.76166707 0.038623415 -0.99776149 0.054591626 0.0072297789
-0.19832556 -0.38741663 0.79314607 0.033529393 -0.99784285 0.056438845 0.006322619
-0.08669696 -0.18630408 0.66076654 -0.86954808 -0.17186318 0.46297869 0.012501472
-0.045864493 -0.095096007 0.70424831 -0.3673113 0.77486169 0.51446259 0.086018927
-0.20135969 -0.38316363 0.73421049 0.11892804 -0.99261653 0.023843531 0.013853889
-0.20009118 -0.38909972 0.76575208 0.034020927 -0.99812543 0.050874911 0.0056866561
-0.09406852 -0.25940889 0.59387916 -0.99684811 -0.065252252 0.045122031 0.015711635
-0.10769335 -0.092459634 0.64080989 -0.87506986 0.41037387 0.256605 0.088151112
-0.1773656 -0.38602382 0.81625903 0.01487078 -0.99974662 0.01689822 0.0010509167
-0.14417754 -0.38711777 0.78937471 0.02987829 -0.99949211 -0.011079764 0.0015598329
-0.18041228 -0.38657141 0.81167662 0.015854394 -0.99958533 0.0240396 0.0010662073
-0.14757499 -0.38686299 0.78766143 0.032994896 -0.99847728 0.044211145 0.0036171887
-0.12737887 -0.38598981 0.78799325 0.02379377 -0.99931389 -0.028382523 0.0015476883
-0.17829041 -0.38707232 0.80315983 0.022074645 -0.99645287 0.081205562 0.0046870406
-0.17643717 -0.38688201 0.79820609 0.022074645 -0.99645287 0.081205562 0.0046870406
-0.063566394 -0.10448237 0.70334297 -0.4234525 0.7284714 0.53853256 0.099737152
-0.055042483 -0.21974611 0.68681508 -0.59347123 -0.11669549 0.79635042 0.022562932
-0.083701193 -0.38485926 0.64238602 0.29837245 -0.87462306 -0.38211057 0.13074607
-0.19731082 -0.38149276 0.71611589 0.14961205 -0.98759788 0.047610924 0.015578718
-0.24060695 -0.38684037 0.79599756 -0.03052981 -0.99400145 0.10501931 0.0084147872
-0.22934 -0.38576981 0.79496163 -0.03052981 -0.99400145 0.10501931 0.0084147872
-0.082084343 -0.21121983 0.65801638 -0.8775872 -0.15526578 0.45357814 0.012034473
0.022129098 -0.36815092 0.70232058 0.46307358 -0.70087087 -0.54253376 0.082281366
-0.077610776 -0.22377141 0.66248065 -0.8601898 -0.15242505 0.48666233 0.010544372
-0.0197038 -0.089415379 0.70224047 -0.097559147 0.91648483 0.38799188 0.045164995
-0.073492385 -0.20048021 0.67140716 -0.85075814 -0.17690539 0.49488902 0.010230965
-0.06688273 -0.21196327 0.67771119 -0.72135091 -0.18047601 0.66864139 0.01961484
-0.06345056 -0.21902542 0.67997426 -0.69928986 -0.15905641 0.69691789 0.02062084
-0.070643321 -0.097423412 0.69175863 -0.49404073 0.67500418 0.54799014 0.10974531
-0.076537751 -0.092723936 0.6830917 -0.47818372 0.75396276 0.45042259 0.095543317
0.041642386 -0.088457517 0.67420548 0.14465389 0.96108568 0.23534997 0.042398382
-0.089724757 -0.13152884 0.67561889 -0.72894299 0.20815925 0.65215933 0.11073635
-0.089626759 -0.090744458 0.67731827 -0.48711708 0.77665204 0.39941028 0.084007584
-0.11205622 -0.091307484 0.62498647 -0.92455602 0.37087855 0.087437391 0.078981817
0.018363966 -0.083930366 0.71693563 0.049508773 0.92435843 0.37829924 0.031329028
-0.073220327 -0.095067769 0.68737578 -0.4951652 0.69096935 0.52666199 0.10301254
-0.031731304 -0.3185268 0.68306315 -0.59336853 -0.032505687 0.80427426 0.033601642
-0.041588072 -0.37391499 0.66736239 -0.61098772 0.37085736 0.69939893 0.1013121
-0.016681185 -0.35179955 0.68673128 -0.64015031 0.2387172 0.73022026 0.11077308
-0.021746771 -0.086572982 0.51388419 -0.38216799 0.6593281 -0.64748293 0.074603118
0.41241273 -0.10407942 0.35798821 0.31857151 -0.73916286 -0.59342271 0.027703302
-0.071193881 -0.38349673 0.62112659 0.47726652 -0.84778768 -0.23124148 0.14974865
-0.022765048 -0.38142261 0.68071789 -0.60517377 0.51790512 0.60459816 0.11543999
-0.028277136 -0.28000799 0.69398606 -0.4884035 -0.11872331 0.8645038 0.01010472
-0.057680853 -0.38266155 0.67936909 0.45580918 -0.78914022 -0.41169864 0.10667972
-0.050343245 -0.22966979 0.68958318 -0.5498333 -0.10470253 0.82868612 0.021410679
-0.19368885 -0.39037025 0.70145017 0.17026971 -0.98254323 0.074947156 0.022295039
-0.094493754 -0.24778272 0.58745736 -0.99862701 -0.03660658 -0.037471153 0.021048892
-0.049732443 -0.098358922 0.71101254 -0.40175989 0.45747408 0.79328835 0.083016485
-0.10766723 -0.092527121 0.64204258 -0.85597938 0.44347045 0.26576921 0.089536533
-0.083012037 -0.23834565 0.64913934 -0.9012621 -0.13192612 0.41270089 0.012332428
-0.042292103 -0.24264643 0.69232666 -0.53596455 -0.10099263 0.8381781 0.015970865
-0.006318822 -0.37935939 0.69439101 0.48253968 -0.69315702 -0.53543323 0.092677265
0.018022789 -0.17525941 0.71834177 -0.12346847 -0.015356266 0.9922297 0.017909802
-0.078216635 -0.10153933 0.68602741 -0.53665835 0.63250363 0.55851322 0.11155254
-0.047411125 -0.096746527 0.70671499 -0.38564682 0.74051875 0.55037123 0.090591453
-0.077017613 -0.20175989 0.66605735 -0.86653268 -0.17519596 0.46736225 0.011713344
-0.090533815 -0.094504751 0.67507309 -0.57483369 0.67787981 0.45830694 0.096999556
0.036073424 -0.093648262 0.71711946 0.15252495 0.71423364 0.68308598 0.055718079
0.011771913 -0.11946105 0.72026306 0.013391759 0.3904458 0.92052847 0.066337503
-0.0089160642 -0.095442608 0.71650535 -0.068407372 0.91402799 0.39984152 0.039085586
0.046763249 -0.092578195 0.71573192 0.20559281 0.72273463 0.65983808 0.05815275
-0.01082248 -0.093995199 0.71421355 -0.070577979 0.91317558 0.40140885 0.040192582
0.054859683 -0.092509605 0.70963734 0.24168667 0.66934842 0.70253837 0.062102951
0.067803487 -0.093692861 0.69139647 0.41841096 0.62829 0.65588415 0.065327518
0.063115448 -0.38843241 0.90432948 -0.07806471 -0.99694413 0.0028838564 0.0036642118
-0.078210376 -0.38398018 0.6702531 0.3471863 -0.87802011 -0.32945758 0.095005974
-0.13701324 -0.38281816 0.76368791 0.039694309 -0.99838978 0.040523849 0.0039517218
-0.13046914 -0.38591826 0.78745657 0.030152099 -0.99936438 -0.019019056 0.0014476549
-0.025002444 -0.38542029 0.72763336 0.046348326 -0.96740967 -0.24893861 0.058055941
-0.051134117 -0.38457102 0.78613788 -0.0028883624 -0.99983525 -0.017922686 0.00090637716
0.077140331 -0.38814253 0.90286505 -0.078956567 -0.99685597 0.0066336198 0.0044345213
-0.082085378 -0.38666457 0.8288824 0.011372759 -0.9992153 -0.037940755 0.0018086793
0.049980819 -0.38292754 0.82727826 -0.050244246 -0.99852729 0.02046445 0.00084256823
0.070154324 -0.38705912 0.91285056 -0.080277711 -0.99664176 0.016147971 0.0049554785
0.027848735 -0.38285547 0.86774808 -0.06712544 -0.99727571 0.030583462 0.0013175202
0.06228314 -0.38685796 0.89792627 -0.076223023 -0.99708813 0.0023194314 0.0025787139
0.033850115 -0.38284364 0.89365429 -0.10921939 -0.99397266 0.0094597172 0.0017684249
0.034169082 -0.3866145 0.77690732 0.00027827438 -0.99947298 -0.03245911 0.0039067743
-0.019457156 -0.38490015 0.78459954 -0.0163296 -0.99977046 -0.013873117 0.0011122884
-0.02796898 -0.38340598 0.67787129 -0.62577748 0.55852157 0.54447782 0.11798014
-0.030192383 -0.38440585 0.75240028 -0.032523148 -0.98605907 -0.16318659 0.017372647
-0.027751172 -0.38424543 0.76820379 -0.026059099 -0.99753064 -0.065219402 0.0016522695
0.054366808 -0.38437465 0.91317815 -0.080258802 -0.99664438 0.016076738 0.0049439603
0.02959629 -0.38344425 0.83085042 -0.023684634 -0.99947751 0.021994434 0.00082204945
0.027532686 -0.38300824 0.83666277 -0.028265925 -0.99939311 0.020358624 0.00081847701
0.12475086 -0.38465685 0.91554159 -0.014277526 -0.99983615 0.011131388 0.0033981088
-0.08257217 -0.38567087 0.83800286 0.0085675325 -0.99850148 -0.054051045 0.0026266943
0.069032483 -0.38816667 0.90763634 -0.080277711 -0.99664176 0.016147971 0.0049554785
0.083280936 -0.38880539 0.92674714 -0.077142105 -0.99662399 0.028101748 0.0065616877
0.027725337 -0.38050148 0.89535052 -0.11099525 -0.99376476 0.01056622 0.0018837661
0.052842919 -0.38474393 0.91568846 -0.080258802 -0.99664438 0.016076738 0.0049439603
0.025869796 -0.38593978 0.77969742 0.00035061318 -0.99935943 -0.035784297 0.0037022219
0.070306174 -0.38816422 0.9068855 -0.080230229 -0.99664873 0.015950292 0.0049227071
0.053490255 -0.38574648 0.90421587 -0.077258021 -0.99699932 0.0048463494 0.0031238883
0.15081623 -0.3886669 0.77806652 0.069766752 -0.99109155 -0.11344697 0.011921986
0.23806508 -0.38144946 0.80074543 0.020150458 -0.99954373 0.022502162 0.001738684
0.021401763 -0.38333115 0.75622898 0.022882411 -0.98839051 -0.15020224 0.018617315
-0.0027596846 -0.37568516 0.69452745 0.48936182 -0.67578745 -0.5512135 0.091970339
0.087159291 -0.14087869 0.70199931 0.39484653 0.30154705 0.86785114 0.053374097
0.14052285 -0.38851917 0.77889109 -0.11440372 0.45438921 0.88342637 0.0010290318
-0.1409103 -0.39582092 0.63692313 0.11394538 -0.99267948 -0.040048357 0.034852445
-0.038276255 -0.38593099 0.79770207 -0.005074007 -0.99996841 -0.0061156275 0.0009370367
0.022698643 -0.38543752 0.79873765 -0.012951057 -0.99986881 0.0097259097 0.0012468627
0.01077641 -0.38041151 0.87522852 -0.060069162 -0.99801183 0.019080924 0.0018225483
0.24817391 -0.38382393 0.75261152 0.02914184 -0.99881768 0.03891002 0.00084521319
0.2242447 -0.38213125 0.78592521 0.047631603 -0.99814183 0.037999623 0.0014933755
0.09399195 -0.38757581 0.93105233 -0.07276585 -0.9963671 0.044246305 0.0075960485
0.23560312 -0.38167238 0.79940426 0.0043920535 -0.99965715 0.025811296 0.00090675335
0.043243986 -0.38387454 0.910236 -0.10099286 -0.99474376 0.016889788 0.0035055762
0.1168668 -0.38745561 0.89622998 -0.029190298 -0.99957377 0.00036988518 0.0031527986
-0.08780805 -0.38622531 0.81090832 0.0066890009 -0.99899668 -0.044281665 0.0014612681
0.079201177 -0.09595149 0.68150401 0.47700688 0.62983376 0.61300403 0.069195271
0.22308971 -0.38099211 0.81522763 0.046312287 -0.99839491 0.032598693 0.0031132142
0.10744178 -0.38757166 0.90576053 -0.054370653 -0.9983114 0.020452315 0.0039359233
-0.073660694 -0.38504449 0.79750991 0.0054162703 -0.99965537 -0.025688877 0.0011152875
0.24372564 -0.38296333 0.78257179 0.02318278 -0.99916029 0.033781294 0.0012595232
0.03857328 -0.38521621 0.88787192 -0.090674177 -0.99578631 0.013705904 0.0015617363
-0.0204622 -0.37933949 0.69134641 -0.54466194 0.6385507 0.54368782 0.10102722
0.0017000241 -0.38544714 0.79928482 -0.012567381 -0.99990433 0.0057715774 0.0011166688
-0.036238838 -0.3837007 0.77258587 -0.018428991 -0.99909037 -0.038455911 0.0012567291
0.022772254 -0.38444015 0.75457209 0.02444174 -0.98826456 -0.15078372 0.018834399
0.048198275 -0.38482687 0.90205139 -0.076464556 -0.99706841 0.0027895384 0.0027330609
-0.032733493 -0.38420379 0.76692808 -0.022526223 -0.99782854 -0.061893351 0.0015629394
-0.027998494 -0.32739317 0.6829918 -0.56985563 0.055546582 0.81986529 0.055629738
-0.049663216 -0.38798964 0.79640937 -0.0041677658 -0.99989885 -0.01360008 0.0010388
0.035726108 -0.3829225 0.87189204 -0.07107345 -0.99724948 0.021023108 0.0015925728
0.0099410079 -0.38544637 0.79555583 -0.013367685 -0.99989223 0.0060700267 0.0011154809
0.021778245 -0.38549155 0.77364171 0.0059290957 -0.99845552 -0.055239704 0.0053361333
0.0005222261 -0.38566935 0.79414779 -0.011996453 -0.99992806 0.00029471953 0.0010835299
-0.023389162 -0.3856543 0.82539505 -0.0092960019 -0.9998517 0.014496809 0.00088247628
0.046662167 -0.38403499 0.83922637 -0.057345573 -0.99815285 0.020057734 0.00076974276
-0.14874591 -0.38606957 0.81013048 0.029415833 -0.99952304 -0.0093959412 0.0016170405
0.028162211 -0.38544711 0.80521214 -0.011559745 -0.99988246 0.010072767 0.0013141701
0.22498052 -0.38133165 0.81411541 -0.0026827778 -0.99966544 0.025727231 0.00096323929
-0.19897769 -0.39497963 0.67030823 0.13362615 -0.9859128 0.10059813 0.026432417
-0.19863135 -0.3961958 0.64203572 0.12947911 -0.97317731 0.19016065 0.028219463
-0.13351662 -0.39035192 0.66999626 0.088747442 -0.98788947 0.12727219 0.012294904
-0.0013588099 -0.38387877 0.81452978 -0.016549682 -0.99966782 0.019754104 0.00088059809
-0.09520746 -0.38223499 0.79111814 0.0045274189 -0.99930811 -0.036916483 0.0013741541
-0.19728182 -0.38747507 0.78657705 0.033507269 -0.99783921 0.056517854 0.0063194623
0.0077007716 -0.38468033 0.76567495 0.0098415771 -0.99552697 -0.093964659 0.0085832113
0.016911333 -0.38242716 0.83664757 -0.015081452 -0.99966055 0.021244135 0.00081111438
0.021139044 -0.38510302 0.76834732 0.0092233634 -0.99722749 -0.073838979 0.0061551682
0.054798175 -0.38442281 0.82143193 -0.045583114 -0.99869603 0.022987459 0.00091119017
0.072519168 -0.38786396 0.89839369 -0.077459097 -0.99699527 0.00059960532 0.0030853772
-0.0027555057 -0.38333341 0.82197797 -0.013702343 -0.99971372 0.019613355 0.0008857997
-0.21977292 -0.38672194 0.78104687 0.0053554778 -0.99770737 0.067462973 0.0080758519
0.043256689 -0.3840965 0.89778256 -0.094465666 -0.99551857 0.004363412 0.0020675717
0.078283228 -0.095985077 0.68301129 0.44972709 0.61744988 0.64536893 0.070386738
0.15879165 -0.39275903 0.55672187 0.01576747 -0.99749166 0.069004625 0.0037026422
0.27322543 -0.38856512 0.61779928 -0.054415289 -0.99594259 0.071676046 0.0011685893
0.19346349 -0.39339605 0.5566231 0.0084049888 -0.99824655 0.058592625 0.0013788843
0.2110517 -0.39298773 0.55844361 -0.0041686622 -0.99863911 0.05198529 0.0018306914
0.20816976 -0.39367375 0.55615145 -0.0054856534 -0.99881434 0.048371319 0.001970072
0.19966424 -0.39046472 0.54529828 0.0047094785 -0.99856818 0.053286146 0.0014940299
0.2831687 -0.39321244 0.60137993 -0.027560607 -0.99684656 0.074412912 0.0015783042
0.24668892 -0.39569309 0.46003169 0.042373966 -0.99769533 -0.052995779 0.0090222489
0.23497029 -0.38881242 0.42780405 0.06115162 -0.99045378 -0.12353845 0.040143833
0.22611961 -0.39445463 0.45522174 0.0550039 -0.99696892 -0.055023491 0.017106321
0.25697055 -0.39507908 0.53121811 -0.019593522 -0.99922895 0.034024317 0.0018103817
0.24130557 -0.38900906 0.58689791 -0.011438247 -0.99774164 0.066187315 0.0012595517
0.2434725 -0.39333457 0.42983589 0.061676431 -0.99369448 -0.09363313 0.030735942
0.24695629 -0.39298028 0.54737192 -0.011624861 -0.99840504 0.055247638 0.0017103764
0.251362 -0.3861663 0.64794916 -0.014778248 -0.9988426 0.045773178 0.00082823663
0.22585823 -0.38789442 0.4366968 0.061677355 -0.99369448 -0.093633518 0.030736109
0.17478468 -0.39349169 0.55605346 0.015096422 -0.99811691 0.059453763 0.0017145167
0.24274713 -0.39336291 0.43173814 0.061676431 -0.99369448 -0.09363313 0.030735942
0.21939164 -0.38596335 0.65680146 0.0093844403 -0.99933147 0.035332575 0.00066175644
0.057274587 -0.19779874 0.71980268 -0.0038593961 0.011614745 0.99992514 0.024094472
0.26353407 -0.3856273 0.66901654 -0.034330793 -0.99870425 0.037567172 0.00091166911
0.26454902 -0.38455102 0.67734754 -0.017332369 -0.99918664 0.036408424 0.00073316932
0.25642985 -0.38525516 0.67071056 -0.034355443 -0.99870408 0.03754941 0.00091249857
0.26147497 -0.38302237 0.69232136 0.0086601768 -0.99917328 0.039719306 0.00082306017
0.24743767 -0.39430043 0.50966197 -0.023248561 -0.99972957 0.00044019709 0.0021099555
0.25886998 -0.38553616 0.64857721 -0.034031548 -0.99848127 0.043323405 0.00071612524
0.24411188 -0.39049944 0.39387673 0.0183251 -0.96664554 -0.25546172 0.040060099
0.21607172 -0.39314213 0.55716825 -0.0081737712 -0.99865812 0.051138736 0.0017773284
0.25425801 -0.3853597 0.68583924 -0.0098431204 -0.99934369 0.034859858 0.00046022277
0.37056571 -0.32517052 0.42252737 0.96724671 -0.19245607 -0.16551302 0.002409054
