# .PCD v0.7 - Point Cloud Data file format
VERSION 0.7
FIELDS x y z normal_x normal_y normal_z curvature
SIZE 4 4 4 4 4 4 4
TYPE F F F F F F F
COUNT 1 1 1 1 1 1 1
WIDTH 481
HEIGHT 1
VIEWPOINT 0 0 0 1 0 0 0
POINTS 481
DATA ascii
0.0050015314 -0.45169243 0.2575351 0.0050792703 -0.99769622 0.067650318 0.09235099
0.092820369 -0.42877474 0.36869612 -0.10497823 0.98441136 -0.14111589 0.11204255
0.038137041 -0.44720027 0.28830537 -0.20574924 0.97397739 -0.095054947 0.098796196
0.02772502 -0.44780663 0.31323886 -0.23139261 0.96777898 -0.099303864 0.11785067
0.057859048 -0.44521138 0.33799419 -0.29362473 0.95326859 -0.071158394 0.11684123
0.052827504 -0.44500551 0.29003704 -0.17160977 0.98187107 -0.08049421 0.086564749
0.024475506 -0.44631809 0.26229903 -0.21198292 0.97220343 -0.099417411 0.093138687
0.079575337 -0.43567821 0.34787777 -0.16122968 0.97442365 -0.15653557 0.10027195
0.014658759 -0.44686061 0.26912472 -0.18986773 0.97196734 -0.13867161 0.11958929
0.030565524 -0.44809657 0.31603542 -0.1989197 0.97593391 -0.089352302 0.11159662
0.076337047 -0.43767661 0.35311142 -0.22119822 0.96864831 -0.1131015 0.1025568
0.036784295 -0.44954744 0.28789932 -0.20576026 0.97397447 -0.095059857 0.098816708
0.089732297 -0.43094856 0.36577088 -0.12479114 0.9812175 -0.14710295 0.11161894
0.074839622 -0.43723008 0.34803951 -0.25695902 0.96022743 -0.10924929 0.090694688
0.062376358 -0.44710648 0.30762959 -0.14688458 0.9798733 -0.13517804 0.077095881
0.081483372 -0.44393942 0.31835985 -0.134316 0.9771347 -0.16482414 0.082433634
0.012626993 -0.44947585 0.30138615 0.087165825 -0.9913041 0.098581687 0.11448375
0.052931953 -0.44596744 0.30892816 -0.18820262 0.97550172 -0.11391288 0.08399079
0.047840513 -0.44561854 0.32887429 -0.20086212 0.97256213 -0.11737631 0.10611219
0.068734758 -0.4409945 0.33675525 -0.19923361 0.96901548 -0.14599656 0.094199106
0.01192877 -0.44972625 0.28913957 0.086489432 -0.99153602 0.096829005 0.12788142
0.16064289 -0.43016806 0.26547316 -0.014406567 -0.98772281 -0.15555105 0.032962717
0.22249874 -0.439805 0.2746855 0.1235757 -0.98068792 -0.15159266 0.032199305
0.26561937 -0.44703031 0.36037654 0.17490581 -0.9577598 -0.22826348 0.073343858
0.25219339 -0.43264368 0.29450881 0.082048923 -0.97873253 -0.18801755 0.033638015
0.24545349 -0.43552455 0.27955604 0.10354334 -0.98100585 -0.16403125 0.03395788
0.1547858 -0.40398252 0.38444629 0.0065729162 -0.98497331 -0.17258154 0.1403666
0.22854912 -0.44597045 0.3428486 -0.049627382 -0.99747926 0.05071675 0.042297985
0.24398473 -0.44508922 0.34074554 0.061651662 -0.98403239 -0.16697085 0.049380027
0.16613583 -0.43658403 0.3109484 0.062646821 0.97415024 -0.21704061 0.058198009
0.26367515 -0.44675216 0.35984537 0.17490581 -0.9577598 -0.22826348 0.073343858
0.16191201 -0.42927337 0.42470407 0.085122764 -0.9427408 -0.32248077 0.11312358
0.26878566 -0.44282711 0.35291874 0.15402915 -0.9726814 -0.17368342 0.060221065
0.21840315 -0.43389446 0.28486034 0.066535972 -0.97488946 -0.21251725 0.028906586
0.16651179 -0.42621508 0.34603381 0.16931131 0.9660601 -0.1950939 0.081889257
0.26135668 -0.44542831 0.34994152 0.10010244 -0.97070748 -0.21841805 0.062425595
0.19828661 -0.4248932 0.41013077 0.34549636 0.92473441 0.15968242 0.076331787
0.14169894 -0.43356967 0.30743924 -0.01476868 0.97967935 -0.20002553 0.066246048
0.071220696 -0.41024074 0.33940214 -0.24416091 0.96409351 -0.10444746 0.10164952
0.15494268 -0.43975189 0.33932915 0.052367035 0.97170883 -0.23030336 0.087992102
0.072725721 -0.4395391 0.27038828 -0.1525289 0.98659521 -0.058006108 0.076938741
0.095932811 -0.42989418 0.25948679 -0.11135615 0.99285191 -0.04295294 0.079512574
0.020750567 -0.43135202 0.25645834 -0.30163947 0.93690217 -0.17671433 0.088499002
0.11535259 -0.43201947 0.30916926 -0.064429566 0.97938633 -0.19144538 0.075894699
0.031843152 -0.44254443 0.3030082 -0.19998479 0.97231519 -0.12086884 0.10774137
0.084296912 -0.43124124 0.24080503 0.15725096 -0.9871189 -0.029469831 0.07187289
0.079953827 -0.44137451 0.27584553 0.15792176 -0.98652685 0.042725563 0.071957827
0.071214013 -0.42418119 0.34225562 -0.21382609 0.96742111 -0.13555345 0.097605653
0.059805818 -0.44371438 0.24135266 -0.20824264 0.97596592 -0.064229891 0.060475849
0.07856217 -0.44251361 0.28053418 0.1528969 -0.9859795 0.066834815 0.07458584
0.12877704 -0.4305025 0.35366419 -0.0024006842 0.98467332 -0.1743926 0.10407507
0.10329561 -0.44263652 0.31703264 -0.068333484 0.97953689 -0.18930902 0.075619273
0.137619 -0.4367936 0.33170477 -0.022159342 0.97116494 -0.23737633 0.086212069
0.12460572 -0.41942951 0.38878897 0.16882242 -0.9717117 -0.16515301 0.11851323
0.029442554 -0.43108246 0.30206153 -0.22051662 0.96985584 -0.10369215 0.11010681
0.13248275 -0.43666545 0.28134325 -0.001760914 -0.99737686 0.072361693 0.073448509
0.13701099 -0.42230311 0.40518156 0.0064898836 -0.98499823 -0.17244239 0.14034259
0.11289962 -0.41233397 0.37740886 -0.14817001 0.98832941 0.035366017 0.1236371
0.12854587 -0.43272504 0.26652876 0.042633295 -0.99876148 -0.025653251 0.068154797
0.098980047 -0.43439373 0.25339234 0.088414229 -0.99603379 -0.0099792508 0.075972609
0.01884556 -0.43937957 0.29497924 -0.21811102 0.97032905 -0.1043516 0.11683427
0.13726483 -0.41712379 0.39569578 0.12797356 -0.96826339 -0.21468312 0.1275689
0.13292231 -0.4177331 0.39394784 0.15761802 -0.96129817 -0.22596981 0.12510245
0.1241114 -0.4119705 0.38036603 0.11468845 -0.99175435 -0.057181928 0.1235611
0.10345358 -0.43876627 0.27044782 0.066194572 -0.99775481 0.010184609 0.077013835
0.10482141 -0.43830252 0.28867841 -0.076018028 0.98975796 -0.12083253 0.083033986
0.092345729 -0.43060637 0.28051296 -0.1624151 0.97420508 -0.15667146 0.077944309
0.127226 -0.43309024 0.27411959 0.022596776 0.99440104 -0.10322752 0.087024949
0.096893691 -0.43700099 0.28151116 -0.13817747 0.9817158 -0.13092411 0.076760449
0.17772298 -0.42822897 0.41992393 0.073927104 -0.95165414 -0.29814297 0.11119562
0.21303633 -0.44473618 0.32305291 -0.030057745 -0.99939418 -0.017545894 0.036763635
0.087425098 -0.42522421 0.3641904 -0.14974318 0.98115456 -0.1221173 0.11292777
0.10678944 -0.41055721 0.37583101 0.19836465 -0.97323906 -0.11600506 0.12397034
0.081012487 -0.44165331 0.31376216 -0.17226738 0.96627462 -0.19140902 0.072235912
0.11833631 -0.41745976 0.38284689 0.17415228 -0.97699916 -0.12305953 0.12292717
0.068150327 -0.44154772 0.33453554 -0.19948091 0.9670198 -0.15836713 0.096657522
0.26504987 -0.4390513 0.34387735 0.085719191 -0.96984524 -0.22815016 0.053716023
0.20897841 -0.43757668 0.27110645 0.056569297 -0.97205067 -0.22785443 0.026542697
0.15818834 -0.44116354 0.33740669 0.065002881 0.97040963 -0.23255037 0.082179278
0.16352828 -0.4441117 0.29994032 -0.040847734 -0.99509782 0.09006504 0.047883272
0.11084583 -0.43624812 0.33111516 -0.045580126 0.97861326 -0.20059542 0.075589202
0.17142576 -0.44068819 0.28384107 0.0011237268 -0.99988198 -0.015319351 0.034447316
0.25021645 -0.43699196 0.33066884 0.13480002 -0.97096342 -0.19763334 0.038116504
0.17283189 -0.44321331 0.31490654 0.067507885 0.98850441 -0.13528411 0.052920297
0.053627547 -0.44064441 0.31666064 -0.20484881 0.9699536 -0.13125232 0.082681097
0.054610033 -0.44037002 0.25298885 -0.1854187 0.98003298 -0.071799397 0.077194072
-0.01239102 -0.31208041 0.43233699 0.00622823 0.017424842 -0.99982882 1.4215648e-05
0.36252499 -0.41820881 0.59850317 0.23315255 0.93889052 0.25322828 0.033179406
0.33836529 -0.41994771 0.57919049 0.19626892 0.9678151 0.15751958 0.016281867
-0.0049152421 -0.3252179 0.43215799 0.00622823 0.017424842 -0.99982882 1.4215648e-05
0.36065686 -0.4296242 0.48770335 0.065923624 0.99683487 -0.044433028 0.015921058
0.16082852 -0.42079806 0.40782821 -0.010884424 -0.98242724 -0.18632852 0.14605261
0.15948856 -0.43080243 0.42655793 0.14543749 -0.89761114 -0.41610345 0.099355288
0.092735432 -0.40808544 0.35994294 -0.13524373 0.9798035 -0.14728945 0.11957176
0.37996331 -0.43250856 0.57547331 0.23299681 0.96782571 0.095004745 0.018160334
0.16533117 -0.42784965 0.35455632 0.17132699 0.96993244 -0.17285314 0.095962167
0.3904306 -0.42561272 0.50956112 0.091028526 0.99583942 -0.0042088963 0.015980788
0.16966966 -0.40974978 0.37076378 0.27050826 0.95374262 -0.13114975 0.11295976
0.22970065 -0.43680373 0.31027842 0.015694929 -0.99185407 -0.12640885 0.034291692
0.3629314 -0.42280641 0.48383701 0.065882079 0.99683636 -0.044460636 0.015904618
0.10347109 -0.40820816 0.36649737 -0.15156177 0.98809952 -0.026238028 0.11838727
0.13579026 -0.4139438 0.34151456 0.0065001464 0.98015809 -0.19811112 0.093062729
0.41705689 -0.42547056 0.52426529 0.069253281 0.99750018 0.014046499 0.016154755
0.16253869 -0.41236094 0.38461092 0.11429277 0.99307716 -0.027108716 0.14276342
0.061807431 -0.40498325 0.31930581 -0.25102088 0.9564817 -0.14876601 0.078414552
0.013222667 -0.40932471 0.29899582 -0.34365499 0.93354368 -0.10196745 0.14827771
0.28102806 -0.43385923 0.28582209 0.079339243 -0.98200929 -0.17135653 0.028886054
0.26757354 -0.43296701 0.28206074 0.065138176 -0.98062199 -0.18476346 0.027303563
0.04976014 -0.41812235 0.30904287 -0.24971338 0.95809758 -0.1403289 0.082228422
0.2983869 -0.42583108 0.2756955 0.052373987 -0.99830252 -0.025477413 0.018103054
-0.13718452 -0.41494012 0.27064651 -0.012429088 0.9981423 -0.059643291 0.0029805452
0.15346283 -0.39790291 0.36871248 0.15553704 0.98358583 -0.091472134 0.13363981
0.41631445 -0.42747036 0.44209054 0.033762611 -0.99939579 -0.0082429331 0.0047217263
0.07451278 -0.4152005 0.35215881 -0.34102625 0.94001287 0.0087717408 0.10639203
0.36551577 -0.42514402 0.48732224 0.065923624 0.99683487 -0.044433028 0.015921058
-0.20922861 -0.41530114 0.3509115 -0.06059568 0.99816197 0.00094368914 0.0029002756
-0.23303431 -0.41955775 0.32867226 -0.084042788 0.99610186 -0.026795257 0.0019840917
-0.24157228 -0.41518438 0.3036029 -0.072095826 0.99719667 -0.020022469 0.0019936764
0.02911111 -0.41455612 0.82492942 -0.026665244 0.99878776 0.041377258 0.0033337881
-0.16274172 -0.40616667 0.3325766 -0.038246993 0.99859351 -0.036717258 0.0023148896
-0.14567915 -0.41576609 0.2337438 -0.040260151 0.99916261 -0.0073029767 0.0021422422
-0.15361898 -0.41488791 0.30445316 -0.038279351 0.99800301 -0.050247852 0.0016688014
-0.16989832 -0.41683036 0.25682667 -0.023953894 0.99790412 -0.060113821 0.0023890559
0.38010654 -0.42252561 0.27314091 0.036805373 -0.99922878 -0.01368619 0.0018911256
0.37376013 -0.42173418 0.25007999 0.043549709 -0.99787724 -0.04841869 0.00049078593
0.38903469 -0.42174441 0.2880986 0.018530816 -0.99974102 -0.013208674 0.0043397406
0.36005777 -0.42510024 0.30378982 0.043149039 -0.99904943 -0.0061954921 0.0015078909
0.2278069 -0.41255438 0.69146907 0.0039369329 0.99998176 0.0045878906 0.0003942016
0.37685367 -0.41655445 0.71000987 0.035402577 0.99930012 0.012078441 0.0029056121
0.24746172 -0.41463012 0.70644653 0.0093043828 0.99992812 0.0075677307 0.00031241335
0.32951143 -0.41362098 0.68723136 0.030649193 0.99931347 0.020818122 0.0019038402
0.080856077 -0.41028517 0.75753003 0.017705865 0.99982512 -0.0060140793 0.00027182343
0.29547688 -0.41393974 0.70036596 0.0070545394 0.99969292 0.023755888 0.00043376142
-0.071871482 -0.41484115 0.6470769 -0.0056624459 0.99998385 -0.00051201181 0.00076800294
-0.067221791 -0.41479546 0.65704167 -0.0074902372 0.99990362 -0.011694428 0.00099774753
0.013973314 -0.41235909 0.65245938 -0.0053711487 0.99964917 -0.025936574 0.00022400945
0.036828123 -0.41270992 0.6642406 -0.0033236165 0.99968624 -0.024827484 0.00024442514
0.11592305 -0.4119058 0.71377373 -0.027526412 -0.99931353 0.024795288 0.00020852074
0.080348559 -0.4128302 0.68601865 -0.017173585 -0.99920923 0.035862051 0.0002379728
0.39884773 -0.42083105 0.28845704 0.017749136 -0.9998281 -0.0053602429 0.0039518406
0.38328022 -0.41350445 0.47561702 0.038317706 0.99843389 -0.040760994 0.017338654
0.40694797 -0.42087561 0.29487911 0.017749136 -0.9998281 -0.0053602429 0.0039518406
0.10346913 -0.41131926 0.70464331 -0.024450751 -0.99911451 0.034238514 0.00029857329
0.39455947 -0.42052308 0.26424119 0.041183174 -0.99905932 -0.013575271 0.0021928411
0.38554069 -0.4156571 0.55697131 0.16154 0.98671532 -0.017251639 0.025600538
0.010248592 -0.41259086 0.61869419 -0.0031689908 0.99989295 -0.014282281 0.00019416162
0.11478171 -0.41202402 0.70924544 -0.026001047 -0.99916935 0.031377286 0.00022190658
0.43292189 -0.42101401 0.45592517 0.023663001 -0.99962521 -0.013771209 0.0058559394
0.093303956 -0.41443285 0.68283695 -0.022586264 -0.99893016 0.040352751 0.00023618284
0.42325509 -0.4180513 0.4841522 0.016586736 0.99970305 -0.017850576 0.013282028
0.14378405 -0.41232339 0.75237805 0.025228627 0.99957144 -0.014845857 0.00012825408
0.29204994 -0.41499534 0.72532386 0.0073364996 0.99973232 0.021939928 0.00056928466
0.31521291 -0.4147315 0.70287341 0.024169758 0.99952364 0.019190023 0.0013788027
0.4915674 -0.41875282 0.38341352 -0.0033240602 0.99858844 -0.053010505 0.0037901474
0.083103679 -0.41048685 0.71217364 0.016299941 0.99944949 -0.0288995 0.00027629005
0.4093748 -0.4182871 0.23918572 0.030578591 -0.99904263 -0.031283922 0.0017103598
0.32106063 -0.41457474 0.72694969 0.023712339 0.99953628 0.019107422 0.0016732739
0.14233069 -0.41170487 0.78918231 0.020223321 0.99967229 -0.015691506 0.00018400633
0.19099124 -0.41220683 0.79028416 -0.004460209 -0.99975479 0.021686446 9.1831556e-05
0.16255704 -0.41250515 0.77482677 0.013301752 0.99977106 -0.016761431 0.00014580815
0.33438489 -0.41468054 0.72989637 0.030652229 0.9993096 0.020993546 0.0019020494
0.35938722 -0.41512766 0.7265873 0.026884025 0.99953389 0.014468297 0.002113451
0.37557593 -0.41640651 0.70718455 0.035412818 0.99929851 0.012184533 0.0029192942
0.24135225 -0.41212308 0.69458383 0.0091730654 0.99993062 0.0073951297 0.00035448404
0.20394492 -0.41311657 0.73809052 -0.0054872776 0.99989527 -0.013395265 0.00013674764
0.32530436 -0.41335693 0.68071532 0.030649193 0.99931347 0.020818122 0.0019038402
0.22687194 -0.41380554 0.73757309 0.0057066912 0.99995035 -0.0081642838 0.00021047547
0.44797203 -0.42385685 0.29579821 -0.0063699279 -0.99975258 0.021311356 0.0028018407
0.51504058 -0.42057174 0.33852732 0.0066005853 0.99707574 -0.076133274 0.0040747547
0.35759038 -0.42122802 0.25795841 0.045457542 -0.99779248 -0.048413716 0.00049435563
0.41070759 -0.41721132 0.47088942 0.040668268 0.9989816 -0.019542634 0.014878273
0.22925815 -0.41275704 0.69897479 0.0061394367 0.99996448 0.0057678209 0.0003777814
0.18566106 -0.41456738 0.68951261 0.0036812029 0.99993759 -0.010547299 0.00025761838
0.15415479 -0.41424149 0.69581407 0.014650419 0.99983633 -0.010614097 0.00033240349
0.17083459 -0.4139654 0.69748896 0.0093095545 0.99993157 -0.0070818239 0.00029054857
-0.0095549645 -0.41252479 0.68449306 0.002652905 -0.99834102 0.057516661 0.004423805
0.077784926 -0.41018662 0.70865804 -0.015993942 -0.99933726 0.032698639 0.00023461651
-0.03426199 -0.31950131 0.4320738 0.00622823 0.017424842 -0.99982882 1.4215648e-05
0.2980929 -0.41506827 0.72115147 0.011364088 0.99970829 0.021310462 0.00052969967
0.47161806 -0.41757801 0.38798136 0.035905246 -0.99928021 0.012241416 0.0041468828
0.19818977 -0.41327998 0.71662921 -0.0032154424 0.999924 -0.011907872 0.00016089878
0.1130226 -0.41131812 0.75711834 0.021596748 0.99969065 -0.012333115 0.00016809383
0.21644826 -0.41268319 0.69252396 -0.0033200711 0.9999913 -0.0025117956 0.00034407701
0.20595714 -0.41402078 0.67822027 -0.011503439 0.99988979 -0.0093890848 0.00028405929
0.2822952 -0.41142327 0.68578267 0.0070707328 0.99957579 0.028252864 0.00023535252
0.0028628104 -0.41195875 0.69350046 -0.0068358621 -0.99866706 0.051160224 0.0045301109
0.15330942 -0.4117538 0.80283827 0.0090279793 0.99984872 -0.014865926 0.00020353807
0.18247293 -0.41282824 0.73762858 0.0069060875 0.99990898 -0.011590102 0.00017807377
0.1273246 -0.41335532 0.69979161 -0.021920851 -0.99937004 0.027908986 0.00029610647
0.2216052 -0.42863089 0.26033387 0.048257135 -0.98126954 -0.18649748 0.028312633
-0.10899024 -0.4111152 0.59180772 -0.015727933 0.9983834 0.054618638 0.00062136113
0.009883699 -0.41167518 0.69160014 -0.0096647898 -0.99874717 0.049098544 0.0044023627
0.026006408 -0.41278848 0.65609336 -0.0050976593 0.99968386 -0.024622014 0.00026413149
0.30473763 -0.42268497 0.25784302 0.047457982 -0.99109727 -0.1243948 0.0062802434
0.36839545 -0.41402268 0.68778151 0.032805447 0.99940854 0.010317634 0.0025697334
0.028375123 -0.41292349 0.61201364 0.0044195382 0.99988431 -0.014552884 0.0002450512
0.45062011 -0.41654721 0.25031671 -0.0065827291 -0.99903238 -0.043484971 0.0051594824
0.13075283 -0.4035058 0.34521198 0.019431897 0.98032624 -0.19642515 0.10033406
0.33544263 -0.41426036 0.73532528 0.030652229 0.9993096 0.020993546 0.0019020494
0.016554974 -0.41255724 0.65813124 -0.0050886273 0.99959981 -0.02782671 0.0002022828
0.37634435 -0.42159206 0.2482118 0.046673872 -0.99794608 -0.043877754 0.0006590737
0.4078548 -0.41754234 0.3295548 0.018699445 0.99870706 -0.047271546 0.0038252603
0.50488353 -0.41893813 0.37213293 -0.0014732789 0.99752414 -0.070309423 0.0047273021
0.17306231 -0.41312259 0.72926968 0.011675709 0.99989349 -0.0087526534 0.00023126767
0.43901309 -0.41705212 0.34660497 0.025792018 0.99800891 -0.057558078 0.0017332251
0.2294704 -0.41146961 0.83340818 -0.0096547911 -0.99933237 0.035237469 5.8003861e-05
0.33977908 -0.42195758 0.27461299 0.044772372 -0.9962787 -0.073648714 0.0038556568
0.36056814 -0.4230845 0.28202003 0.050148748 -0.99869871 -0.0092723528 0.00094941183
0.29483441 -0.42256749 0.2450756 0.016889133 -0.98832166 -0.15144315 0.014412941
0.2272934 -0.41128793 0.83190918 -0.0067107338 -0.99947625 0.031658165 5.2537416e-05
0.50525028 -0.41885445 0.31812361 0.012208221 0.99684429 -0.078437045 0.0036638291
0.029624997 -0.41130829 0.69238544 -0.0029171105 0.99954891 -0.029890362 0.00026728859
0.49967071 -0.41886124 0.34572682 0.011905842 0.99721277 -0.073653951 0.0031650392
0.19030643 -0.41299206 0.7760219 0.0066399081 0.99984348 -0.016397102 9.3401664e-05
0.28342623 -0.41435048 0.72728372 0.004538815 0.99971378 0.023488399 0.00050144584
0.23280355 -0.41174808 0.83569133 -0.0096547911 -0.99933237 0.035237469 5.8003861e-05
0.20473087 -0.41076982 0.82868415 -0.00055126194 -0.99975306 0.022215724 0.00017495334
0.33407399 -0.42567551 0.28170156 0.042697996 -0.99635297 -0.073875427 0.0047864048
0.45487225 -0.41624987 0.36833307 0.017018998 0.99875641 -0.046861812 0.0026805801
0.50761342 -0.41692758 0.4090955 0.023795027 0.99944717 0.02321882 0.0011714473
0.16397147 -0.41253775 0.77449733 0.013301752 0.99977106 -0.016761431 0.00014580815
0.17521092 -0.41247541 0.7892741 0.0075769089 0.9998104 -0.017936597 0.00016747969
-0.0057032206 -0.4074463 0.74391556 0.019134099 0.99946171 -0.026649596 0.0046759904
0.005985897 -0.41182065 0.70153666 -0.0090734111 -0.99887246 0.046599228 0.0042664898
0.018671887 -0.41005817 0.72916365 0.011834893 0.99961251 -0.025195699 0.0033126725
0.21533144 -0.40965304 0.85779971 -0.0072027519 0.99977875 -0.019763662 0.00025389597
0.3056117 -0.41516048 0.71722972 0.016905043 0.99974573 0.014924391 0.00090983964
0.23068942 -0.41316631 0.68121314 0.0039369329 0.99998176 0.0045878906 0.0003942016
0.076598614 -0.41102025 0.69536853 -0.016054574 -0.99929529 0.033929572 0.00023042604
0.096986249 -0.41174987 0.69913489 -0.022965036 -0.99907541 0.036344815 0.00026510758
0.020051226 -0.4112871 0.69839442 -0.012016454 -0.9987759 0.047982179 0.0038290932
0.046004299 -0.4117386 0.68494296 0.0037230346 0.99960554 -0.027836852 0.00028400001
0.03652801 -0.4120754 0.68051958 -0.00062918081 0.99955857 -0.029704133 0.00028519495
-0.0026351823 -0.41233405 0.63520688 -0.017750757 0.99962443 -0.02087786 0.00020835218
0.047979075 -0.40903351 0.72199786 0.0033638468 0.9998005 -0.019686354 0.00023949394
0.048359942 -0.41144046 0.69659317 -0.0052291099 -0.99946958 0.032141272 0.00026494372
-0.12475517 -0.41189855 0.57163733 -0.081097648 0.99605697 0.035966836 0.00036520866
0.048574749 -0.412653 0.67157376 0.0013051472 0.99966931 -0.025678683 0.00024923022
-0.12128328 -0.4120957 0.60008198 -0.015727933 0.9983834 0.054618638 0.00062136113
0.3877205 -0.42146686 0.2574999 0.041183174 -0.99905932 -0.013575271 0.0021928411
0.18261915 -0.41255876 0.76576525 -0.0084039178 -0.99975806 0.020326806 0.00010812053
0.18285568 -0.41235641 0.7898488 0.0075769089 0.9998104 -0.017936597 0.00016747969
0.22296394 -0.4115949 0.81561822 -0.0042654085 -0.99959499 0.028136412 3.3623372e-05
0.38220528 -0.41816145 0.69648468 0.043082237 0.99902147 0.0099937553 0.0031695117
-0.11710374 -0.41173625 0.61282194 -0.0032693585 0.99918264 0.040290136 0.00069610158
-0.033813521 -0.41293925 0.67737073 0.014410468 -0.99749899 0.069195785 0.0044797561
0.024613971 -0.41258696 0.64453048 -0.0008325518 0.9997772 -0.021091042 0.00024796749
0.057789609 -0.41147825 0.70146286 -0.0085653914 -0.99946469 0.031573303 0.00028546443
-0.078523777 -0.41648075 0.64440423 -0.0052740704 0.99997908 0.0037466355 0.00062077236
0.42967856 -0.42049459 0.31391639 0.012279395 -0.99983025 0.013733088 0.0031690034
0.13704611 -0.41273114 0.73800051 0.023759283 0.9995774 -0.01675087 0.00014369657
0.067167208 -0.40982202 0.7414887 0.011446961 0.99985665 -0.012476017 0.00029249734
0.044663124 -0.41047221 0.70460904 0.0034718842 0.99950039 -0.031416178 0.00025077988
0.0371073 -0.41036531 0.73103577 0.018869234 0.99961811 -0.020189296 0.0031214464
0.20278566 -0.41270384 0.70600563 -0.004115202 0.99992615 -0.011436133 0.00018561995
-0.022068342 -0.41323906 0.63576227 -0.018744435 0.99957597 -0.022280829 0.00020494354
0.36265963 -0.41324848 0.68242687 0.032805447 0.99940854 0.010317634 0.0025697334
0.0056148609 -0.4095664 0.76796204 0.026683584 0.99961537 0.0075629638 0.0061588078
-0.08121524 -0.41208237 0.70556134 0.0036314058 -0.99356365 0.11321767 0.011517667
-0.070603311 -0.4088614 0.74283779 -0.0067576603 -0.99244654 0.12249228 0.015021915
-0.048859831 -0.40840504 0.72459793 -0.0054250867 -0.99724036 0.074041672 0.0073279669
-0.096491471 -0.41567129 0.6695596 -0.0090528289 -0.99967223 0.023947839 0.0014189469
-0.027553229 -0.40959311 0.7207619 -0.0058161649 -0.99870849 0.05047375 0.005795842
0.023473334 -0.41021949 0.71915215 -0.012601516 -0.99954575 0.027377192 0.0029858623
0.081115171 -0.41029006 0.75694084 0.017705865 0.99982512 -0.0060140793 0.00027182343
0.046800233 -0.40988252 0.78325671 -0.0027148249 0.99983829 0.017774004 0.0013007537
0.044300903 -0.41118708 0.80957878 -0.0087684123 0.9996168 0.026256362 0.0022004114
0.18527013 -0.41430894 0.69165397 0.0037966934 0.99994862 -0.0093998145 0.00023468342
0.16179889 -0.41246998 0.77682406 0.014593147 0.99975067 -0.016897466 0.00013147107
-0.048401609 -0.41247889 0.68568438 0.013384703 -0.99701869 0.075990453 0.0058050915
0.027176689 -0.40962112 0.78663832 -0.013740978 0.99972498 0.018999716 0.0015168549
0.17133363 -0.41087791 0.83064049 -0.00055092934 -0.99975306 0.022216098 0.00018484803
-0.01580929 -0.40997669 0.77126819 0.028168038 0.99957889 0.0069655282 0.0077169267
-0.0029453877 -0.41240466 0.6316309 -0.017848259 0.99961835 -0.021086568 0.00021075479
0.47706559 -0.41856691 0.38069147 0.0092688091 -0.99963886 0.025224261 0.0036550553
0.14478064 -0.41357413 0.70960152 0.02091351 0.99966627 -0.015164142 0.00028840083
-0.010895309 -0.41172799 0.72234458 -0.010411577 -0.99939489 0.033187196 0.0045912256
0.41103095 -0.42006254 0.23665349 0.033883441 -0.99819529 -0.049578585 0.0013380253
0.40581825 -0.41778636 0.32929718 0.018706931 0.99870926 -0.047221981 0.0046167835
0.20085113 -0.41228616 0.70755827 -0.0028788545 0.99993712 -0.010840888 0.00018637547
0.079341702 -0.41047803 0.70519775 -0.016513294 -0.99929345 0.0337613 0.00024763876
0.39294422 -0.42183837 0.29739955 0.017749136 -0.9998281 -0.0053602429 0.0039518406
0.10974763 -0.41032955 0.76140296 0.020582693 0.99975121 -0.008596126 0.0001456894
0.14397411 -0.41124526 0.8132664 0.011095272 0.99983549 -0.014353082 0.00028824306
0.44946486 -0.41581982 0.37448254 0.01193749 -0.99987435 0.010424586 0.0037752425
0.011444259 -0.4098413 0.758376 0.02410792 0.99969661 0.0050449749 0.0055199917
-0.014465254 -0.41318774 0.6747725 0.0070778965 -0.99811327 0.060990762 0.0042722137
0.35748017 -0.42116049 0.25441951 0.045457542 -0.99779248 -0.048413716 0.00049435563
0.11614409 -0.41253608 0.70210338 -0.025336914 -0.99914557 0.032653544 0.00022821054
0.4133653 -0.41861311 0.26479527 0.0057223653 -0.99975282 -0.021485141 0.0045340732
0.016578747 -0.40968958 0.78400248 0.035681445 0.9990207 0.026164116 0.008082075
0.029685484 -0.40959296 0.76922476 0.036643881 0.99922556 0.014337711 0.0059604067
-0.14835747 -0.41591904 0.45076212 -0.017794298 0.99854082 0.050985433 0.014259223
-0.073375866 -0.408676 0.74099618 -0.0067576603 -0.99244654 0.12249228 0.015021915
0.0030896259 -0.40997747 0.78491229 0.041423671 0.99882454 0.025171619 0.0085500851
0.44745994 -0.41835079 0.4082205 0.0071826871 -0.99988449 -0.013395634 0.0017517785
0.49591804 -0.41857809 0.38420314 -0.0033240602 0.99858844 -0.053010505 0.0037901474
0.10188066 -0.41112259 0.70481873 -0.023999395 -0.99913555 0.033943508 0.00028179085
0.040217083 -0.41082895 0.78911245 -0.0043213167 0.99977446 0.020792488 0.0014615706
0.063942008 -0.41019312 0.76220512 0.010557739 0.9999392 0.0031982965 0.00041840717
0.023556363 -0.41181803 0.79343045 -0.012116367 0.99971879 0.02038396 0.0015762255
0.1134064 -0.41157231 0.71454686 -0.026515018 -0.99930459 0.026218399 0.0002243596
0.13569315 -0.41354254 0.70487523 0.022940414 0.9995681 -0.018369893 0.00023610612
-0.0074405218 -0.41192251 0.72730684 -0.01291765 -0.99953568 0.027598752 0.0037769314
0.14898621 -0.41146001 0.80778092 0.010717419 0.99984872 -0.013695063 0.00024494631
0.056726448 -0.40901607 0.84451252 -0.032416265 0.99815947 0.051252529 0.003360556
0.17836316 -0.41254395 0.74102789 0.010016255 0.99989045 -0.010893597 0.00021823436
-0.076926298 -0.41243726 0.70475626 0.0036314058 -0.99356365 0.11321767 0.011517667
0.48802283 -0.41925681 0.35462955 0.0050796922 0.99778694 -0.066297144 0.0028667811
0.074030116 -0.4109188 0.69688964 -0.015011804 -0.99933171 0.033328995 0.00023869133
0.18723936 -0.41254747 0.77984864 0.0088769225 0.99984658 -0.015101827 0.00012942773
0.17246868 -0.41216761 0.79299837 0.0077804285 0.99980277 -0.018268803 0.00018186674
0.17939414 -0.41283154 0.76943099 -0.0081175221 -0.99977136 0.019781975 0.0001101134
0.057822865 -0.41022497 0.78877819 -4.9217058e-05 0.99967432 0.025518296 0.0015496794
0.18647261 -0.41173804 0.79519457 0.002017146 0.99981493 -0.019135226 0.00011877051
0.38538507 -0.41662851 0.55777228 0.16154 0.98671532 -0.017251639 0.025600538
0.094431721 -0.41155183 0.69960898 -0.022647128 -0.99906647 0.036787324 0.00023394263
0.13637145 -0.4115755 0.83836848 -0.015489411 -0.99966496 0.020737777 0.00022179882
0.044022486 -0.41181558 0.68485767 0.0028838117 0.9996081 -0.027842754 0.00027571144
0.068348333 -0.40826809 0.84936208 -0.032585531 0.99809039 0.052475281 0.0027244124
-0.01005846 -0.4111301 0.80151254 0.086700127 0.99585521 0.027483743 0.013962125
0.43768412 -0.42226395 0.4473784 -0.012775599 -0.99908787 -0.04074635 0.0031637123
0.45390883 -0.42015889 0.45589715 0.012154317 0.9995212 0.02845287 0.0034844822
0.036286946 -0.41427276 0.83290797 -0.034638379 0.9983452 0.045903746 0.0039085299
0.13606551 -0.41386014 0.71296924 -0.022922846 -0.99958014 0.017721616 0.00022859829
0.037407745 -0.41100484 0.78971207 -0.0078324303 0.99973446 0.021672251 0.0015485494
0.029212533 -0.41108751 0.79599512 -0.0086389324 0.99968302 0.023649115 0.0017529258
0.13756622 -0.41085923 0.80606645 0.020005364 0.99973041 -0.011783443 0.00018086089
0.048404146 -0.41023842 0.79305959 -4.9217058e-05 0.99967432 0.025518296 0.0015496794
-0.16254021 -0.41501629 0.29583898 -0.050641071 0.99742162 -0.050848022 0.0017945145
-0.026858319 -0.41320971 0.68262905 0.011914675 -0.99757987 0.068502031 0.0040287608
0.011799557 -0.41169292 0.68896604 -0.0095391637 -0.99887192 0.046517007 0.0042366902
0.034209132 -0.41317824 0.60928428 0.011098485 0.99977762 -0.017931731 0.00024277679
-0.1714884 -0.41133481 0.31676695 -0.050545063 0.99734855 -0.052354757 0.0019912086
0.048382621 -0.41385531 0.63960576 0.00183162 0.9997161 -0.023756245 0.00024485527
-0.13171028 -0.41484839 0.63095844 -0.0032693585 0.99918264 0.040290136 0.00069610158
-0.09668453 -0.41132203 0.70571274 0.037797019 -0.99246299 0.11657085 0.014212924
-0.15028094 -0.41588172 0.2781792 -0.024116928 0.99786758 -0.060651921 0.0021821402
-0.13852131 -0.41365027 0.59296441 -0.027810071 0.9969455 0.072980635 0.0016036179
-0.091042705 -0.41502452 0.66845083 -0.0069018104 -0.99972141 0.022569684 0.0012886937
-0.071453303 -0.41501009 0.64512533 -0.0056624459 0.99998385 -0.00051201181 0.00076800294
0.20108925 -0.4179455 0.24673344 0.048455812 -0.94233179 -0.33115378 0.022529822
-0.10098662 -0.41435552 0.68335205 -0.0067172819 -0.99867415 0.051038243 0.0011088006
-0.024676373 -0.41019365 0.72044694 -0.0049343375 -0.9987449 0.049842522 0.0054340716
0.38181829 -0.42205903 0.26493737 0.036852099 -0.99922681 -0.013701104 0.0018978515
0.28372303 -0.42754647 0.27739495 0.057047587 -0.99111742 -0.1201326 0.021855922
0.41459098 -0.42045307 0.28330842 0.0086778672 -0.99992007 -0.0091916043 0.0044155228
-0.11906344 -0.41247132 0.4069536 -0.07581228 0.99044627 0.11518922 0.016213048
-0.0050601806 -0.41158792 0.71831787 -0.0079805255 -0.99909461 0.041787855 0.0045572091
0.042604137 -0.41251752 0.67394763 -0.003155842 0.99968338 -0.024964526 0.00024714891
0.088529006 -0.41029042 0.75130367 0.016941123 0.99983096 -0.0071422812 0.00024188642
0.15549348 -0.39323664 0.37556267 0.076428197 0.99539584 0.057842545 0.14126638
0.41591024 -0.41773823 0.31881255 0.012222193 -0.99978119 0.016972799 0.0048564803
-0.17942475 -0.42107666 0.42137149 -0.023065155 0.99893606 0.039932076 0.0055854041
0.15618068 -0.40054524 0.36256748 0.18380226 0.97431058 -0.1301367 0.12881976
0.21635009 -0.4239673 0.26056215 0.061600719 -0.97625428 -0.2076847 0.034061357
0.42175823 -0.41875145 0.36471638 -0.0018811153 0.9998154 -0.019118417 0.0045120586
0.46063456 -0.41752863 0.38960889 0.018963803 -0.99981904 0.001526112 0.0043365019
0.48089418 -0.41870379 0.38246244 0.0092688091 -0.99963886 0.025224261 0.0036550553
0.11968634 -0.40281606 0.33434612 -0.03465056 0.97510469 -0.21902105 0.095108837
-0.17348723 -0.41192952 0.31082264 -0.050529677 0.99733365 -0.052654427 0.0018464619
0.0486673 -0.41389602 0.63887978 0.00183162 0.9997161 -0.023756245 0.00024485527
-0.20093217 -0.41303134 0.36089721 -0.040160656 0.99890482 0.024005134 0.0054154457
0.023062816 -0.41239032 0.66503555 -0.0016980526 0.99960935 -0.02789758 0.00025634567
0.39745626 -0.41989189 0.52618682 0.07919953 0.99677247 0.013116019 0.017132038
0.43006629 -0.41719589 0.47518501 0.015679432 -0.99974507 0.016251761 0.010506726
0.38056275 -0.42009366 0.24079147 0.046673872 -0.99794608 -0.043877754 0.0006590737
0.12151225 -0.4130649 0.69953549 -0.023347115 -0.99920869 0.032202397 0.00021949952
-0.16413569 -0.41623706 0.27960184 -0.032813907 0.99749875 -0.062605768 0.0019681738
-0.043462243 -0.41283494 0.68529749 0.01554029 -0.99717611 0.073473968 0.005220213
-0.13717774 -0.41300091 0.58883679 -0.081097648 0.99605697 0.035966836 0.00036520866
0.16837586 -0.41284257 0.7729159 0.0090366118 0.99980521 -0.017547406 0.00012247307
-0.20581515 -0.41485566 0.41327816 -0.021013184 0.9990105 0.039198551 0.0060375775
-0.22157282 -0.41413492 0.30788031 -0.063681029 0.99686003 -0.047061771 0.0022440893
0.44592899 -0.41844878 0.44346571 0.0078903455 0.99981207 0.017710222 0.0026124467
0.051982712 -0.4120121 0.80379182 -0.0027850473 0.9996857 0.024916943 0.0018134485
0.10381512 -0.40975472 0.71375638 -0.024550866 -0.99914134 0.033377014 0.00029380509
0.074093752 -0.39381108 0.33097598 -0.23387285 0.95595473 -0.17735283 0.097709008
-0.14927059 -0.41450718 0.22436282 -0.040276106 0.99916744 -0.0064980257 0.0024178161
0.11035317 -0.39843881 0.36231849 -0.11909784 0.99191976 -0.043713719 0.12815805
0.15057054 -0.4115867 0.80940199 0.0088568246 0.99985659 -0.014434682 0.000213233
-0.14425917 -0.41623381 0.24788409 -0.0044459892 0.9992696 -0.037954267 0.0023872065
0.38172275 -0.41778061 0.56028664 0.16154 0.98671532 -0.017251639 0.025600538
0.1733508 -0.41219121 0.39436129 0.13457477 0.98564178 0.10197946 0.15367855
0.50409257 -0.41891924 0.37166262 -0.0014732789 0.99752414 -0.070309423 0.0047273021
0.14387694 -0.41236624 0.85505122 -0.0081915101 -0.99963617 0.025695687 0.00039966227
0.37176839 -0.41626084 0.71973997 0.028789256 0.99950016 0.013062726 0.0023530561
0.17235443 -0.41069549 0.84060687 -0.00055092934 -0.99975306 0.022216098 0.00018484803
-0.1308513 -0.41293791 0.42401218 -0.017794298 0.99854082 0.050985433 0.014259223
-0.21342364 -0.4157916 0.35315627 -0.06059568 0.99816197 0.00094368914 0.0029002756
0.087145984 -0.41919607 0.23046343 0.17882358 -0.9763003 -0.12190152 0.057048123
0.026407804 -0.41279066 0.65647507 -0.0055723996 0.99967641 -0.024817642 0.00025126713
0.37354085 -0.41825399 0.50094128 0.094177 0.99554187 -0.0052011637 0.017796176
0.41558984 -0.41829067 0.26176894 0.0057223653 -0.99975282 -0.021485141 0.0045340732
0.42011893 -0.41954482 0.46107167 0.015623686 -0.99974644 0.01621828 0.010515252
0.13446474 -0.39553863 0.37355429 -0.051193926 0.99722606 0.054030947 0.11968511
0.23202372 -0.43264011 0.30591336 0.075399876 -0.98174822 -0.17460053 0.031532735
0.40062255 -0.42060798 0.28636166 0.018530816 -0.99974102 -0.013208674 0.0043397406
0.39064029 -0.42036134 0.71921563 0.053613082 0.99852669 0.0083694253 0.0033324768
0.35641035 -0.4107621 0.73531544 0.026884025 0.99953389 0.014468297 0.002113451
0.14309393 -0.41771147 0.26941347 -0.00045544264 0.99989879 -0.014217583 0.049609721
0.34066561 -0.41517448 0.72584409 0.030652229 0.9993096 0.020993546 0.0019020494
0.52468306 -0.42171684 0.32783946 0.11517099 -0.98867595 0.096205376 0.0040077651
0.3684409 -0.41523647 0.4926447 0.065923624 0.99683487 -0.044433028 0.015921058
0.46320042 -0.43121085 0.3136813 -0.016163949 -0.99935526 0.032060832 0.0020258266
-0.20156644 -0.41170231 0.29688707 -0.04605126 0.99745262 -0.054475822 0.0022373018
0.43797201 -0.42341274 0.30416039 0.0087510319 -0.99985558 0.014573754 0.003280096
0.15562484 -0.39753169 0.36907005 0.15553704 0.98358583 -0.091472134 0.13363981
-0.16725922 -0.41007844 0.32573599 -0.044425651 0.99839771 -0.035047993 0.0020781734
0.17159307 -0.4223401 0.41249448 -0.032541111 -0.98904693 -0.14396922 0.16770861
0.080169261 -0.39747003 0.31883481 -0.18060583 0.96093082 -0.2097463 0.079880625
-0.17596678 -0.41489393 0.43825313 -0.017421514 0.99859911 0.049963258 0.008877377
-0.20068932 -0.41010138 0.4138377 -0.021013184 0.9990105 0.039198551 0.0060375775
0.092556953 -0.39459419 0.34817773 -0.24512903 0.96689582 -0.070881389 0.11153388
-0.17557999 -0.41290939 0.46934479 -0.016029399 0.99958831 0.023797441 0.017154858
-0.23622118 -0.41631296 0.30966938 -0.077247106 0.99637997 -0.035494193 0.002343769
0.25048405 -0.41465595 0.31724724 0.14527653 -0.96903306 -0.19967391 0.042755246
0.06278111 -0.40358111 0.30754888 -0.24928914 0.95426106 -0.16504765 0.077877007
0.12320115 -0.42691928 0.28703657 0.010385398 0.99050045 -0.13711663 0.08178249
0.34416449 -0.41002351 0.56874806 0.23312563 0.9678002 0.094948694 0.020556165
0.39433119 -0.41797411 0.53232276 0.08072985 0.99663889 0.01391037 0.01681957
0.025446728 -0.41072723 0.75062174 0.021920661 0.99972886 -0.0078503601 0.0042699696
0.35049319 -0.40588742 0.51657522 0.13004451 0.99150002 0.0040223589 0.024407661
0.25940919 -0.41780591 0.32415053 0.14527653 -0.96903306 -0.19967391 0.042755246
-0.19366179 -0.41159007 0.37294111 -0.046975005 0.99849689 0.028238207 0.0043972633
-0.13361211 -0.41304716 0.59841484 -0.025694067 0.99694222 0.073797643 0.00083575293
-0.14847268 -0.41067302 0.39486909 -0.032750525 0.99818015 0.050633185 0.0048727258
0.060590263 -0.40928334 0.31169081 -0.26524049 0.95226628 -0.15111703 0.076334834
0.12185342 -0.40052918 0.36619967 -0.066600762 0.99531609 -0.070073672 0.1251481
-0.20650542 -0.41392186 0.36472091 -0.05835861 0.99770463 0.034349203 0.004915487
0.19524726 -0.41506252 0.39672837 0.36539906 0.92891896 0.059941582 0.13604011
0.11899004 -0.41277787 0.23407821 0.094504051 -0.98850858 -0.11798159 0.066120103
-0.044333745 -0.41228071 0.71546471 -0.0041406471 -0.99673158 0.08067859 0.0060995244
0.26933002 -0.41332892 0.27320924 0.058585059 -0.9937855 -0.094646864 0.032545473
-0.11592989 -0.41023743 0.26624766 -0.021483332 0.99869508 -0.046332151 0.0026496002
0.27141464 -0.41668898 0.33240092 0.12875801 -0.97037435 -0.20443846 0.053609796
-0.19962311 -0.41240257 0.35254371 -0.06059568 0.99816197 0.00094368914 0.0029002756
-0.15439135 -0.41013443 0.32013351 -0.045646831 0.99789441 -0.046077188 0.0020956111
-0.18681309 -0.41411546 0.28101867 -0.051013205 0.99732476 -0.052353807 0.0019360661
0.15095936 -0.37059104 0.36172542 0.2426441 0.96790421 -0.06546212 0.13975075
0.16230965 -0.41404402 0.34960526 0.20360553 0.96150583 -0.1845299 0.097862273
0.1388724 -0.40444124 0.33407289 -0.0090723922 0.97889912 -0.2041427 0.091834113
-0.13621742 -0.41631788 0.30086064 -0.022202039 0.99793375 -0.060293376 0.0023820768
0.14921968 -0.41604221 0.25147033 -0.023605552 -0.97700679 -0.21189752 0.02734619
-0.21393505 -0.41438079 0.3185004 -0.05215247 0.99755567 -0.046504702 0.0023531038
-0.12819952 -0.41179779 0.40916732 -0.015129124 0.99815869 0.058739863 0.010111477
0.026344361 -0.41913143 0.83290678 -0.039645787 0.99762845 0.056264427 0.0036787584
0.38931361 -0.42038614 0.47462916 0.038317706 0.99843389 -0.040760994 0.017338654
0.3667323 -0.41110757 0.51511294 0.080531761 0.99667054 0.012746765 0.019236146
0.16106679 -0.41526812 0.3444511 0.17118052 0.96527833 -0.19731919 0.090241969
0.23030171 -0.41215757 0.28622133 0.10610235 -0.98063451 -0.16461602 0.027722137
0.1107185 -0.40512511 0.36539757 -0.12101427 0.99253815 -0.014951316 0.12355297
0.085211769 -0.41038799 0.29024982 -0.20020017 0.96921724 -0.14331064 0.074819431
-0.14188528 -0.41474378 0.28317931 -0.012419402 0.99814767 -0.059556365 0.0025756075
-0.036063701 -0.4096387 0.71542299 -0.00032966153 -0.9978615 0.065362878 0.0056197736
0.37280294 -0.41252041 0.55710143 0.16154 0.98671532 -0.017251639 0.025600538
0.011614792 -0.41072175 0.71451122 -0.012485083 -0.99945807 0.030458469 0.003931548
-0.23270583 -0.41348678 0.37745059 -0.0717526 0.99736059 0.011106237 0.0038855684
0.11392435 -0.38942206 0.33912048 -0.026205989 0.97501731 -0.22057775 0.09870261
0.11279897 -0.39258239 0.34695658 -0.051997211 0.98717481 -0.15093809 0.11323353
-0.1451055 -0.41609809 0.23757814 -0.026120353 0.99947399 -0.019221174 0.0024770524
-0.16761404 -0.40983632 0.38004407 -0.024691636 0.99891305 0.039536882 0.0041583655
-0.19420205 -0.4154726 0.40074065 -0.031826042 0.9980976 0.052803017 0.0050410754
-0.13679892 -0.41526619 0.26406643 -0.012429088 0.9981423 -0.059643291 0.0029805452
0.095806614 -0.4133352 0.29392394 -0.16498134 0.97359043 -0.15780616 0.077982306
-0.14153281 -0.41496509 0.23752569 -0.040260151 0.99916261 -0.0073029767 0.0021422422
0.094796233 -0.41791743 0.27808753 -0.17049578 0.97329414 -0.15371934 0.082459413
0.094648942 -0.42553541 0.25451958 -0.11047491 0.99292195 -0.043603908 0.08524587
-0.19424638 -0.41379043 0.30150256 -0.04605126 0.99745262 -0.054475822 0.0022373018
-0.17497335 -0.41010955 0.3471165 -0.019214347 0.99979895 0.0057359114 0.0042758454
-0.22685601 -0.41349021 0.38580844 -0.03007493 0.99932897 0.020907817 0.0069688037
-0.2403218 -0.41861171 0.31321922 -0.072023563 0.99710542 -0.024360932 0.0016559097
0.35077351 -0.40635389 0.51540965 0.10465747 0.99447966 0.0075570233 0.022937283
-0.041338239 -0.41278869 0.71614635 -0.0052161356 -0.99680507 0.079702847 0.0061938902
-0.05240776 -0.41237256 0.70836735 0.0024332723 -0.99626195 0.086348638 0.0069319624
-0.03567468 -0.38442883 0.7426973 0.015692865 0.99874222 -0.047621038 0.0080395481
-0.1260438 -0.41247222 0.41247097 -0.015243395 0.99829179 0.056401603 0.012304354
-0.15671575 -0.42682198 0.4205215 0.019188365 -0.99846524 -0.051952001 0.0072406195
0.075851493 -0.4301748 0.34692276 -0.25237265 0.96256608 -0.098866135 0.091626666
0.11675 -0.45450759 0.38783419 0.16265243 -0.98664588 -0.0085941143 0.10555938
-0.098862328 -0.4107374 0.59945691 -0.015727933 0.9983834 0.054618638 0.00062136113
