# .PCD v0.7 - Point Cloud Data file format
VERSION 0.7
FIELDS x y z
SIZE 4 4 4
TYPE F F F
COUNT 1 1 1
WIDTH 905
HEIGHT 1
VIEWPOINT 0 0 0 1 0 0 0
POINTS 905
DATA ascii
0.0043132752 -0.4508411 0.25792179
0.085148871 -0.42780411 0.38049141
0.03850241 -0.45024529 0.28869489
0.028059071 -0.44986999 0.3132548
0.059908729 -0.4520801 0.33945549
0.05283311 -0.4462471 0.29003209
0.024279131 -0.4499518 0.2616705
0.078942724 -0.43934059 0.35005191
0.01485046 -0.4492431 0.2686272
0.03023698 -0.4534879 0.31615299
0.072163038 -0.4395521 0.35602501
0.036591262 -0.45351979 0.2882987
0.085445061 -0.4302544 0.3706809
0.070073493 -0.44117409 0.35160759
0.062516093 -0.45489699 0.30754399
0.08235161 -0.44793409 0.31913239
0.01279551 -0.4507952 0.30148879
0.05276389 -0.45233431 0.30844969
0.047759868 -0.4518277 0.32921669
0.070584938 -0.4503856 0.3405225
0.01257147 -0.45665789 0.28949469
0.41017839 -0.43059149 1.47083
0.36458451 -0.44762769 1.164839
-0.18343911 -0.44094929 0.78168392
0.41141179 -0.43295151 1.477026
0.36534941 -0.44816339 1.16601
0.4121066 -0.43370819 1.479739
0.36511651 -0.44815019 1.166081
0.41157439 -0.4336485 1.4783961
0.32760701 -0.3849698 0.62847698
0.1343866 -0.27838379 0.62947953
0.3351377 -0.40170741 0.61743039
0.2111032 -0.30453271 0.66356629
0.1725512 -0.41154209 1.46224
0.1606953 -0.4320932 0.26356271
0.2150038 -0.4429011 0.2776106
0.2655957 -0.44654319 0.36042261
0.25468269 -0.44132581 0.295131
0.24769039 -0.44206101 0.27350569
0.27078849 -0.44759691 0.42484179
0.1544217 -0.40031421 0.3879011
0.2284205 -0.44376081 0.34363899
0.2445253 -0.4465417 0.3395333
0.16300879 -0.43173501 0.30828241
0.2636658 -0.44713601 0.3598184
0.1611347 -0.4264563 0.42632321
0.27275819 -0.4471103 0.34978431
0.2239105 -0.44319189 0.4786897
0.217502 -0.44239661 0.28434679
0.37718391 -0.4453705 0.67239261
0.1659133 -0.4287146 0.34916961
0.26141661 -0.4456009 0.34981969
0.1975992 -0.43019769 0.40661031
-0.24342281 -0.42063299 0.78123212
-0.2430743 -0.42249519 0.82697499
-0.1812897 -0.4202511 0.98117739
-0.2059776 -0.424505 0.66699803
-0.1765057 -0.43673801 0.80290031
-0.2642273 -0.44162279 1.084028
-0.1887064 -0.43986121 1.031214
-0.28186691 -0.436804 0.90255338
-0.24159271 -0.44012129 0.86516559
-0.2302416 -0.43995011 0.86681777
-0.1211811 -0.44499499 1.129516
-0.2063822 -0.43154141 0.8319611
-0.03329714 -0.32463861 0.56730068
-0.135784 -0.41966519 1.243638
-0.1731369 -0.43701041 0.82125401
-0.2052466 -0.43828911 1.051132
-0.1841985 -0.43942451 0.99915802
-0.24769171 -0.4404453 0.84004438
-0.031898629 -0.33272949 0.44278419
-0.27867979 -0.43856439 1.113326
0.1418705 -0.4332456 0.3073611
0.0600053 -0.40755299 0.34535551
0.15626509 -0.44899359 0.3450461
0.069994397 -0.43345031 0.26870281
0.095942691 -0.42985421 0.25950581
0.020885799 -0.43120819 0.25705689
0.1145561 -0.4300752 0.30977091
0.029381679 -0.4437336 0.30859709
0.08498323 -0.43357989 0.2397078
0.082489453 -0.45030779 0.2747784
0.076608881 -0.42358729 0.34012491
0.058431622 -0.4416613 0.24124341
0.079904564 -0.4473494 0.279966
0.1239244 -0.43250731 0.35214379
0.1044875 -0.4471007 0.31521201
0.1374394 -0.4444868 0.33239099
0.1225736 -0.41826019 0.39172861
0.0295635 -0.43107751 0.30181271
0.13261931 -0.44216189 0.28122821
0.1371149 -0.42348519 0.4046284
0.04501275 -0.4434002 0.2362002
0.1129012 -0.41233641 0.37740701
0.13140289 -0.44031921 0.26699159
0.097802237 -0.4484964 0.24824481
0.01576487 -0.4437094 0.2966888
0.1371229 -0.41668499 0.3961831
0.1289537 -0.41217321 0.40343881
0.1225945 -0.412332 0.38270041
0.1029843 -0.44340879 0.26975739
0.1048946 -0.44582969 0.28828821
0.090035111 -0.43072301 0.28083751
0.1297657 -0.44169599 0.27258211
0.096381791 -0.44322789 0.28171381
0.1315486 -0.3661938 0.50028431
0.1779511 -0.4266609 0.42092431
0.18379579 -0.43174791 0.47147411
0.21262451 -0.44329849 0.3233853
0.1923569 -0.39414731 0.53353602
0.042080741 -0.28568941 0.57604438
-0.0086635528 -0.3110809 0.3934598
0.05858095 -0.3419323 0.51065201
0.083277456 -0.42438251 0.3696754
0.1042747 -0.40775639 0.37941989
0.081166796 -0.44215429 0.3138054
0.04000498 -0.34545591 0.39132971
0.092897072 -0.3926973 0.4178524
0.048213489 -0.37229931 0.38044021
0.119604 -0.41825181 0.38064989
0.2302914 -0.44884419 0.40233079
0.069409929 -0.44611841 0.33658281
0.1760582 -0.44171509 0.4681986
0.1711051 -0.4445568 0.4678677
0.2701346 -0.44407779 0.33966911
0.2091281 -0.44196749 0.26734191
0.260432 -0.3080751 0.65009499
0.1649023 -0.4444325 0.3386685
0.1185854 -0.30319539 0.61604887
0.2726258 -0.44789281 0.53171009
0.16219939 -0.44868189 0.3005462
-0.2480353 -0.44145089 1.026723
-0.18261141 -0.4396407 0.93907583
-0.2173259 -0.44652441 0.85365802
-0.17109939 -0.44583231 1.034707
0.26543581 -0.30797991 0.65936661
0.1121673 -0.4446668 0.3340219
0.171234 -0.44765249 0.28301749
0.25361839 -0.44430369 0.3259052
-0.1415676 -0.4463625 1.005814
0.17257001 -0.44573459 0.31506041
0.2158661 -0.44663289 0.34034279
0.2015692 -0.29496121 0.65921372
0.2934382 -0.39081371 1.437428
-0.1891159 -0.442592 0.88882232
0.050337169 -0.44021669 0.319655
0.05457174 -0.44871131 0.2511794
0.2483778 -0.31168079 0.59056908
-0.1600489 -0.45346341 1.343588
0.122168 -0.35879511 0.52184749
0.35872269 -0.41913909 1.4975621
0.46215701 -0.41080791 1.4983701
-0.064798221 -0.38559729 1.43431
-0.017475281 -0.3093853 0.45159549
-0.52673912 -0.4191874 0.413717
-0.517712 -0.42104119 0.35911769
-0.46371141 -0.4255836 0.40223759
-0.59440011 -0.4163332 0.74516487
-0.56637079 -0.41861519 0.25641099
-0.56048179 -0.41954321 0.67958897
-0.55842721 -0.4193882 0.75214928
-0.01480178 -0.28934169 0.4831109
-0.54212368 -0.41961601 0.47918221
-0.01239102 -0.31208041 0.43233699
-0.52927691 -0.41966999 0.66708362
-0.3725453 -0.41768321 0.63599312
-0.45957679 -0.413524 0.65968871
0.36252499 -0.41820881 0.59850317
0.1220491 -0.29894969 0.54642868
-0.2274112 -0.426085 0.72907132
-0.309845 -0.42295611 0.75776488
0.33836529 -0.41994771 0.57919049
-0.2258289 -0.42582741 0.86904341
-0.0049152421 -0.3252179 0.43215799
-0.02433802 -0.3016445 0.46150151
0.35830069 -0.4276917 0.48578811
0.16045099 -0.4289673 0.40385199
0.1599188 -0.43206021 0.42592281
0.4004727 -0.4245581 0.57616502
0.0096590314 -0.31039149 0.57795107
-0.2208184 -0.4308283 0.79360813
0.1724641 -0.29244241 0.5296005
0.088545918 -0.40280971 0.36544189
0.274113 -0.43040749 0.37864059
0.096366324 -0.29706249 0.66479897
0.37792471 -0.43312931 0.57400692
0.17047811 -0.42681199 0.3518697
0.38772741 -0.43049079 0.51372361
-0.2689434 -0.42661661 0.3346515
0.1799985 -0.40286419 0.36808541
0.2283009 -0.4349331 0.31111261
0.36430711 -0.42944771 0.4833754
0.1018999 -0.4053866 0.36923581
0.3174724 -0.43187529 0.40669569
0.135892 -0.41368109 0.3410401
0.41700879 -0.42559141 0.52445042
0.1614591 -0.42126009 0.38130891
0.26886821 -0.42732009 0.4981778
0.056701921 -0.40266839 0.32107559
0.01284018 -0.4092851 0.3006421
0.28092599 -0.43289971 0.28640369
0.26765519 -0.4335981 0.28067681
0.05033749 -0.4177911 0.30629501
0.2983377 -0.4331128 0.27423429
0.36933541 -0.4316065 0.3835015
-0.13574781 -0.4256365 0.27098349
0.1561006 -0.39447349 0.36721709
-0.28617039 -0.4229359 0.43532351
0.1071286 -0.32240921 0.50637692
-0.1641926 -0.42215899 0.94899452
0.41677091 -0.42949691 0.44261679
-0.2916491 -0.4287028 0.40006581
0.062925637 -0.41535181 0.35781509
-0.27683461 -0.42291051 0.54549599
0.048124719 -0.33473879 0.4430756
-0.2138617 -0.42573249 0.97182709
-0.29467899 -0.42148939 0.59530538
-0.50330478 -0.41015339 0.27946079
0.36871451 -0.4352513 0.48280251
-0.2087414 -0.41688851 0.3508853
-0.078810863 -0.42210031 0.89262378
-0.2373454 -0.42093241 0.80146492
-0.1368461 -0.4252978 0.88700533
-0.27005291 -0.41833821 0.2934317
-0.23126329 -0.42665571 0.32734919
-0.240393 -0.41992709 0.30175921
0.030971469 -0.42677841 0.82363367
-0.16201641 -0.40805411 0.3332819
-0.1456393 -0.41591659 0.2337248
-0.1536884 -0.41387609 0.30428499
-0.1697198 -0.4238171 0.25712961
0.38115111 -0.4303515 0.27300489
0.37425441 -0.43126309 0.2495539
0.3903406 -0.4279229 0.28831729
0.35968861 -0.43135121 0.30317971
-0.25258401 -0.41409519 0.57806063
-0.55308712 -0.43506461 0.40947911
0.2279121 -0.4013837 0.69083208
-0.022324519 -0.41651419 0.84099072
-0.42863539 -0.4354443 0.77369118
-0.32372159 -0.40356919 0.77374232
-0.081462651 -0.424162 0.94017828
0.060718611 -0.41298139 0.88720489
0.45124131 -0.42640749 0.67987603
0.37592909 -0.42654791 0.70990479
0.20573001 -0.3220807 0.67592388
0.33307919 -0.42535761 0.56063157
0.2476169 -0.41278529 0.70665318
0.32958159 -0.41257721 0.68750072
0.080923431 -0.408052 0.75754118
0.29557121 -0.41205969 0.70049107
-0.072357133 -0.41234949 0.64675713
-0.06742657 -0.41045421 0.65717071
0.01399672 -0.41098779 0.65243608
0.036842261 -0.4109408 0.66416693
0.115811 -0.4128755 0.71382731
-0.02001944 -0.41182971 0.60000592
0.080317609 -0.41371161 0.68616003
0.1807292 -0.29484349 0.59345049
0.39909789 -0.4233219 0.28839421
0.38090789 -0.41685849 0.46843129
0.40680471 -0.411304 0.2948387
0.1037055 -0.40905529 0.70424563
0.39412451 -0.4158521 0.26411191
0.39208439 -0.41384551 0.56043971
0.01035749 -0.40972361 0.61872292
0.1153902 -0.40675819 0.70895457
0.43207991 -0.4143922 0.45448759
0.1179146 -0.30228871 0.65721488
0.093521081 -0.41182801 0.68232548
0.4235177 -0.4162325 0.48415431
0.143757 -0.4140518 0.75240391
0.25414959 -0.4167794 0.2188593
0.2922312 -0.4128575 0.72539163
0.31519461 -0.41629279 0.70280778
0.35411751 -0.40839171 0.7655955
0.2483281 -0.413046 0.74138367
0.49155691 -0.4182491 0.38339961
0.083132736 -0.40873149 0.71211988
0.40919641 -0.41714519 0.2392507
0.32105741 -0.4144972 0.7269488
0.27711391 -0.42017239 0.2230882
0.1425052 -0.40900511 0.78909189
0.1910083 -0.41516641 0.79044682
0.1625749 -0.41146091 0.77480012
0.35337079 -0.41675821 0.62173378
0.33435631 -0.414296 0.72985947
0.35950249 -0.408999 0.72605038
0.37542751 -0.4180108 0.70716769
0.2414778 -0.41547239 0.69452721
0.2041333 -0.4098261 0.73819512
0.083377413 -0.33122379 0.62531233
0.1961384 -0.30157149 0.52866858
0.3252531 -0.41505069 0.68061078
0.2266598 -0.4164483 0.73756248
0.44856051 -0.42102221 0.29644969
0.2466743 -0.3663246 0.65311098
0.51525152 -0.4182376 0.33870891
0.35773659 -0.4184854 0.25800619
0.2751748 -0.41137969 0.80336112
0.41069239 -0.41764659 0.47098961
0.26015171 -0.40879679 0.84877509
0.55550301 -0.41193539 0.43373519
0.2291746 -0.4158448 0.69885272
0.18561579 -0.4133988 0.68936718
0.1541619 -0.41468009 0.69583589
0.1708968 -0.41513121 0.69757599
-0.0097395144 -0.41036069 0.68431532
-0.093565904 -0.4102712 0.5437969
0.0778706 -0.40421411 0.70815909
-0.03426199 -0.31950131 0.4320738
0.29801589 -0.41739711 0.72108161
0.2942051 -0.41467199 0.77591199
0.47164869 -0.41565359 0.38776171
0.1982305 -0.41155791 0.71658713
0.1129751 -0.41255891 0.75736833
0.21644659 -0.41255659 0.69251621
0.20602369 -0.41620779 0.67839998
0.28223249 -0.41234511 0.68566978
0.002838769 -0.41032401 0.69342011
0.1533079 -0.41194531 0.80284679
0.1827368 -0.41691139 0.73752898
0.1273412 -0.41314611 0.69978768
0.2335189 -0.4170644 0.2494411
0.67040718 -0.4171378 0.35134971
0.68582219 -0.41884059 0.32836509
0.1183845 -0.3001034 0.6131171
-0.1087874 -0.41422361 0.59185618
0.2757616 -0.41222739 0.8398335
0.48452079 -0.4209156 0.23612159
0.0098614991 -0.40975639 0.69154871
0.026005941 -0.4128063 0.65609378
0.30455771 -0.42173901 0.25797641
0.36839721 -0.41581619 0.68744928
0.73098278 -0.4110235 0.33430991
0.02825485 -0.4148806 0.61191428
0.4634493 -0.41380051 0.6149053
0.7341662 -0.4122465 0.42952561
0.71456617 -0.41775531 0.40485591
0.73366863 -0.41935 0.34942079
0.4788987 -0.41618651 0.5372541
0.65429991 -0.41546929 0.35680521
0.45062011 -0.41654721 0.25031671
0.1305314 -0.3992683 0.3441478
0.5245409 -0.41594651 0.30058891
0.33545709 -0.41443211 0.73534077
0.44110489 -0.41678229 0.52994061
0.68643981 -0.42251959 0.2430294
0.2582207 -0.41110441 0.85643941
0.1964402 -0.40780491 0.84108561
0.016501719 -0.41492701 0.65819049
0.3763279 -0.42121631 0.2482305
0.40798721 -0.41864309 0.32955071
0.50489891 -0.4185397 0.37212309
0.68523788 -0.41825169 0.44955909
0.1729428 -0.4107154 0.72924173
0.4388577 -0.4076198 0.34579051
0.22950099 -0.4111647 0.83340073
0.33961731 -0.41532651 0.27594221
0.36062551 -0.42001331 0.28220949
0.29483441 -0.42256749 0.2450756
0.39542949 -0.41250619 0.73526978
0.2272784 -0.41143751 0.83191282
0.51618969 -0.4207716 0.2831583
0.50528848 -0.41862941 0.31811351
0.0295082 -0.41502681 0.69250113
0.49983051 -0.41742289 0.3457194
0.74165303 -0.4160125 0.4773021
0.1903033 -0.41429299 0.77608132
0.2834416 -0.41416651 0.72728992
0.2328178 -0.4116061 0.83568788
0.20473631 -0.40886319 0.82870871
0.1083793 -0.4066599 0.81645262
0.28232521 -0.3954865 0.65968728
0.33382231 -0.42369789 0.28218859
0.45469639 -0.4189977 0.36795399
0.50734359 -0.41833121 0.40929961
0.1639563 -0.41342461 0.77451998
0.1751636 -0.41469339 0.78933322
-0.0059210858 -0.40899709 0.7440176
0.006066307 -0.41404369 0.70160198
0.018675581 -0.4110471 0.72919887
0.2153299 -0.40966821 0.85779989
0.73448741 -0.41953909 0.25736779
-0.0121425 -0.4074738 0.6087485
0.65088218 -0.41676539 0.39413759
0.30556199 -0.42157 0.71698719
0.2306847 -0.41366741 0.68124169
0.076596558 -0.4114424 0.6954143
0.096940637 -0.41271251 0.69930857
0.020059541 -0.4104735 0.69837892
0.046004139 -0.41134119 0.68493152
0.03652624 -0.41163519 0.68051422
-0.002606228 -0.41047981 0.6351611
0.047978509 -0.40854311 0.7219609
0.048258491 -0.40928769 0.69654661
0.1984729 -0.2988416 0.53073758
-0.1249206 -0.40939289 0.57168269
0.048621248 -0.41039991 0.67147702
-0.121613 -0.40799439 0.60017961
0.38726631 -0.41536319 0.2577486
0.1826397 -0.4131493 0.76576579
0.2702688 -0.41047961 0.67964423
0.18284561 -0.4101586 0.7897439
0.2229657 -0.41157901 0.81561738
0.38399401 -0.4106808 0.6964528
0.38887709 -0.4108476 0.74790722
-0.1172103 -0.41046599 0.61278272
-0.033833969 -0.41362911 0.67737269
0.024478201 -0.41566661 0.64463019
0.057849299 -0.41336939 0.70153242
-0.084171697 -0.41412529 0.51776391
-0.079249032 -0.41275981 0.64392668
0.6443072 -0.4145326 0.47573009
0.42955351 -0.42130011 0.3140012
0.13695019 -0.41512451 0.73802102
0.62869889 -0.4186666 0.48670599
0.067155011 -0.40919909 0.74151969
-0.1127052 -0.41613799 0.53931159
0.0446731 -0.41097641 0.70464498
0.4960168 -0.4183332 0.2723141
0.037025511 -0.41175911 0.73103988
0.68275827 -0.41758981 0.2526612
0.2489769 -0.40918231 0.86112761
0.2027469 -0.41165379 0.70601022
-0.02210116 -0.41279879 0.63577229
0.54724967 -0.41773421 0.4141115
0.47601959 -0.4160192 0.29487231
-0.1228279 -0.41151369 0.55324322
0.65026659 -0.41699731 0.43978661
0.59267241 -0.4180561 0.45827809
0.3626754 -0.41395071 0.68228698
0.0055919262 -0.4085896 0.76798731
-0.081119977 -0.40981841 0.7052983
-0.0703886 -0.40670159 0.74273199
-0.048961021 -0.4116188 0.72605252
-0.096554093 -0.41515559 0.66950917
-0.02798925 -0.4138259 0.72202569
0.02349625 -0.4172028 0.71963322
0.08109045 -0.41110969 0.75693673
0.046802111 -0.40981549 0.78326023
0.044225879 -0.4104048 0.8096469
0.1852679 -0.41425371 0.69164759
0.16179331 -0.41284329 0.77683318
-0.048556231 -0.41593471 0.68560779
0.027132981 -0.41128379 0.78659987
0.1712887 -0.4096846 0.83064151
-0.01580913 -0.41073221 0.77125633
0.064823441 -0.306357 0.65789568
-0.0029762769 -0.41421339 0.63166428
0.47705501 -0.41933069 0.3807708
0.144795 -0.4130649 0.70959002
-0.01086302 -0.4121612 0.72234708
0.41102949 -0.4201625 0.23665801
0.42644301 -0.41965261 0.37731501
0.40607339 -0.41990739 0.32928929
0.20075309 -0.4110713 0.7075026
0.07934916 -0.4099943 0.70515829
0.18634631 -0.2862969 0.55444598
0.39181301 -0.41708979 0.29757601
0.1822135 -0.28359839 0.55985361
0.1097937 -0.4091261 0.76116049
0.1439279 -0.41236901 0.81326407
0.42803651 -0.41585061 0.39581069
0.44944349 -0.41607949 0.37445861
0.01139633 -0.4118875 0.75840491
-0.01445392 -0.41345701 0.67477298
0.3575123 -0.42055789 0.25443
0.4653475 -0.41781011 0.4339869
0.1160315 -0.41380721 0.70228142
0.41422909 -0.42329589 0.26493129
0.0166186 -0.41106001 0.78396958
0.029652091 -0.41233709 0.76929581
-0.148352 -0.4158895 0.45076531
-0.073535196 -0.41027871 0.74107468
0.003050955 -0.40699571 0.78478181
-0.018332049 -0.30545589 0.38994351
0.4478482 -0.41453889 0.4085305
0.4956601 -0.41172519 0.38397089
0.45993471 -0.41918889 0.2959291
0.1019509 -0.41044989 0.70470059
0.040286291 -0.4081609 0.78965378
0.06393522 -0.4097496 0.76218313
0.02346082 -0.4079746 0.79406548
0.1133128 -0.4123823 0.71459162
0.1357968 -0.41236451 0.70490432
-0.0076281601 -0.40986529 0.72733092
0.1489249 -0.40768841 0.8076784
0.056599852 -0.40856901 0.84450603
0.17833699 -0.41172501 0.74104202
-0.076893948 -0.41166651 0.70467359
0.48801559 -0.42094299 0.35470831
0.074030213 -0.4108758 0.69688457
0.18723691 -0.41239509 0.77984738
0.1724785 -0.41120911 0.79295802
0.1793109 -0.41073549 0.76939332
0.057823449 -0.4101837 0.78877902
0.1381644 -0.30641529 0.67755711
0.2110544 -0.27423769 0.61146969
0.072035499 -0.28564101 0.5647186
0.1864395 -0.4097203 0.79506838
0.39132881 -0.414983 0.56092268
0.12716091 -0.41023141 0.86604029
0.094311967 -0.41401851 0.70005512
0.1363741 -0.41113049 0.83836752
0.044013388 -0.41381791 0.68491191
0.1247429 -0.4076519 0.85352021
0.068348333 -0.40826809 0.84936208
-0.01002168 -0.411755 0.8014859
0.43735659 -0.41968811 0.44681919
0.45391491 -0.42097741 0.45589089
0.035163529 -0.4089053 0.8330248
0.13555939 -0.4187074 0.71274358
0.19548351 -0.30746591 0.67042708
0.01390201 -0.27337909 0.52219999
0.037422381 -0.4090994 0.79006761
-0.057531361 -0.30781901 0.41087389
0.029205021 -0.4088662 0.79625922
0.1375149 -0.41172799 0.80604142
0.048430391 -0.40758649 0.79307121
0.0292468 -0.29622361 0.59597439
0.035905421 -0.28866109 0.50039542
-0.1623493 -0.41324481 0.29568249
0.021473389 -0.28212959 0.50545847
-0.02680427 -0.4151212 0.68261337
0.01182749 -0.41416749 0.6890372
0.034228221 -0.4129411 0.60929519
-0.1720283 -0.4147884 0.31735629
0.048438169 -0.4120338 0.63952541
-0.13179789 -0.41454071 0.63098657
-0.068954363 -0.42285889 0.64089888
-0.020231159 -0.41763359 0.59554118
-0.096693747 -0.41364101 0.70602912
0.096667103 -0.30132139 0.52923501
-0.15030231 -0.41534051 0.27813929
0.038156658 -0.29290411 0.5157041
-0.072684899 -0.41636899 0.60926372
-0.13839591 -0.41470531 0.59294027
-0.09813951 -0.41618919 0.69029689
-0.090689316 -0.41871279 0.66875339
-0.070084013 -0.42203531 0.64602691
0.20124181 -0.41865891 0.2459593
0.52635467 -0.4312354 0.2946305
-0.03610206 -0.29791239 0.4689925
-0.047831059 -0.3141087 0.4490315
-0.174922 -0.4128482 0.64035368
-0.1921261 -0.4132629 0.63602382
-0.01228175 -0.31343549 0.38639829
-0.17998689 -0.41578969 0.65249342
-0.050929509 -0.40317881 0.54157692
-0.1679979 -0.41791341 0.48795351
-0.1009785 -0.41231069 0.6830731
-0.025065679 -0.41480529 0.72209352
0.3821553 -0.42896011 0.26472881
0.2870146 -0.42270139 0.28506809
-0.2325861 -0.4125247 0.60834128
-0.2574178 -0.4129616 0.62500823
0.1008717 -0.30272779 0.52043343
0.41448769 -0.41417959 0.283703
-0.1190469 -0.4102369 0.4071885
-0.004866662 -0.41385809 0.71836972
0.04256577 -0.41468611 0.67403078
0.088441193 -0.41284579 0.75124538
0.42393199 -0.43657929 0.218052
0.2424462 -0.4247188 0.2315771
0.15914381 -0.3886514 0.38175669
-0.071854673 -0.3324126 0.37071899
0.41559789 -0.4224031 0.3192715
-0.18210991 -0.42572641 0.42426911
-0.063241176 -0.41874579 0.26310939
0.16048931 -0.39629531 0.36018419
-0.044468392 -0.32056469 0.436975
0.2159263 -0.4228397 0.26161319
0.42121461 -0.4152953 0.36510029
0.46095029 -0.4241794 0.39008841
0.48090109 -0.41840971 0.38244191
0.1233775 -0.40056151 0.33428481
-0.1749211 -0.42346171 0.31267649
-0.1502192 -0.42318249 0.69708651
-0.1578162 -0.4182719 0.76612067
0.048545439 -0.4178921 0.63905603
-0.20004611 -0.41852549 0.36101979
-0.07752002 -0.3550899 0.37838879
0.50840038 -0.42093879 0.33392411
0.023091789 -0.41138411 0.66501403
0.1997745 -0.30109721 0.53995287
-0.1730103 -0.41469941 0.51866609
-0.03925465 -0.4096244 0.81645
0.57324582 -0.42056829 0.41756919
0.39844689 -0.41307449 0.52529699
0.1528146 -0.31195721 0.50710618
0.43041471 -0.41993609 0.47577989
-0.1726371 -0.41375419 0.75158149
-0.15577599 -0.41972241 0.22552709
-0.1984928 -0.42426139 0.73541528
0.38063821 -0.42176199 0.24053399
0.1175819 -0.29733169 0.6634739
-0.1183814 -0.4127267 0.3284792
0.1214218 -0.41422379 0.69962752
-0.1642499 -0.41857681 0.27965969
-0.043494418 -0.4139905 0.68527102
-0.02487991 -0.41507679 0.89537209
0.05838066 -0.41233951 0.87362182
-0.1223879 -0.44362301 0.29516181
-0.084666289 -0.4308897 0.37780589
-0.1369492 -0.41650319 0.58889139
0.1682637 -0.41717061 0.77314001
-0.174798 -0.42578411 0.8105101
-0.2272224 -0.42103931 0.2273833
-0.2072023 -0.41885179 0.41306281
-0.220929 -0.4196929 0.306539
-0.1787551 -0.41259509 0.65146869
-0.33582509 -0.41701591 0.75444192
0.44675469 -0.42231289 0.4434092
0.072882958 -0.43309441 0.87201208
0.1773006 -0.29027641 0.60639012
0.4796541 -0.41270381 0.5320642
0.2317853 -0.28893721 0.58682668
0.1570172 -0.31087241 0.50415862
0.051981851 -0.4152042 0.80321252
0.1040351 -0.40764779 0.7133863
-0.25306889 -0.4213962 0.72104371
0.049645621 -0.40813479 0.86269939
-0.1781594 -0.43030709 0.67691171
0.072184883 -0.3927137 0.33210391
-0.1491541 -0.4157941 0.22407439
0.1109197 -0.38804081 0.36678559
-0.27363461 -0.41994849 0.70306879
0.150563 -0.4157491 0.80942142
-0.1595566 -0.41561541 0.64991218
0.01165681 -0.37701961 0.26672351
0.15468881 -0.41984341 0.2374423
-0.1433637 -0.4204812 0.24799439
-0.18169589 -0.42128521 0.76461267
0.68636417 -0.43371809 0.33861461
0.380925 -0.42078879 0.55891538
0.48556319 -0.4251619 0.57814163
0.17343999 -0.40994671 0.39588559
0.50379997 -0.4265112 0.3718501
0.1439068 -0.41155839 0.85513121
0.371802 -0.41579089 0.71974647
0.17248531 -0.41341019 0.84076208
-0.1358535 -0.4097766 0.47781259
-0.1262724 -0.41738111 0.42634749
0.082424462 -0.43442741 0.97201163
-0.2131277 -0.418827 0.35348091
0.6986807 -0.42568201 0.31299239
0.52408582 -0.41783449 0.52619022
0.088587709 -0.4214637 0.2283337
0.02651949 -0.40852579 0.65638202
-0.23472349 -0.41718191 0.43472531
0.43797529 -0.42543429 0.62507862
0.3728312 -0.42338139 0.50195032
0.41568801 -0.4188228 0.2617844
-0.035444051 -0.42677671 0.2208907
0.4200525 -0.42443451 0.46213651
0.1422164 -0.37932521 0.4292815
0.1312252 -0.3846387 0.38420841
0.22844601 -0.42747971 0.30761421
0.47814119 -0.42685041 0.60204607
0.4004769 -0.42005041 0.2863822
0.1146406 -0.33290541 0.4807021
0.2170659 -0.42743281 0.90665102
0.3910602 -0.4187054 0.71922839
0.36082071 -0.42123431 0.61521012
-0.13723031 -0.42476109 0.40068999
0.356455 -0.41179019 0.7357834
0.45378909 -0.421446 0.49629971
0.14413971 -0.41797659 0.27035001
0.34066671 -0.41771841 0.72654808
0.34035379 -0.39282179 0.55074281
0.4342882 -0.4211989 0.57011533
0.3254815 -0.42151481 0.3137486
0.228633 -0.34439591 0.45806411
0.5245353 -0.42258751 0.3278785
0.3598552 -0.4081946 0.4856658
-0.2841695 -0.41426599 0.52031058
0.46315941 -0.43140599 0.31363511
0.45682171 -0.41577381 0.63079667
0.32464701 -0.38907829 0.50236839
0.2317393 -0.31013721 0.50924802
0.73167789 -0.42887089 0.39024699
0.47687471 -0.42534241 0.63739198
0.3907325 -0.42759609 0.79623532
-0.03251987 -0.43181229 0.99719381
0.52176827 -0.4313114 0.44683
0.70171648 -0.42835799 0.43447629
0.61930847 -0.42870069 0.49097639
0.3365016 -0.4257004 0.33244219
0.35842299 -0.4304443 0.80857992
-0.39275089 -0.4360413 0.60676092
0.20948701 -0.4697496 0.88542759
0.1098553 -0.43081221 0.97702622
0.4692927 -0.4234381 0.28361019
0.06203606 -0.42679879 1.011866
-0.007576664 -0.42515409 0.99786001
-0.39784569 -0.4228996 0.54377669
0.1046563 -0.41745669 0.99820107
-0.2013965 -0.40983739 0.29717141
0.43666291 -0.42879781 0.30283129
0.4024255 -0.4223637 0.38566679
0.29802009 -0.42783639 0.23240671
0.1604816 -0.38836321 0.3682934
-0.16732261 -0.41166541 0.3260929
0.1733738 -0.41357881 0.41877761
0.078668147 -0.38934159 0.31686381
0.28049651 -0.41198739 0.5077647
-0.27187309 -0.41316739 0.4966087
-0.1749289 -0.4095504 0.4374558
-0.2001276 -0.40956521 0.4133386
-0.13229071 -0.40792021 0.4799549
0.091901921 -0.38283569 0.3512795
-0.17557999 -0.41290939 0.46934479
-0.2371666 -0.40891349 0.31146571
-0.118246 -0.3994627 0.4966225
-0.16273659 -0.40728301 0.4939124
0.2462194 -0.41120139 0.32371151
0.05783629 -0.3958087 0.3046715
0.1715008 -0.41349721 0.2256017
0.1303426 -0.41076049 0.2861031
-0.26138961 -0.41120851 0.63745642
0.3426716 -0.41215909 0.56383687
-0.1597994 -0.4114913 0.96667671
0.059219379 -0.2798202 0.57248157
0.39678061 -0.40911791 0.53126413
-0.2362902 -0.41916689 0.85773432
-0.130584 -0.4107731 0.70411408
-0.1414087 -0.4118107 0.73653579
0.025457401 -0.4053157 0.75050253
-0.1155074 -0.41207379 0.87764817
0.34947541 -0.40773901 0.51707149
-0.2169778 -0.42043161 1.0731
0.0052328031 -0.4133198 0.25298551
0.26521859 -0.41710511 0.32130459
-0.1937789 -0.41086391 0.37292489
-0.1337667 -0.41112441 0.59846061
-0.13045619 -0.41777119 1.072135
-0.20014 -0.41306669 1.105535
-0.2103572 -0.4463878 0.56714588
-0.1468273 -0.412765 0.3919656
-0.1461525 -0.41202211 0.70976979
-0.087785393 -0.41199189 1.115932
-0.1121162 -0.41394171 1.179608
-0.31631881 -0.3988589 1.4151649
0.098150283 -0.41142401 0.2211087
-0.2096419 -0.40586659 0.586312
0.056154069 -0.40520501 0.31257921
-0.086611137 -0.37391019 0.37434691
-0.1574674 -0.40901929 0.655379
0.1212791 -0.39423001 0.36862689
-0.2066509 -0.41273379 0.36472121
-0.39157909 -0.4161962 1.295514
-0.19291539 -0.4101783 0.9470427
0.19508509 -0.41387531 0.39719349
0.1178788 -0.40632689 0.2374589
-0.044576559 -0.41730049 0.71585578
0.26919529 -0.41228741 0.2754932
-0.1159249 -0.4102613 0.26625109
-0.01452062 -0.41515031 0.26971409
-0.088008933 -0.4088344 0.21740399
-0.01162639 -0.41551101 0.2539857
0.2200935 -0.30155259 0.66375828
0.2714335 -0.41670349 0.332371
-0.1982525 -0.41592631 0.35184261
-0.1543985 -0.4100939 0.3201226
-0.186409 -0.41161841 0.28091839
0.30914029 -0.41892019 1.074748
0.1174907 -0.4145495 1.394614
0.1538174 -0.36849311 0.36432219
0.1678116 -0.40913919 0.34205699
0.39506701 -0.41226351 0.78905213
0.33278489 -0.41194999 0.41887489
-0.22696079 -0.4045018 0.4421384
0.091652371 -0.38790831 0.81300157
-0.233529 -0.41043061 0.82064873
0.1408648 -0.3977803 0.3307499
-0.1366695 -0.42131111 0.30086371
0.1496961 -0.41934711 0.2480019
0.29414061 -0.4166086 1.102519
-0.1188707 -0.42055029 1.243733
-0.2826781 -0.41373169 0.68791062
-0.2147329 -0.40924191 0.31915209
-0.13291299 -0.40645289 0.4133341
0.024531409 -0.41504169 0.83351529
-0.0066571562 -0.41663551 0.90833801
0.3367683 -0.41888639 1.011036
0.3110972 -0.3908872 1.459408
0.34714341 -0.41912699 0.31180969
0.38856959 -0.41098791 0.47509339
0.3671968 -0.40990561 0.51443952
0.42773589 -0.41819799 0.79310697
-0.1952109 -0.42697439 1.0153069
-0.2072171 -0.4170467 0.90503842
0.38917121 -0.4182038 0.83483982
0.3819018 -0.41984269 1.103991
0.39434561 -0.39928681 0.85997331
0.1975805 -0.33125421 0.7407009
-0.26729301 -0.4085663 0.3130601
0.25862089 -0.41101661 0.2195722
0.1676221 -0.40830681 0.3377378
0.22388621 -0.40949079 0.28698921
0.084857412 -0.41999859 1.107397
0.1087696 -0.4013364 0.3679224
0.083897762 -0.4020173 0.2839525
0.24006911 -0.30457401 0.6347453
0.46412829 -0.40451241 0.73602271
0.1430544 -0.42516401 0.87087971
-0.25608331 -0.403025 0.5320937
-0.2134586 -0.4182744 1.013445
-0.20623609 -0.41257611 1.135763
-0.1425465 -0.4101159 0.28265569
-0.1031888 -0.41984311 1.040935
-0.16181961 -0.41196069 1.250314
0.42521229 -0.38280749 1.470601
0.06796401 -0.34670219 0.735291
0.19167881 -0.4198238 0.92073399
-0.03649433 -0.41274759 0.71628028
0.3748762 -0.40489399 0.56245083
0.01178424 -0.39626789 0.71399993
-0.23234759 -0.41657299 0.37845141
0.088394493 -0.40736139 1.3853689
0.1153997 -0.38688591 0.3404699
0.1127087 -0.39272541 0.34686959
-0.36723831 -0.4107163 0.41258371
-0.2175734 -0.42943579 0.45274511
-0.1092913 -0.40687451 1.065204
-0.1457427 -0.41369089 0.2378819
-0.1472397 -0.39960951 0.52563041
-0.35699961 -0.4205336 0.3825337
-0.1684414 -0.40563059 0.38096389
-0.19426779 -0.417858 0.40043911
-0.1384249 -0.40683201 0.2642554
-0.13233951 -0.42275131 0.39721581
0.099298827 -0.41217989 0.29704461
-0.27783489 -0.40116069 1.044561
-0.1406929 -0.4178001 0.2371802
-0.26705161 -0.40991861 0.41813949
-0.1152237 -0.5030039 0.39255211
-0.31099689 -0.4111585 0.40840811
0.21658389 -0.4168843 0.255559
0.09202306 -0.41766599 0.2811372
-0.25306681 -0.42334881 0.31771061
0.093751237 -0.42533249 0.2542949
0.18492959 -0.3793126 0.3318589
-0.1920836 -0.40077141 0.74005318
-0.1119939 -0.40899301 0.2197191
-0.15231469 -0.40798101 0.46711659
-0.33802721 -0.4192225 0.4882471
-0.1940521 -0.40983301 0.30148959
-0.2001854 -0.4144299 0.4444544
-0.57440311 -0.41863209 1.430076
-0.1211597 -0.43100139 0.42408571
-0.17721841 -0.40209281 0.3454459
-0.2265411 -0.40720999 0.38555291
-0.4022938 -0.41705519 1.297601
-0.4407821 -0.39336261 0.48826879
-0.61841321 -0.41292071 1.481773
-0.34374109 -0.40369841 0.2748892
-0.21061181 -0.4633415 0.23776899
-0.2177424 -0.40496421 0.24868269
-0.48274481 -0.3939248 0.2655893
-0.37007919 -0.41626921 0.39340559
-0.35658741 -0.42697579 0.28135371
-0.48383611 -0.39956129 0.2943565
-0.38979891 -0.4000864 0.3997055
-0.48374441 -0.39937419 0.46572971
-0.2414515 -0.4140684 0.31498539
0.34926999 -0.40908921 0.51614279
0.082083113 -0.47498211 0.38749141
0.1666279 -0.45147789 0.40784559
-0.04139062 -0.4153598 0.71626472
-0.051898841 -0.40694621 0.70815492
-0.107674 -0.5100413 0.70475972
-0.092672363 -0.50096631 0.2184892
-0.48386529 -0.51741898 0.60868412
-0.034612261 -0.3828477 0.74056649
0.05837943 -0.31064469 0.59991872
-0.086615473 -0.3966673 0.3885825
-0.1209578 -0.44462401 0.62473249
-0.1224569 -0.41653961 0.40930009
0.026608299 -0.50042808 0.29915231
0.06247462 -0.32867759 0.65054029
0.1913151 -0.51333749 0.54105169
-0.1529309 -0.4406122 0.4141058
0.31972831 -0.44468349 0.64763141
0.1779311 -0.47304219 0.4851234
0.3607626 -0.486543 0.78418171
0.078903951 -0.32832929 0.72119951
-0.01243298 -0.37002641 0.69130528
0.075370893 -0.40645111 0.3267234
0.1079224 -0.37765369 0.32800981
-0.09960182 -0.42238769 0.60616243
0.057106901 -0.29557079 0.60513538
-0.1534822 -0.4630647 0.26939479
-0.2688475 -0.48815551 0.3658869
-0.1334945 -0.38082501 0.2332851
-0.0066661299 -0.32684731 1.191009
0.090569288 -0.39517581 0.2188323
0.3292307 -0.38425821 0.66331959
-0.070732333 -0.31253219 0.49371421
-0.28108421 -0.46162719 0.45604911
0.44657379 -0.40325341 1.5146461
-0.1130423 -0.48432529 0.38977519
0.48781899 -0.33926979 0.91576147
