# .PCD v0.7 - Point Cloud Data file format
VERSION 0.7
FIELDS x y z normal_x normal_y normal_z curvature
SIZE 4 4 4 4 4 4 4
TYPE F F F F F F F
COUNT 1 1 1 1 1 1 1
WIDTH 578
HEIGHT 1
VIEWPOINT 0 0 0 1 0 0 0
POINTS 578
DATA ascii
-0.13490495 -0.14076559 0.6831553 -0.691113 0.65080589 -0.31434759 0.056146022
-0.10393816 -0.18282801 0.63572055 -0.75923258 0.13266018 -0.63715559 0.0068593044
0.12167312 -0.38872322 0.65153718 0.73911852 0.00042744665 -0.67357522 0.0046655168
-0.14395605 -0.21756698 0.69094038 -0.94828999 -0.055110939 -0.31258416 0.029942648
-0.035705812 -0.24519418 0.5559898 -0.4098407 0.080236591 -0.90862131 0.027684437
-0.12510987 -0.22860852 0.6595723 -0.80363059 0.054434299 -0.59263384 0.0017616199
0.074484311 -0.12768306 0.7212382 0.14284547 0.98407692 0.10577236 0.01676221
0.10129733 -0.13014941 0.69758099 0.33893821 0.92397869 0.17715617 0.049374174
-0.12548988 -0.15716627 0.66374069 -0.71113044 0.38593319 -0.58766401 0.035288956
-0.052728318 -0.19523284 0.57351935 -0.66518313 0.057513505 -0.74446195 0.0072686612
0.01303516 -0.20209576 0.56557906 0.46356675 0.069803379 -0.88330823 0.013901833
-0.016748233 -0.26361164 0.54868168 -0.066041939 0.067222275 -0.99554986 0.045059182
-0.022820517 -0.13910697 0.5581364 -0.28761172 0.61411822 -0.73494107 0.10448727
-0.028784443 -0.27253094 0.55057341 -0.28546143 0.029652445 -0.95793134 0.046569187
-0.093551792 -0.39133021 0.61308652 -0.76152074 0.026410282 -0.64760232 0.00014458515
0.017957088 -0.12789674 0.65687746 -0.005325071 0.99971771 -0.023155248 0.00053066143
-0.10397685 -0.15099935 0.64174473 -0.64771199 0.51986915 -0.55696076 0.033892147
-0.11748259 -0.15708043 0.65650553 -0.68100852 0.4403784 -0.58505917 0.03829832
-0.0022017832 -0.33941221 0.55199844 0.15253325 0.014923829 -0.98818564 0.039478853
-0.14925693 -0.27798513 0.70150405 -0.99440336 0.043912698 0.096091248 0.041544601
-0.034633048 -0.18860531 0.5600304 -0.46054554 0.021253783 -0.88738161 0.03313316
-0.098125197 -0.17696524 0.62905508 -0.72740263 0.23946878 -0.64307088 0.015410944
-0.02686475 -0.30172685 0.5495261 -0.23069103 -0.033482637 -0.97245079 0.042203244
-0.013911901 -0.30609149 0.54883283 0.038789626 -0.00071208965 -0.99924713 0.038161889
0.045890752 -0.33802989 0.58674717 0.61723137 0.024349788 -0.78640479 0.00073106738
-0.066859774 -0.40444162 0.58121073 -0.7155208 0.024404408 -0.69816506 0.0014952091
0.03214616 -0.1272824 0.66144502 0.0075286808 0.99920338 -0.039192338 0.00075222744
-0.074957728 -0.36634687 0.5921554 -0.74387318 0.036428008 -0.66732723 0.00039474876
-0.14464138 -0.18922213 0.69065386 -0.95248675 0.049248278 -0.30057204 0.028995996
-0.12599878 -0.2996493 0.65591371 -0.81952703 0.013816267 -0.57287395 0.0030779913
-0.095564477 -0.13529016 0.72897327 -0.25724271 0.91792279 0.30206606 0.02990141
-0.049553514 -0.20078139 0.57023984 -0.63732141 0.052301653 -0.76882112 0.010592651
-0.023933521 -0.15020275 0.55167937 -0.23441319 0.29957077 -0.92482853 0.095902689
-0.044770733 -0.13613607 0.58607739 -0.52586305 0.74585277 -0.40886655 0.042734422
-0.1384435 -0.40141872 0.66823852 -0.88638818 0.060818985 -0.45893046 0.01648096
0.071342587 -0.35548112 0.60639554 0.66133904 -0.0085208444 -0.75003868 0.0011302106
-0.10253906 -0.4072769 0.62449676 -0.7572186 0.031913046 -0.65238148 0.00056468882
-0.13808724 -0.37116146 0.67006087 -0.90507036 0.012708254 -0.42507201 0.015065873
-0.12910357 -0.34669927 0.65786833 -0.81252652 0.044508677 -0.58122253 0.0018999969
-0.11532334 -0.16138607 0.65210837 -0.68183076 0.43233311 -0.59008038 0.035862867
-0.12311402 -0.1761304 0.65912223 -0.78479695 0.16412206 -0.59762675 0.01108194
-0.11932562 -0.35078925 0.64518142 -0.78574139 0.027623998 -0.61793792 0.00077659416
-0.068635516 -0.13972627 0.61198032 -0.55685377 0.66535997 -0.49720216 0.038317725
-0.026184734 -0.32865149 0.5498876 -0.28090703 0.016055161 -0.95960069 0.038171269
-0.077858225 -0.16700062 0.6057837 -0.73627019 0.28183061 -0.61520547 0.014933332
-0.15018269 -0.16928002 0.70328468 -0.96554232 0.22379319 -0.13283287 0.052885063
-0.015514233 -0.23436561 0.55068541 -0.084553182 0.070689984 -0.99390829 0.045181938
-0.033308044 -0.24339226 0.55594414 -0.37165615 0.089558199 -0.92404056 0.026531989
-0.063053355 -0.2925255 0.58204502 -0.70937288 0.021909267 -0.70449275 0.00094570633
-0.15031062 -0.18344933 0.69902444 -0.97511196 0.087773919 -0.20359866 0.037107144
-0.029783381 -0.38981977 0.54721707 -0.29452294 0.016277708 -0.95550573 0.032904379
0.078896984 -0.12781656 0.7299791 0.26449507 0.94140232 0.20929426 0.031225946
-0.021852698 -0.12950161 0.60095906 -0.11678435 0.9687534 -0.21881127 0.022658173
-0.14838633 -0.16486207 0.70114225 -0.95029092 0.26479205 -0.16380535 0.057685323
-0.1268433 -0.15084463 0.66861993 -0.67908287 0.54038197 -0.49682355 0.045434438
-0.12897141 -0.16796577 0.66834319 -0.79157519 0.23434632 -0.56434977 0.021623008
-0.086801223 -0.14630945 0.62672001 -0.61305732 0.58874494 -0.52682084 0.038174704
-0.090590529 -0.15193424 0.62867987 -0.67115664 0.4840157 -0.5614959 0.030824151
-0.0016546868 -0.23634923 0.55419624 0.12453426 0.039248772 -0.99143875 0.03436394
-0.02709825 -0.24173388 0.54994506 -0.24913409 0.10175641 -0.96310842 0.035801224
-0.057431988 -0.20632158 0.57932013 -0.70778573 0.045584425 -0.70495498 0.0052774716
-0.058371965 -0.36841235 0.57470185 -0.66858786 0.059411924 -0.741256 0.0030921227
-0.11577582 -0.14427365 0.66130692 -0.6086601 0.61038852 -0.50691086 0.043082699
-0.1275818 -0.20196258 0.66432983 -0.81833047 0.043426145 -0.57310504 0.0018953055
-0.1437386 -0.17479092 0.68716687 -0.91791248 0.17461117 -0.35629714 0.030258847
-0.053041697 -0.21026403 0.57361913 -0.64278883 0.049092229 -0.76446879 0.0084968125
-0.11386133 -0.26637906 0.64200556 -0.78280568 0.038517412 -0.62107289 0.00062026008
-0.139467 -0.23974493 0.68012863 -0.90767562 -0.0085492823 -0.41958541 0.014775801
-0.076329067 -0.30824038 0.59707147 -0.74442589 0.014120721 -0.66755575 0.00036865828
-0.05292261 -0.17479832 0.57360548 -0.69386435 0.18309802 -0.69643909 0.012989501
-0.05577489 -0.16702269 0.57961756 -0.71512604 0.26417398 -0.64715284 0.016953755
-0.057952885 -0.15457098 0.58954716 -0.68906456 0.46210179 -0.55825788 0.031123515
-0.025761638 -0.20389774 0.55300075 -0.32924587 0.054230928 -0.9426856 0.038967218
-0.033717003 -0.27867332 0.55411386 -0.40175018 0.0075291805 -0.91571838 0.038215932
-0.098723739 -0.32646289 0.62303227 -0.76067215 0.024054097 -0.6486904 8.6363012e-05
-0.070292659 -0.34293127 0.5882144 -0.73467445 0.020319467 -0.67811543 0.00061027321
-0.10347179 -0.32432136 0.62888896 -0.76428789 0.025336292 -0.64437735 0.0001668867
-0.097145945 -0.26809394 0.62285173 -0.76106459 0.044972073 -0.64711535 0.00024899218
-0.022637863 -0.18643956 0.54985958 -0.23957384 0.010232743 -0.97082424 0.045625661
-0.048332907 -0.23042102 0.56851834 -0.59949005 0.037270088 -0.799514 0.014901773
-0.130307 -0.26697138 0.66224951 -0.85172641 0.024931749 -0.52339333 0.0040267501
-0.072333634 -0.16438703 0.60117841 -0.71635115 0.32089448 -0.61957061 0.018359287
-0.11707541 -0.1649262 0.65405971 -0.71630752 0.33829531 -0.61029488 0.037734818
-0.12876691 -0.20840164 0.66594362 -0.83811134 0.035521362 -0.54434144 0.0034546896
-0.15026212 -0.28651854 0.70100921 -0.99223757 0.051561013 0.11316382 0.043524478
-0.087924592 -0.2682384 0.60994607 -0.75448406 0.039459143 -0.6551311 0.00031236891
-0.02362325 -0.33295891 0.54909134 -0.27012202 0.01648551 -0.96268493 0.036106795
-0.1075405 -0.39881352 0.63041162 -0.76277113 0.026678637 -0.64611804 0.00045701355
-0.13383405 -0.27184531 0.66666496 -0.86473745 0.019974448 -0.5018267 0.0039493213
-0.14862727 -0.35175547 0.69071567 -0.9970203 -0.0042831199 -0.077020288 0.035046943
-0.12498765 -0.14611222 0.66758829 -0.57705265 0.66845328 -0.46923381 0.04023242
-0.082258366 -0.16515818 0.61313587 -0.74992025 0.29470336 -0.59225798 0.015481094
0.006658223 -0.28013322 0.56034458 0.38148379 0.058730267 -0.92250788 0.021163568
-0.033864755 -0.22993051 0.55584973 -0.39099339 0.047565062 -0.91916358 0.032070775
-0.11401344 -0.35752591 0.63892347 -0.77336103 0.032396473 -0.63313758 0.00035146115
-0.040608868 -0.18288979 0.56314981 -0.53387815 0.069915228 -0.84266609 0.026091436
-0.14496958 -0.15450579 0.69853592 -0.85753334 0.47737652 -0.1916987 0.08324834
0.012365879 -0.40945357 0.55763489 0.38929573 0.037312761 -0.92035681 0.022293579
0.010800374 -0.3119247 0.56028175 0.3926304 0.029772172 -0.91921437 0.014563094
-0.15177415 -0.20190024 0.7035284 -0.99059558 0.010731615 -0.13640155 0.034005672
-0.047925528 -0.3373723 0.56664336 -0.61061275 0.039278973 -0.79095459 0.0081230421
-0.092862867 -0.33317232 0.61548662 -0.75933367 0.024367467 -0.65024501 7.2335504e-05
-0.021539807 -0.20301807 0.55152476 -0.27520561 0.033388905 -0.96080548 0.041597355
-0.15007213 -0.3807835 0.69412088 -0.99725121 0.063089378 -0.038856026 0.036893345
-0.11721979 -0.23915744 0.64834905 -0.78887475 0.054784775 -0.61210722 0.001087011
-0.056279253 -0.18484581 0.57697552 -0.68913043 0.090130679 -0.71901023 0.0054550548
-0.12890592 -0.40337932 0.65472031 -0.79884505 0.01722586 -0.60129023 0.003413996
-0.027306844 -0.17107055 0.5500533 -0.35395724 0.093825661 -0.93054342 0.054288965
-0.025151614 -0.26948807 0.5482859 -0.15358545 0.053778511 -0.98667085 0.036550753
-0.029868491 -0.37799263 0.5478614 -0.39929923 0.045594975 -0.91568619 0.028822377
-0.081418797 -0.29356274 0.60276371 -0.74911135 0.011983789 -0.66233569 0.00024403697
-0.074416921 -0.27384856 0.59595531 -0.73728049 0.016933337 -0.67537445 0.00039933363
-0.11515898 -0.39743671 0.63825476 -0.76958436 0.033189997 -0.63768208 0.00081932859
-0.039430156 -0.1920903 0.56172967 -0.50057709 0.040685724 -0.86473531 0.027279787
-0.062056191 -0.2773523 0.58219713 -0.69922322 0.010303977 -0.71482915 0.00096395722
-0.048384074 -0.13619141 0.58975703 -0.53539491 0.7357983 -0.41467232 0.038847584
-0.14768893 -0.15142624 0.69967937 -0.87220389 0.45540223 -0.17851952 0.076077528
-0.080045111 -0.14482084 0.62282372 -0.61011988 0.61014616 -0.50544572 0.034299888
-0.14489621 -0.36783811 0.68084377 -0.94130754 -0.0043026595 -0.33752289 0.018905465
-0.075076751 -0.21367265 0.60190898 -0.77639043 0.014822046 -0.6300779 0.00037767526
-0.076702498 -0.18373005 0.60295415 -0.7666738 0.11738429 -0.63121492 0.0036139574
0.056527168 -0.13247344 0.76802796 0.25182155 0.91692412 0.3095741 0.049754415
-0.013294804 -0.14045835 0.56074488 0.19921798 0.68856907 -0.69726962 0.09549465
-0.026950877 -0.14240666 0.55278987 -0.43393838 0.47067606 -0.76821971 0.09656813
-0.07815098 -0.13706322 0.63275015 -0.46534115 0.79566354 -0.38778499 0.042929966
-0.028478434 -0.1387469 0.56074631 -0.37883896 0.61590236 -0.69075698 0.093645602
-0.14850236 -0.1744563 0.69560319 -0.95477247 0.17210597 -0.2424645 0.037418365
-0.13742019 -0.14394188 0.68464202 -0.73263896 0.60737598 -0.30713961 0.058754474
-0.10004383 -0.14765336 0.64037097 -0.63604778 0.53481549 -0.55625135 0.034376331
-0.037802003 -0.22487853 0.55875647 -0.45960772 0.049702302 -0.88673013 0.027816774
-0.13961688 -0.3447178 0.67334771 -0.90557474 0.043392792 -0.42196137 0.015190621
-0.042001348 -0.37040898 0.55866164 -0.57911336 0.038909361 -0.81431794 0.015343784
-0.045246564 -0.34776837 0.56385875 -0.59545481 0.081399083 -0.79925454 0.008740427
-0.084377006 -0.18449451 0.61265242 -0.77132201 0.12897953 -0.62323892 0.0043869959
-0.12968238 -0.31828031 0.66029537 -0.84079403 0.017784012 -0.54106295 0.0056235627
-0.12561597 -0.37075213 0.65204483 -0.79742599 0.029939309 -0.60267359 0.0014420898
-0.092744216 -0.35568491 0.61413902 -0.75620782 0.031792887 -0.65355873 7.4918309e-05
-0.069092266 -0.17487255 0.59307867 -0.73528552 0.21260132 -0.64354956 0.011851261
-0.028328206 -0.18156347 0.55307263 -0.35826147 0.054220919 -0.93204552 0.043629028
-0.11797338 -0.19017084 0.65339547 -0.77711457 0.070529699 -0.62539464 0.0015857191
-0.036534399 -0.15070096 0.5638814 -0.54688478 0.45749193 -0.70115483 0.072260037
-0.057737179 -0.29922476 0.57615018 -0.67294168 0.024093254 -0.73930317 0.0019737068
-0.13653527 -0.25027028 0.67191923 -0.88744259 0.038043398 -0.45934564 0.0098639643
-0.013846661 -0.41702789 0.54596144 0.10054448 -0.0068459446 -0.99490905 0.056804381
-0.10296521 -0.35428467 0.6263504 -0.75939292 0.033439938 -0.64977241 8.3767118e-05
-0.02204432 -0.3860442 0.54312563 -0.07500308 0.038503438 -0.9964397 0.045028389
-0.11419338 -0.30365887 0.6408549 -0.77158582 0.018674888 -0.63585097 0.00030077153
-0.14411423 -0.3383981 0.6807943 -0.93720311 0.042901032 -0.34613544 0.017693965
-0.06484475 -0.19999759 0.58798665 -0.75311619 0.048698649 -0.65608263 0.0021799011
-0.13631596 -0.28843638 0.66900253 -0.88667423 0.023696169 -0.46178716 0.0072134961
-0.11764648 -0.36428604 0.64282495 -0.7819348 0.028684899 -0.62269986 0.0005721082
-0.077245638 -0.37051427 0.5953325 -0.74912214 0.039038587 -0.66128051 0.00026869631
-0.11604367 -0.31226942 0.64368945 -0.78100944 0.018567884 -0.62424314 0.00058688817
-0.11485057 -0.37536862 0.63926947 -0.77323401 0.022021325 -0.63373822 0.00048325455
-0.10733972 -0.2623142 0.63440663 -0.7721945 0.046575405 -0.63367677 0.00016572043
-0.10216228 -0.36814362 0.62519884 -0.75835818 0.027450304 -0.6512599 0.00015344765
-0.028163679 -0.33504376 0.54984462 -0.3286522 0.018387727 -0.94427204 0.037099905
-0.057993427 -0.32736436 0.57581621 -0.67180043 0.024329053 -0.74033254 0.0024249877
-0.069906846 -0.39856005 0.58562636 -0.73282903 0.022382714 -0.68004471 0.0010233019
-0.066387892 -0.23379482 0.58882797 -0.73896867 0.025770474 -0.67324674 0.0013845722
-0.12043545 -0.40595746 0.64404726 -0.77562165 0.034065809 -0.63027817 0.0010508798
-0.034267839 -0.35501441 0.55309856 -0.45383742 0.12117018 -0.88280767 0.033831403
-0.080668345 -0.40910622 0.59811991 -0.75640523 0.012950733 -0.65397513 0.0006643986
-0.13330042 -0.26243386 0.66659665 -0.86618102 0.032161806 -0.49869436 0.0040808488
-0.071326405 -0.29333833 0.59120071 -0.73180181 0.021087917 -0.68119115 0.00052852387
-0.11143113 -0.25309432 0.63941962 -0.77370924 0.05526153 -0.63112622 0.00036757943
-0.14138809 -0.32424644 0.67833149 -0.92168587 0.056953106 -0.3837336 0.014649553
-0.08410199 -0.27489245 0.60508841 -0.75347769 0.024087789 -0.65703207 0.00018938129
-0.13846216 -0.38318101 0.66732067 -0.8915379 0.0054388223 -0.4529134 0.015788982
-0.064173445 -0.18490699 0.5867824 -0.7452836 0.084120356 -0.66141969 0.0037487249
-0.13844953 -0.36958924 0.6679244 -0.90021729 0.01861486 -0.43504298 0.014387812
-0.10389937 -0.35551229 0.62727964 -0.75942743 0.033444319 -0.64973193 7.8837169e-05
-0.066392168 -0.13655739 0.62274897 -0.43600509 0.8164376 -0.37858835 0.042566676
-0.021321911 -0.35772648 0.54855353 -0.26766112 0.094214968 -0.9588958 0.047597695
0.022052439 -0.13357382 0.60210365 0.19167785 0.8842048 -0.42595956 0.044996914
0.016565653 -0.12885222 0.75193584 -0.0035880331 0.99776185 0.066771254 0.0008885662
-0.15178266 -0.20738132 0.70955479 -0.99706316 -0.061103046 0.046169322 0.044646159
-0.048023362 -0.1377168 0.78572571 -0.45018935 0.76591009 0.45903304 0.049108673
-0.148287 -0.21310417 0.71094793 -0.99688065 -0.073620521 0.028443431 0.046008144
-0.10920057 -0.13840225 0.73189849 -0.3522509 0.85139936 0.38863659 0.02885985
-0.073520988 -0.13497379 0.63865089 -0.41930693 0.83553714 -0.3550483 0.045367155
-0.056789767 -0.13118869 0.64455181 -0.19134533 0.97626436 -0.10146333 0.0087439585
0.0020596548 -0.12936234 0.74573839 -0.045713205 0.99824357 0.037683617 0.00032944424
0.053785998 -0.12704875 0.67074692 0.03833076 0.99778503 -0.054367512 0.0016389039
0.080664739 -0.12818329 0.67025715 0.13993673 0.98365831 -0.11328756 0.010539579
-0.043719046 -0.20999491 0.80994457 -0.5975787 0.028939731 0.80128777 0.001748116
0.046948742 -0.13326871 0.61494684 0.25722149 0.88880891 -0.37928352 0.054776605
-0.077980869 -0.13979541 0.76198834 -0.4207367 0.76029152 0.49491167 0.045496128
-0.14766052 -0.37589538 0.70463896 -0.98422074 0.032982543 0.17384386 0.027843248
-0.076353461 -0.26349723 0.78344858 -0.65223509 0.0097901095 0.75795352 0.00018568107
0.0030960224 -0.31329811 0.83932686 -0.16385801 0.00080528558 0.98648357 0.035533078
-0.037918836 -0.13019785 0.69230413 -0.045512591 0.9987815 0.019083014 5.3098018e-05
-0.033311401 -0.17980804 0.8160944 -0.59033626 0.11838043 0.79842919 0.0050147432
0.0077443002 -0.2742945 0.83954966 0.073692858 -0.0013261787 0.99728012 0.038563587
-0.028421221 -0.23388933 0.82193738 -0.51400119 -0.011474094 0.85771269 0.0048124297
-0.14809541 -0.15855515 0.71295267 -0.93234426 0.35116646 0.086118199 0.085761979
-0.12410906 -0.29860526 0.74226689 -0.75346029 0.0057477024 0.65746838 0.0052885129
-0.064490668 -0.22847386 0.79362196 -0.63779229 0.022105446 0.76989108 0.00017864379
-0.12660296 -0.30273861 0.74007523 -0.7767666 -0.0059015756 0.62976098 0.0070928591
-0.064407721 -0.32516232 0.79488409 -0.64692801 0.0083942302 0.76250494 0.00010749092
-0.11222783 -0.20418979 0.75362194 -0.67466789 0.051742349 0.73630548 0.0013748566
-0.025686942 -0.13105832 0.59889704 -0.18181477 0.9512462 -0.24914676 0.031357981
-0.090612009 -0.13652226 0.73520458 -0.27824455 0.8788389 0.3875851 0.031444933
-0.008886043 -0.23575997 0.83192199 -0.3507331 0.016724929 0.93632609 0.013776764
-0.10190171 -0.16713202 0.75816435 -0.59471482 0.34852311 0.72446263 0.022217732
-0.13099198 -0.38624257 0.73444474 -0.80551279 -0.037091028 0.59141642 0.0050784438
0.0077188895 -0.35665601 0.84025699 -0.10904574 -0.049603805 0.99279833 0.025897857
-0.083330952 -0.19890565 0.77663738 -0.62830013 0.065613471 0.77519917 0.0013456658
-0.10269009 -0.13841036 0.73558366 -0.33237222 0.83973986 0.42937833 0.033595208
-0.08678925 -0.15220742 0.76458877 -0.54810196 0.54201931 0.63702375 0.042184811
-0.10692357 -0.32854262 0.75801444 -0.67336512 0.0058261245 0.73928714 0.00044552312
-0.13224241 -0.2392202 0.73553902 -0.79691136 0.011430368 0.60398811 0.011453889
-0.024303438 -0.29760596 0.82583141 -0.47007179 0.055875663 0.88085777 0.007937327
-0.085173354 -0.40670612 0.77761137 -0.67060614 -0.0015904582 0.74181193 0.00027525742
-0.12864505 -0.31685227 0.73792732 -0.8029272 -0.026703108 0.59547871 0.0086385952
-0.126681 -0.28826907 0.7400071 -0.77393931 -0.0034653957 0.63325024 0.006629677
-0.063469008 -0.13034707 0.67648154 -0.0901867 0.99554807 -0.027394123 0.001747033
-0.011844562 -0.12836249 0.66655016 -0.032992557 0.99938703 0.011708403 5.0161361e-05
-0.12739375 -0.2779732 0.73928452 -0.77385849 -0.003544454 0.63334858 0.0059137302
-0.15065113 -0.28083783 0.7072196 -0.98461354 0.027227242 0.17261191 0.038625382
-0.13994053 -0.20830391 0.72606695 -0.87422001 -0.0068954057 0.48548099 0.029087642
0.0077132275 -0.13361761 0.81203365 0.030656962 0.94064832 0.33799532 0.04801273
-0.0048135258 -0.18533152 0.83504587 -0.27675223 0.050219275 0.95962816 0.026665771
-0.11015375 -0.19975828 0.75511056 -0.66734987 0.052684128 0.74287856 0.0012002185
-0.099408232 -0.28744805 0.76423669 -0.65828204 0.0075223669 0.75273383 0.00021267387
-0.11278734 -0.4124794 0.7522077 -0.70063895 -0.029544534 0.7129041 0.00080951047
-0.042788308 -0.29233053 0.81292766 -0.60343087 0.01462026 0.79728127 0.0010492898
-0.063389756 -0.34795919 0.79590887 -0.64412892 0.012446074 0.76481569 0.00014628295
-0.02047177 -0.26262331 0.82785732 -0.42295435 0.027539644 0.90573239 0.0095187118
0.0060029337 -0.1345094 0.81871182 -0.0017933338 0.9159981 0.40117854 0.058634888
-0.018211244 -0.37856191 0.8305679 -0.39727494 -0.0099621704 0.91764563 0.012570391
-0.1239007 -0.31651911 0.74276578 -0.75882655 -0.0075605391 0.65124887 0.0060068266
-0.0065079508 -0.41210738 0.83374667 -0.20343654 -0.05817806 0.97735816 0.035858151
-0.096431665 -0.36888275 0.76806492 -0.66854638 0.0022822765 0.74366695 0.00017288401
-0.046331666 -0.4109886 0.81139916 -0.58700186 -0.031740807 0.80896318 0.002065507
-0.1461987 -0.3089503 0.71073866 -0.94250226 -0.067495361 0.32731301 0.034815188
-0.12883762 -0.14042066 0.71710241 -0.47643486 0.86241376 0.17103282 0.056788467
-0.057266749 -0.262716 0.80042773 -0.63754481 0.016729346 0.7702316 0.0002708438
-0.12292886 -0.22057006 0.74418032 -0.74837512 0.028934341 0.66264427 0.0032430517
-0.031616587 -0.32498163 0.8218416 -0.54586118 -0.011912121 0.83779097 0.0035373454
-0.13752706 -0.16144815 0.72622824 -0.78413111 0.37792355 0.49225205 0.085252039
-0.041246507 -0.13040909 0.71130729 -0.048340265 0.99817979 0.036061171 0.00027390261
-0.05850666 -0.18796326 0.79608601 -0.61639285 0.12266619 0.77782577 0.0022779433
-0.001547497 -0.30928037 0.8384589 -0.25485083 0.015380454 0.96685803 0.029564265
-0.097195283 -0.27994266 0.76599938 -0.65621942 0.0038712602 0.75456029 0.00012815517
-0.11947453 -0.32338595 0.7467559 -0.72682732 -0.0032065292 0.68681282 0.0037499578
0.011810075 -0.22370113 0.83888197 -0.18452197 0.0077996696 0.98279744 0.030808331
-0.085772581 -0.25126356 0.7754975 -0.65035594 0.0091255726 0.75957477 0.00023821679
-0.068898626 -0.39628941 0.79276896 -0.64535064 0.010443862 0.7638151 0.00033504498
-0.044159677 -0.30689397 0.81220138 -0.60698009 0.010228781 0.79465121 0.00097235735
-0.078103006 -0.29814088 0.78269148 -0.65484124 0.0092942799 0.75570935 0.0001533902
-0.11346947 -0.39023513 0.75207806 -0.69768131 -0.026914582 0.71590251 0.00063343346
-0.12723222 -0.13958307 0.702537 -0.5130794 0.85825366 -0.012250911 0.066044837
-0.06226223 -0.3306264 0.79640263 -0.64389676 0.0099180546 0.76504815 0.00020852598
-0.13325916 -0.24149325 0.73447931 -0.81780809 0.0031828615 0.57548225 0.016138799
-0.08163178 -0.39933455 0.78112638 -0.6654321 -0.0075398865 0.74642038 0.00039176238
-0.12465379 -0.27490544 0.74191767 -0.75743318 -0.00049282494 0.6529125 0.0059108566
-0.11357221 -0.13615012 0.71778846 -0.35869861 0.90448767 0.23073219 0.033990029
-0.14923809 -0.16348901 0.71054429 -0.96149141 0.27476579 0.0061609149 0.067516178
-0.13052575 -0.14138737 0.68777311 -0.61902696 0.74277234 -0.25513706 0.059923824
-0.13354331 -0.15314646 0.73049808 -0.60682708 0.61659223 0.50157243 0.067001872
-0.0031596499 -0.13689053 0.82420516 -0.11503736 0.83829641 0.53294039 0.079992868
-0.028986773 -0.14693817 0.80870467 -0.5015012 0.59389699 0.62911278 0.065727338
-0.056486707 -0.19591369 0.79834682 -0.61699986 0.091241702 0.78165603 0.0014763465
-0.014634433 -0.1428206 0.82639092 -0.38342401 0.58072615 0.71815252 0.084290072
-0.06509842 -0.37408796 0.79509002 -0.64020717 0.0090649519 0.76814884 0.00039424052
-0.019904803 -0.30872059 0.82972521 -0.42783341 0.041519281 0.90290344 0.011463232
-0.059068166 -0.25270662 0.79837096 -0.63946319 0.015659038 0.76866227 0.00022497006
-0.04035205 -0.31083652 0.81494492 -0.57971483 0.004804513 0.81480527 0.0018574456
-0.020890804 -0.37000716 0.8282913 -0.46601179 -0.026749317 0.88437408 0.0070746932
-0.061537899 -0.31753328 0.79719824 -0.6434927 0.0055618547 0.76543212 0.00027511985
-0.043209985 -0.22406398 0.81081843 -0.58374405 0.011443512 0.8118571 0.0014755764
-0.14894734 -0.20789705 0.71429741 -0.98850846 -0.044269532 0.14453763 0.035730548
-0.081505261 -0.31544703 0.77972049 -0.65517068 0.009938335 0.7554155 1.9264317e-05
-0.12039021 -0.25612006 0.74623418 -0.70248616 0.014960462 0.7115401 0.0023120728
-0.13203031 -0.35205576 0.73433185 -0.82192719 -0.013719649 0.56942743 0.0063072112
-0.093261465 -0.18191488 0.76875275 -0.61100942 0.20293108 0.76517087 0.0059059178
-0.14287406 -0.15245914 0.72444576 -0.76221657 0.53558207 0.36356261 0.10148878
-0.041666292 -0.13411373 0.76488334 -0.25841865 0.93866938 0.22829722 0.028912598
0.06679973 -0.13057785 0.64044964 0.14437482 0.9646281 -0.2205639 0.016323287
0.060941301 -0.12734909 0.66772252 0.076633289 0.99140453 -0.10603945 0.0059461291
-0.10966977 -0.32939166 0.75558627 -0.68312377 0.0021037047 0.73029953 0.0008920937
-0.0011410152 -0.13107178 0.78801912 -0.059129626 0.98288882 0.1744518 0.016480912
-0.038468063 -0.20857389 0.81407756 -0.57902175 0.033419579 0.81462681 0.0021286416
-0.060991533 -0.37162963 0.79856604 -0.63664126 0.0080107097 0.7711184 0.0004893734
0.011286302 -0.26608297 0.83957601 0.14968766 -0.0075367591 0.98870462 0.027175803
0.01462102 -0.29619995 0.83911425 0.10590486 0.0191531 0.99419177 0.055799808
-0.0040093944 -0.35475373 0.83621275 -0.2538484 -0.035760451 0.96658272 0.025879223
-0.105396 -0.18726191 0.75919825 -0.64464313 0.11705381 0.75546908 0.0038985875
-0.035243966 -0.13132194 0.60853601 -0.26528305 0.93676466 -0.22824761 0.032603063
-0.1492328 -0.21830073 0.70898902 -0.99586689 -0.087677345 0.023702081 0.057152778
0.03368168 -0.12740473 0.65331936 0.023979589 0.99765378 -0.064124472 0.0014392689
-0.041455161 -0.35189855 0.81370634 -0.59075445 -0.0011311421 0.80685055 0.0011385191
-0.060115892 -0.28319731 0.79819411 -0.64440787 0.0094915172 0.76462305 0.00028404518
-0.07495448 -0.16420445 0.77968109 -0.56785804 0.38334909 0.72840971 0.031182941
-0.066731155 -0.18056901 0.78939921 -0.5982697 0.18499589 0.77964729 0.0053675827
-0.084597476 -0.37491965 0.77853227 -0.66292578 0.011376734 0.74859864 0.00032428
-0.10566553 -0.4163743 0.75908011 -0.69491589 -0.027013127 0.71858352 0.00059567776
-0.0070351195 -0.34489265 0.83590299 -0.26187369 -0.042434543 0.96416879 0.021851553
-0.061749164 -0.21637395 0.79529077 -0.63504851 0.029713882 0.77190059 0.00024371856
-0.10170855 -0.13564254 0.68720275 -0.28830373 0.93985343 -0.18318391 0.030633761
-0.029538071 -0.13500968 0.57764333 -0.29370388 0.84047747 -0.45534119 0.070306048
-0.02475905 -0.12840861 0.61065251 -0.11179359 0.98117459 -0.15747567 0.013094977
-0.04201163 -0.13471407 0.59575921 -0.44720012 0.81919312 -0.35907474 0.047823161
-0.12975281 -0.14717965 0.73133141 -0.51605362 0.72061002 0.46304435 0.051681653
-0.1131653 -0.32955784 0.75250536 -0.68289119 0.00062053371 0.73051983 0.00082089682
-0.041806415 -0.13740622 0.78744155 -0.38432851 0.84911609 0.36234438 0.039147157
-0.017161947 -0.13247649 0.77620482 -0.17393056 0.97599745 0.13106169 0.011532694
-0.064257652 -0.14408468 0.77829248 -0.50515509 0.66269463 0.55285984 0.047149904
-0.022178568 -0.18633404 0.82453978 -0.46774897 0.054411341 0.88218498 0.0082984939
-0.054269124 -0.35629758 0.80345327 -0.62044036 0.0029097127 0.78424817 0.00032117887
-0.028646855 -0.33601785 0.82418388 -0.53388757 -0.003855956 0.84554666 0.0039734938
-0.026194859 -0.21903133 0.82313609 -0.50225031 0.0036473346 0.86471456 0.0052857315
-0.047562294 -0.30613631 0.80902338 -0.61883068 0.01065989 0.78545207 0.00078407867
-0.058984384 -0.15623963 0.78733623 -0.5346514 0.49467346 0.68516141 0.046500515
-0.033797428 -0.20281242 0.8175317 -0.55454063 0.045991927 0.83088475 0.0029850861
-0.12238283 -0.13899165 0.72042555 -0.4140791 0.8746739 0.25196055 0.039295703
-0.049314108 -0.13139516 0.72947228 -0.093304746 0.99117965 0.09411221 0.0023272852
-0.033218127 -0.12948376 0.65109646 -0.092796586 0.99545944 -0.021194918 0.0015515431
-0.049309332 -0.14921537 0.79404438 -0.55671567 0.51618421 0.65086204 0.045394875
0.0074379863 -0.18722919 0.83657646 -0.18218482 0.060788434 0.98138344 0.036827315
0.0093521206 -0.36441442 0.83893198 -0.047536138 -0.026157405 0.99852699 0.04373052
-0.048013773 -0.20818813 0.80640501 -0.6117065 0.033188723 0.79038835 0.001105335
-0.029477283 -0.2307447 0.8210637 -0.52252007 -0.0015127918 0.85262555 0.0041647237
-0.031206496 -0.21167938 0.81991524 -0.53926021 0.018241517 0.8419416 0.0032961464
-0.046336092 -0.1306659 0.70478427 -0.052139916 0.99816281 0.030861396 0.00027911196
-0.017570034 -0.12854545 0.65621477 -0.036750022 0.99931633 0.0040471945 0.00016493659
-0.062359259 -0.26301336 0.79599792 -0.65022546 0.01492227 0.75959474 7.6065349e-05
-0.076298058 -0.17625216 0.78102994 -0.59847236 0.21175714 0.77265114 0.0064966311
-0.079624631 -0.24853231 0.78037542 -0.64858484 0.011919478 0.76104903 0.00020529007
-0.11133687 -0.38460568 0.7540189 -0.69893479 -0.021141877 0.7148729 0.00068593974
-0.0034558116 -0.41923442 0.83704281 -0.1960744 -0.059628706 0.97877437 0.031640004
-0.14999485 -0.28745997 0.70480752 -0.97906083 0.038556118 0.19988318 0.040631063
-0.15110382 -0.41994917 0.70064837 -0.97952807 0.16883549 0.10963234 0.058825456
-0.10209404 -0.19461848 0.76176804 -0.64579803 0.074395187 0.75987518 0.0019489003
-0.1465501 -0.3316181 0.7079699 -0.96898746 -0.042766374 0.24338113 0.034080457
-0.086299486 -0.30705863 0.77527255 -0.65580863 0.0094838552 0.75486761 0.00019990459
-0.102382 -0.15836583 0.75554979 -0.56146127 0.44471753 0.69784492 0.032440484
-0.13501412 -0.30884209 0.73058879 -0.84707052 -0.040123463 0.52996385 0.010061369
-0.085202284 -0.14533629 0.76171249 -0.47652593 0.67161697 0.56732154 0.03941679
-0.029784333 -0.13015257 0.71195334 -0.047078285 0.99846166 0.029290961 0.00012860536
-0.14560939 -0.37436041 0.70686054 -0.98404926 0.018078808 0.17697531 0.027210107
-0.11100643 -0.15993235 0.74948359 -0.54346216 0.4674589 0.69723099 0.035190348
-0.15098202 -0.41841811 0.7005142 -0.97481161 0.17303005 0.1407223 0.058943175
-0.1376635 -0.21344914 0.72823471 -0.86574733 0.0020922683 0.50047714 0.030327398
-0.13878581 -0.16543731 0.72469693 -0.83814794 0.26318783 0.47774482 0.068968557
-0.024210822 -0.13371265 0.79255497 -0.2309117 0.94179964 0.24432221 0.019992515
-0.067798465 -0.14002796 0.76944047 -0.46336544 0.745148 0.47963211 0.049660843
-0.011893838 -0.15172946 0.82422876 -0.33570641 0.49720579 0.80005479 0.083063111
-0.019393472 -0.16090877 0.82038784 -0.479202 0.36391574 0.7987057 0.059261698
0.011462088 -0.19056666 0.83892721 -0.073718354 0.063110963 0.99528015 0.045401383
-0.036732707 -0.18160295 0.81319749 -0.60648257 0.11580867 0.78661752 0.0036282868
-0.079691231 -0.16233109 0.77583486 -0.56855863 0.3985807 0.71963495 0.030312696
-0.013379552 -0.21040757 0.82888484 -0.38467631 0.013635183 0.92295086 0.012481302
-0.029122088 -0.29781812 0.82271016 -0.49098507 0.055244159 0.86941463 0.0076096412
-0.080459386 -0.13950434 0.75372899 -0.37691635 0.79638654 0.47297186 0.047405392
0.01289821 -0.2395183 0.84041584 -0.062487155 0.0091502275 0.99800378 0.049183611
-0.095676757 -0.33538634 0.76803619 -0.65870243 0.012236147 0.75230414 0.00011869725
-0.088307612 -0.39389351 0.77498853 -0.67115849 -0.0028906097 0.74130827 0.00023849879
-0.088268891 -0.37944937 0.77472508 -0.66756427 0.0066182059 0.74452269 0.00027620094
-0.080231816 -0.24399424 0.77998978 -0.64822656 0.011538154 0.76136017 0.0001679854
-0.11340214 -0.38160488 0.75204933 -0.69804531 -0.016512634 0.71586317 0.00061179517
-0.06703113 -0.3379842 0.79289412 -0.64562613 0.011962477 0.76355994 7.6967008e-05
-0.087974392 -0.26096141 0.77354223 -0.65103126 0.0059879748 0.7590273 0.00015486432
-0.13389166 -0.33071792 0.73117465 -0.85718238 -0.03710277 0.51367468 0.013956473
-0.12142226 -0.3987709 0.7436254 -0.73880571 -0.034316622 0.6730442 0.0045552566
-0.14406958 -0.23509416 0.7177062 -0.94530982 -0.058301732 0.32092091 0.048518222
-0.1272044 -0.26498643 0.73992044 -0.75824678 -0.0096307946 0.65189648 0.005054832
-0.10843147 -0.40413305 0.75649709 -0.69788545 -0.025849298 0.71574265 0.00079009862
-0.11399279 -0.35932201 0.75202376 -0.7010079 -0.0070610517 0.71311849 0.0010748071
-0.11130249 -0.23454046 0.75387073 -0.67777961 -0.0023968308 0.7352612 0.001165593
-0.11397793 -0.23286185 0.751701 -0.68561506 -0.0049882326 0.72794718 0.0013907859
0.0078762025 -0.12832248 0.70635259 -0.040719301 0.99900866 0.01799131 2.8055843e-05
0.046564274 -0.12717827 0.67315608 0.014146443 0.99919045 -0.037660662 0.00082729117
-0.013420867 -0.12888415 0.69764858 -0.043258362 0.99887007 0.019681243 2.0434964e-05
-0.08754389 -0.1335239 0.66870856 -0.33892635 0.91476858 -0.21983494 0.028434917
0.022398865 -0.12829225 0.74317843 -0.0084354002 0.9980287 0.062190451 0.00092996302
0.013019579 -0.32658234 0.84054542 0.018649181 0.041670721 0.99895728 0.042645633
0.094771393 -0.13202488 0.65696275 0.22807653 0.9387266 -0.25840575 0.035387453
-0.084818803 -0.19378589 0.77570701 -0.62159908 0.093424916 0.77774447 0.0020899642
-0.06452065 -0.24670599 0.79342067 -0.64148945 0.015664732 0.76697183 0.00020245882
-0.021749234 -0.22330965 0.82512116 -0.43745747 -0.0054739346 0.89922243 0.0094068758
-0.13229889 -0.41631505 0.72990978 -0.82147443 -0.032326922 0.56932831 0.0066614226
0.0043784175 -0.22898246 0.83822811 -0.20835398 0.015828915 0.9779253 0.027607534
-0.051026355 -0.21745755 0.80392206 -0.61730295 0.027847348 0.78623259 0.00088782876
-0.051646825 -0.18887502 0.80184704 -0.61245394 0.10719875 0.78320414 0.0018452273
-0.074162416 -0.13250172 0.7230801 -0.12530223 0.98256266 0.13736789 0.0081423335
-0.10326901 -0.13808689 0.66053319 -0.43232083 0.83374053 -0.34347552 0.038745649
-0.14474705 -0.14428687 0.71002609 -0.66229594 0.74869204 0.0287086 0.086554714
-0.13175327 -0.35751468 0.73469913 -0.81239498 -0.017877989 0.58283329 0.0055233394
0.0062246113 -0.13115795 0.78637511 0.0020764838 0.98704422 0.16043502 0.013712506
0.084286064 -0.13243468 0.74539381 0.39257181 0.86827385 0.30329505 0.035999704
-0.018236494 -0.13006306 0.72868431 -0.056736354 0.99763846 0.038709179 0.00024325882
-0.038078383 -0.19420196 0.81373835 -0.58532953 0.082490854 0.80658823 0.0022349663
-0.11396735 -0.29950982 0.75107998 -0.68499494 0.00047296222 0.72854769 0.0015221681
-0.013316849 -0.30415705 0.83244163 -0.40307745 0.060160235 0.91318637 0.014335782
-0.0055719716 -0.32553983 0.83702952 -0.29902807 0.0014966766 0.95424306 0.022148922
-0.061559979 -0.13172562 0.718943 -0.0844374 0.99321026 0.080023773 0.0014836375
0.099825047 -0.1346205 0.72455901 0.49042356 0.78990054 0.36816022 0.04267738
-0.05269774 -0.30539289 0.80473846 -0.62988627 0.0082850233 0.77664316 0.00052967598
-0.013462303 -0.12864234 0.67207479 -0.035656005 0.99926102 0.014355763 3.7559945e-05
-0.1426107 -0.16631912 0.72125661 -0.88542831 0.22578955 0.40624604 0.061010085
-0.031455867 -0.38381863 0.82178324 -0.52333444 -0.026901457 0.85170257 0.0046643629
-0.07888604 -0.27067822 0.78120315 -0.65434378 0.0082905507 0.75615174 6.0615897e-05
-0.0099951318 -0.22290115 0.83077049 -0.3869302 0.0020295302 0.92210668 0.012134358
-0.12613282 -0.32519332 0.74043375 -0.78419882 -0.03462211 0.61954296 0.0060791108
-0.13112874 -0.29624107 0.73547053 -0.79454541 -0.01040175 0.60711569 0.0086939177
-0.12345442 -0.37065876 0.7427448 -0.76913238 -0.018980322 0.63880754 0.0039250157
-0.0065310718 -0.29981062 0.8355757 -0.33198261 0.061948989 0.94124907 0.02914306
-0.1040226 -0.37698376 0.76138771 -0.6849736 -0.0067016291 0.72853702 0.00014693975
-0.14774981 -0.32626039 0.70558274 -0.98308784 -0.045765944 0.17732422 0.034413096
-0.11163194 -0.15487355 0.74655712 -0.51020527 0.52073556 0.68448889 0.035940092
-0.12287249 -0.16521931 0.74204302 -0.59448236 0.36060309 0.71871841 0.030255418
-0.0088588987 -0.35563257 0.83480418 -0.27454725 -0.046718683 0.96043807 0.025439626
-0.12955713 -0.41632906 0.73294252 -0.8016426 -0.05171648 0.59556228 0.004544172
-0.026966568 -0.38566193 0.82401717 -0.49570742 -0.0053911898 0.86847287 0.0063210828
-0.023332601 -0.12940741 0.69455487 -0.041801088 0.99893838 0.019361334 3.0546722e-05
-0.1250823 -0.28133461 0.74142873 -0.76365185 -0.002098073 0.64562488 0.0063132793
-0.097065628 -0.22885442 0.76614368 -0.64414304 0.0013441255 0.76490384 2.156415e-05
-0.11434972 -0.1936011 0.75179809 -0.66838145 0.057825513 0.74156755 0.0015536789
-0.022848073 -0.33745751 0.82829136 -0.48652077 -0.0054127392 0.87365234 0.0045699882
-0.14510177 -0.31570619 0.71426988 -0.93047124 -0.046946708 0.36334473 0.023630301
-0.03820549 -0.27053815 0.81635219 -0.57687372 0.026416099 0.81640619 0.00083182851
0.017816531 -0.13129026 0.6056301 0.1678032 0.92244017 -0.3477731 0.035007067
-0.0022775794 -0.13038886 0.60006958 0.083370239 0.95732117 -0.27674121 0.022998165
-0.13767081 -0.35409299 0.72504836 -0.89309657 -0.012279212 0.44969749 0.015668718
-0.094943769 -0.16977796 0.76429021 -0.62510908 0.33412302 0.70540798 0.01855734
-0.044366773 -0.37956759 0.81251746 -0.59076691 0.0070823696 0.80681115 0.00094164698
-0.08227665 -0.16967493 0.7757951 -0.61308151 0.29686424 0.73212206 0.015532382
-0.0071846107 -0.12820227 0.64119166 -0.021369247 0.99933165 -0.029659109 0.00084430136
-0.028063068 -0.12942557 0.67148978 -0.041712925 0.99904484 0.013018051 6.5108186e-05
-0.031485241 -0.12892981 0.62304091 -0.11959127 0.98943573 -0.081943043 0.0057081212
-0.13331851 -0.3870185 0.73113102 -0.812962 -0.038857821 0.58101881 0.0036839957
0.011723838 -0.35610887 0.84020257 -0.014014655 -0.055804361 0.99834341 0.033380095
-0.054788329 -0.27047259 0.80261767 -0.63224036 0.015208937 0.77462298 0.00027940341
-0.14313285 -0.2452919 0.7201426 -0.92624509 -0.02159662 0.37630269 0.040213808
-0.12745641 -0.33043119 0.73872781 -0.79926324 -0.026552461 0.60039431 0.008555701
-0.12720256 -0.16936098 0.73820907 -0.65888554 0.27140632 0.7015757 0.034197509
-0.12705177 -0.15466529 0.73719341 -0.55188137 0.56261081 0.61554533 0.044321276
-0.060127858 -0.17034137 0.79125893 -0.58664036 0.2651934 0.7651965 0.018937729
-0.045555934 -0.40984356 0.81173396 -0.58367634 -0.027087778 0.8115344 0.0020427566
-0.098493978 -0.13359427 0.70899564 -0.20336457 0.975591 0.0828555 0.011983697
-0.14007895 -0.20507783 0.72666758 -0.87250829 -0.00074714061 0.48859885 0.02675819
-0.098670326 -0.15705281 0.75769621 -0.5646404 0.46379861 0.68269461 0.03871249
-0.114617 -0.1853296 0.75183702 -0.65957183 0.086533695 0.74664378 0.0027528564
-0.13467208 -0.14475609 0.72337168 -0.51705295 0.80656278 0.28655329 0.059121761
-0.13673665 -0.14216708 0.71216482 -0.52008218 0.84670949 0.11223903 0.069859669
-0.14034851 -0.15884504 0.72073811 -0.82153052 0.39638701 0.40983534 0.094464518
-0.1190516 -0.32593134 0.74703449 -0.72707057 0.00029876429 0.68656272 0.0037513073
-0.14585765 -0.1557184 0.71998489 -0.83158582 0.42801151 0.35393658 0.098095462
-0.14187698 -0.36018687 0.71324921 -0.96404511 -0.059715118 0.25894225 0.024416108
-0.1492752 -0.2482546 0.70754385 -0.99340332 -0.065001898 0.094470218 0.040099915
-0.065826058 -0.4104875 0.7961964 -0.64715677 0.0073470189 0.76232153 0.00042125359
-0.15290354 -0.42439473 0.69370884 -0.98581338 0.1671353 -0.015419919 0.076629639
0.026688743 -0.12742989 0.65448862 0.012685263 0.99858636 -0.051617362 0.0011906993
0.02821159 -0.14035696 0.81618053 0.36385912 0.70443213 0.60941106 0.050754935
0.030239293 -0.34607634 0.829032 0.4587926 0.014715782 0.88842154 0.0208773
0.14117332 -0.41346204 0.70555693 0.85657656 0.086164333 0.50877517 0.024976434
0.030399187 -0.13227597 0.79723865 0.27848601 0.89255935 0.3546595 0.045480199
0.12247711 -0.16700849 0.72056282 0.78619885 0.24683201 0.56653792 0.023672353
0.14811231 -0.36317173 0.68250841 0.99928266 0.032351315 -0.0196891 0.065721683
0.095617123 -0.38945192 0.7593537 0.74261099 -0.031394519 0.66898668 0.00061547756
0.069250099 -0.1360974 0.76901382 0.48917153 0.7677483 0.41385239 0.05128552
0.14223289 -0.41381419 0.70433128 0.85458553 0.10476962 0.50863242 0.025919925
0.13317348 -0.24159046 0.71063596 0.91024739 0.018047772 0.41367126 0.019961426
0.11947073 -0.13664226 0.70939761 0.60575628 0.65228409 0.4556146 0.054430783
0.097119696 -0.34950528 0.75856823 0.74240792 0.019583613 0.66966182 0.00019943566
0.057229944 -0.13389345 0.78082138 0.46179187 0.76859069 0.44273773 0.047370534
0.15226035 -0.39789385 0.6845544 0.96218723 0.13721998 0.23530059 0.054965425
0.074647754 -0.39994654 0.7857309 0.79411066 -0.027917035 0.60713172 0.0019374087
0.026345577 -0.22482052 0.83473676 0.13219954 -0.031784452 0.99071336 0.037769493
0.13846712 -0.36111161 0.70479894 0.92567003 0.010862581 0.37817571 0.025021955
0.12658058 -0.22220537 0.71978164 0.86718899 0.032548241 0.49691421 0.0070088161
0.13664111 -0.23496836 0.70546424 0.92130661 0.029467274 0.38771883 0.017908888
0.13419107 -0.19646984 0.70637399 0.92809927 0.054128833 0.36837736 0.016505677
0.14615349 -0.32884809 0.68308014 0.99132079 -0.019140482 0.13006456 0.042279962
0.12424477 -0.15541415 0.71490765 0.78664738 0.34136456 0.51444739 0.038582232
0.1104007 -0.13307962 0.69308287 0.40868187 0.89668256 0.17011622 0.063046791
0.14870165 -0.29872844 0.6832605 0.99644947 0.061082616 0.057943538 0.043112177
0.12472693 -0.40700081 0.72726178 0.77467638 -0.0094730193 0.63228703 0.0016204705
0.13348481 -0.2723569 0.71150988 0.89756936 0.026301811 0.44008794 0.022783136
0.030474076 -0.38177794 0.82901013 0.35864195 -0.051591456 0.93204838 0.029568961
-0.059307363 -0.13123326 0.69130677 -0.068868428 0.99758524 0.0089888731 0.00041057877
0.011006461 -0.12880519 0.73784488 -0.036847617 0.99865854 0.036379308 0.00028773549
0.12193344 -0.16541205 0.7209518 0.77546537 0.27200136 0.5697971 0.026091356
0.14273261 -0.19979203 0.68438184 0.99883944 0.043630823 -0.02039938 0.04658683
0.11044703 -0.13220805 0.70583659 0.46005559 0.84645754 0.26806441 0.057093441
0.13885565 -0.31153449 0.70477539 0.89391488 0.0096517056 0.44813275 0.015360673
0.062759623 -0.12820551 0.6653496 0.10103913 0.98716056 -0.12371338 0.011101333
0.093860045 -0.13263442 0.65640122 0.23270753 0.93995541 -0.24966154 0.03594188
0.13026355 -0.39845076 0.72058868 0.82084072 0.023906318 0.5706566 0.0043599862
0.13577408 -0.19681059 0.70306206 0.93581676 0.058238655 0.34764254 0.015753407
0.017296635 -0.216913 0.83965731 -0.081567563 0.0078755803 0.99663669 0.032425541
0.016086282 -0.3790133 0.83753753 0.052620817 -0.01118421 0.99855191 0.034345753
0.14082552 -0.15797891 0.68153715 0.97326213 0.2193151 -0.068276949 0.071165211
0.022992544 -0.36708394 0.83676893 0.10673523 -0.063809462 0.99223781 0.038940892
0.13616349 -0.36620998 0.71087849 0.90738207 0.050548572 0.41725594 0.020446735
0.056688558 -0.40075234 0.8081333 0.72096562 0.032601651 0.69220352 0.0053933212
0.11315724 -0.3970125 0.74065137 0.75656754 -0.025241131 0.6534282 0.00076890882
0.0047250665 -0.12965322 0.74721926 -0.042051204 0.99837577 0.038437635 0.00033817074
0.053977389 -0.12771715 0.65926695 0.075378992 0.98713511 -0.14100461 0.010340446
0.1337681 -0.13666967 0.68797898 0.7747041 0.58113879 0.24922124 0.097966276
-0.0061031198 -0.1310554 0.78496915 -0.11953936 0.97947872 0.16227099 0.014588656
0.094226055 -0.12989429 0.66781336 0.19325766 0.96487468 -0.17795591 0.025973942
0.0007895017 -0.12816936 0.61083668 0.040217176 0.98779637 -0.15046921 0.0047027664
0.14200184 -0.20264295 0.68087882 0.99653858 0.082564682 -0.0096877236 0.045784339
0.060845621 -0.14445136 0.78393739 0.65850782 0.46262586 0.59358627 0.04769313
0.062011488 -0.14090391 0.78118753 0.6439392 0.51896435 0.56215495 0.055911951
-0.0087303882 -0.12945986 0.73581827 -0.054518636 0.99775344 0.038932208 0.00020446343
0.082661554 -0.12926181 0.66359836 0.14435664 0.9768405 -0.15793601 0.016975854
0.12712274 -0.25295991 0.71996456 0.87131882 0.032619022 0.48963207 0.008095718
0.054228701 -0.13446067 0.78417283 0.44716281 0.77289796 0.45019346 0.048938572
0.016619287 -0.13313003 0.80208844 0.16357051 0.91139603 0.37762666 0.055469759
0.046833333 -0.13310671 0.78070569 0.31085509 0.8930003 0.32545295 0.043788817
0.01433036 -0.18565494 0.83800519 -0.0027405538 0.085858233 0.99630362 0.046431143
0.028814113 -0.42560476 0.82808292 0.38799959 -0.056877758 0.9199028 0.013255562
0.046126723 -0.12898016 0.74755561 0.08601445 0.97385269 0.21026774 0.024440806
0.056657527 -0.1288866 0.74644679 0.12362759 0.96419424 0.23461807 0.032756135
0.0028788676 -0.13162744 0.60328561 0.1244844 0.95470822 -0.27025142 0.025481764
0.035858572 -0.13275759 0.79821903 0.35304111 0.8219679 0.44691244 0.046932261
0.11478158 -0.30016208 0.73636913 0.77804416 0.024737544 0.62772232 0.0006941575
0.078765891 -0.37042204 0.7795161 0.74978119 0.028577941 0.66106838 0.00058708375
0.062237728 -0.19354388 0.79096818 0.75120169 0.10119395 0.65226978 0.0012482302
0.076853216 -0.34057677 0.77895159 0.73705161 0.025856305 0.67534167 5.4283402e-05
0.081179947 -0.19480364 0.77047837 0.75264633 0.09752316 0.65116262 0.0020264238
0.11315763 -0.30121219 0.7377733 0.77470654 0.025709083 0.63179803 0.00065757683
0.080042079 -0.28096136 0.77661455 0.74567759 0.01953046 0.66602057 0.00035648581
0.09486784 -0.26783437 0.75664997 0.75254351 0.024906766 0.65807134 0.00014943701
0.11406454 -0.36260381 0.74008662 0.78269744 0.011760427 0.62229121 0.0014349748
0.087945066 -0.23349504 0.76413637 0.74915904 0.023930294 0.6619578 0.00013861139
0.10337219 -0.32683465 0.75025672 0.74386984 0.028824376 0.66770262 0.00014623615
0.10549962 -0.37492299 0.74982721 0.75306159 -0.0032963981 0.6579417 0.00051536178
0.075119883 -0.13416629 0.76216304 0.43003622 0.80386078 0.4109461 0.053601343
0.12434456 -0.3269203 0.72631806 0.82656121 0.027361359 0.56218135 0.0020762722
-0.038491599 -0.1305211 0.71286047 -0.049728934 0.99812347 0.035728376 0.00027284122
0.058888972 -0.13060908 0.75617129 0.17834257 0.95203429 0.24864566 0.033465166
-0.026077107 -0.1294051 0.68410528 -0.040882245 0.99901205 0.017425263 2.8212211e-05
0.062162671 -0.13683668 0.77765989 0.50903225 0.70954257 0.48727348 0.058929589
0.046112023 -0.12693651 0.69574863 -0.0029923748 0.99998677 -0.0041952035 0.00036349715
0.11755618 -0.25436357 0.73103052 0.79621017 0.014363349 0.60484958 0.0020588562
0.11834898 -0.13531989 0.69415766 0.48679718 0.84708756 0.21323934 0.078286752
-0.055221513 -0.13007692 0.66115594 -0.11591505 0.99186695 -0.052569583 0.0035788345
0.117325 -0.2510584 0.73147005 0.79109979 0.014676679 0.61151093 0.0024439408
-0.0077207689 -0.14064001 0.82633746 -0.23599128 0.7061792 0.66754711 0.097768009
-0.10184079 -0.13570109 0.72105432 -0.26993507 0.93063915 0.24707462 0.024947168
-0.04829469 -0.12980226 0.65280044 -0.12569894 0.99056804 -0.054541122 0.0037758248
0.0057056327 -0.12898447 0.73709488 -0.039892118 0.99857157 0.035545889 0.00026911247
0.075546488 -0.13055573 0.74723232 0.32639804 0.90165275 0.28370199 0.038965546
0.079197347 -0.33804408 0.77660394 0.73612434 0.02593522 0.67634922 7.8449077e-05
0.14728759 -0.31896093 0.68455887 0.99106008 -0.0027003421 0.13338915 0.040309649
0.1245511 -0.37119836 0.72702998 0.82877266 0.024312554 0.559057 0.0040503792
0.11757299 -0.22112842 0.73198068 0.78366458 0.024374448 0.62070578 0.0015148574
0.10345338 -0.24660081 0.74669307 0.75565892 0.012229481 0.65485102 0.00040897742
0.13153489 -0.28308386 0.71469504 0.88092369 0.017178249 0.47294647 0.013817021
0.1020599 -0.13201299 0.71901041 0.5123831 0.75660318 0.40622064 0.042835761
0.082270585 -0.13249615 0.74742967 0.39177802 0.87295818 0.29060951 0.036634691
0.064282231 -0.12661882 0.70938921 0.07506755 0.99663818 0.032820452 0.0028955659
0.13305396 -0.36528495 0.71611279 0.8784405 0.039350599 0.47622862 0.0090018623
0.053194303 -0.12738244 0.73788339 0.086081967 0.98324841 0.16066268 0.015237549
0.044800512 -0.12700644 0.71868747 0.012097061 0.99888033 0.045735352 0.0012569487
-0.074061692 -0.13318977 0.73251462 -0.17314623 0.96623534 0.19081289 0.01648071
0.079475746 -0.12692243 0.70061105 0.12978697 0.99109268 0.029842693 0.006803635
0.10439411 -0.13494474 0.65712702 0.36730593 0.83423817 -0.41125792 0.048181072
0.028312005 -0.12774229 0.70566308 -0.028234025 0.9995153 0.013118102 0.00016375013
0.049357828 -0.13382511 0.7864902 0.41087618 0.80909437 0.42017516 0.048845701
0.10250884 -0.13832298 0.7288546 0.54324067 0.75891966 0.35906902 0.042239163
0.0051827943 -0.13525894 0.81974834 -0.0086405855 0.89857745 0.43872994 0.068164535
0.05315388 -0.40320984 0.81330991 0.65268773 0.04675306 0.75618303 0.0076541486
0.058072507 -0.12842441 0.73975956 0.10873171 0.97531438 0.19219579 0.021715803
-0.018279815 -0.12909578 0.6935814 -0.042175453 0.99893439 0.018740173 2.8984374e-05
0.12965775 -0.13541643 0.67287904 0.58318847 0.80246723 -0.1262435 0.11588439
-0.070589885 -0.13116388 0.68719465 -0.092294455 0.99563003 -0.014233723 0.0014629295
0.14557357 -0.24817805 0.68673378 0.96330422 0.045564845 0.26451635 0.019707529
0.13074026 -0.22549786 0.71403241 0.88340104 0.035300683 0.4672862 0.0086168079
0.020123916 -0.27431631 0.83459753 0.2886939 -0.0083593279 0.95738494 0.029082639
0.056375578 -0.26276791 0.80143118 0.73782343 0.01124247 0.67490023 0.0005470289
0.0002989975 -0.127909 0.6332112 0.012214657 0.99819064 -0.05887473 0.0018514091
0.058343809 -0.12621148 0.7193206 0.067840911 0.99596828 0.058693003 0.003357501
