# .PCD v0.7 - Point Cloud Data file format
VERSION 0.7
FIELDS x y z normal_x normal_y normal_z curvature
SIZE 4 4 4 4 4 4 4
TYPE F F F F F F F
COUNT 1 1 1 1 1 1 1
WIDTH 580
HEIGHT 1
VIEWPOINT 0 0 0 1 0 0 0
POINTS 580
DATA ascii
0.2590951 -0.44355431 0.73198122 0.95925683 0.20297682 -0.19653711 0.12706003
0.12896299 -0.36487561 0.87362087 0.42371643 -0.017782129 0.90562034 0.016494725
0.22342871 -0.14285192 0.77630019 0.4191961 0.82608712 0.37663603 0.065743484
0.2168958 -0.4484497 0.60383862 0.093112729 -0.96889192 0.22930002 0.00036027189
0.23236345 -0.23856066 0.78618908 0.70584726 -0.0030745626 0.70835733 0.0041976301
0.21830964 -0.27013689 0.79395396 0.65983963 0.012254776 0.75130647 0.00079934445
0.16230826 -0.45204106 0.83940381 0.66656542 -0.053758517 0.7435056 0.0029252579
0.26281181 -0.36794141 0.75349051 0.98551071 0.078335524 0.15043992 0.041183211
0.25919175 -0.32747814 0.75377309 0.99391174 0.036459759 0.10397153 0.049189854
0.13200949 -0.23425433 0.8698591 0.58375502 0.019162115 0.81170368 0.0072731925
0.14560936 -0.25547481 0.85835445 0.62271553 0.021247383 0.78215975 0.0010189983
0.22120686 -0.1771863 0.79507995 0.62355381 0.2194353 0.75035238 0.027343486
0.10476129 -0.1533346 0.88131756 0.16674747 0.67120606 0.72227257 0.10093766
0.21404444 -0.36233631 0.80366868 0.6418106 0.002635509 0.7668587 0.0014401468
0.14986381 -0.38215882 0.85826212 0.58985728 -0.0032662894 0.8075009 0.0008330688
0.117108 -0.43284085 0.87855977 0.29197267 -0.068531021 0.95396829 0.024342323
0.12968795 -0.32464799 0.87215233 0.4751223 0.0097406739 0.87986583 0.0084813675
0.11786284 -0.30665049 0.88058627 0.31469318 0.00090432004 0.949193 0.034018189
0.21969704 -0.26876718 0.79288918 0.65941685 0.011854645 0.75168413 0.00070205145
0.086819299 -0.14739679 0.86488676 -0.11215985 0.95495164 0.27474996 0.040087249
0.14502388 -0.14800444 0.84322256 0.27766708 0.88393629 0.37624156 0.070020951
0.092383176 -0.14717263 0.8165791 -0.065977387 0.99744827 0.027275452 0.00061802182
0.25396353 -0.3770915 0.77274126 0.81433296 0.046974037 0.57849395 0.017329963
0.090148352 -0.14163277 0.63504332 -0.27684033 0.90645993 -0.3188884 0.064223722
0.092214443 -0.20366767 0.8894428 -0.21129818 0.016189635 0.97728753 0.058279008
0.1901904 -0.14196996 0.73446047 0.044744875 0.9967953 -0.066309921 0.0063718222
0.1699768 -0.14194424 0.74159306 -0.0024770752 0.99999124 0.0033532099 0.00034142847
0.10749299 -0.14291587 0.73065662 -0.041960988 0.99908125 0.008703053 0.00015749548
0.2354781 -0.28628039 0.78292257 0.74107075 0.01652896 0.67122352 0.0063611972
0.11332093 -0.29817802 0.88167149 0.28179073 -0.013322611 0.95938331 0.041621234
0.13692175 -0.15341428 0.86155486 0.52142119 0.50131315 0.69051069 0.053405795
0.14207861 -0.30188012 0.86168247 0.57226408 0.018715117 0.81985581 0.0013006512
0.16079861 -0.3012538 0.84896642 0.59633017 0.030584542 0.80215639 0.000800821
0.097192518 -0.45292279 0.8813777 0.01932184 -0.21409221 0.97662228 0.03428112
0.19765882 -0.43063256 0.8119871 0.593454 0.069320507 0.8018772 0.014018193
0.10257337 -0.23610604 0.88734972 -0.082160339 -0.086621277 0.99284762 0.062560439
0.22554806 -0.3691777 0.7953738 0.65164036 0.010844056 0.75845057 0.002038704
0.14696063 -0.23841423 0.85639757 0.62121433 0.039755743 0.78263164 0.001409546
0.015658781 -0.14692624 0.77300358 -0.18358921 0.9738757 0.13364507 0.036105998
0.054985702 -0.15163416 0.84133095 -0.2024643 0.96373343 0.17385629 0.039906729
0.030611683 -0.16372776 0.82759047 -0.56733358 0.60210007 0.56179011 0.093223788
-0.0065285568 -0.15947092 0.78205663 -0.58613169 0.67854083 0.44275504 0.061930127
0.091094688 -0.40424219 0.88406098 -0.09878806 -0.0370382 0.99441898 0.035549887
0.091501467 -0.17885591 0.88696516 -0.11827118 0.27933222 0.95288271 0.061594158
0.13432242 -0.27472439 0.86833775 0.55838442 0.010170412 0.82951999 0.0041659954
0.13141745 -0.18817315 0.86835718 0.6273421 0.16371156 0.76134115 0.019383516
0.10051557 -0.17604825 0.8873682 0.0033342144 0.27954757 0.9601261 0.062031023
0.098944649 -0.32892561 0.88617486 -0.031096812 -0.010596344 0.99946016 0.04452673
0.10674561 -0.17646751 0.88769662 0.12978724 0.29146081 0.94773722 0.054779574
0.1286862 -0.40728304 0.87408274 0.40781304 -0.039625775 0.91220522 0.013078236
0.10013044 -0.37333924 0.8853929 -0.0010912189 -0.0062230676 0.99998003 0.04366174
0.14963992 -0.409863 0.8577044 0.61070526 -0.015669972 0.79170293 0.0016281034
0.100725 -0.33382961 0.88556057 -0.029091431 -0.013419121 0.99948668 0.048512686
0.1143961 -0.33089608 0.88252521 0.23352908 0.016593114 0.97220826 0.031530708
-0.029585589 -0.14915669 0.72673047 -0.62152684 0.74227476 -0.25046492 0.10396399
0.17038564 -0.14200096 0.74157393 -0.0021949133 0.99999231 0.0032503316 0.0003462192
0.092507511 -0.14803815 0.86847049 -0.097289026 0.94964725 0.29783371 0.045793183
0.14514306 -0.14182483 0.66417438 0.092591763 0.99388003 -0.060243309 0.019073414
0.14665328 -0.14198709 0.66610986 0.077859811 0.99541879 -0.055490401 0.013408441
0.012689655 -0.14984916 0.69121891 -0.43518999 0.78850359 -0.43459383 0.076747127
0.094652042 -0.14709674 0.86709815 -0.092162915 0.95084083 0.29564825 0.044952523
0.14695019 -0.14198349 0.66653234 0.077890016 0.99542737 -0.05529641 0.013182525
0.070980608 -0.14371413 0.69616091 -0.051314235 0.99864411 -0.0087592499 0.0024200315
0.16920263 -0.14193507 0.73997033 8.9475143e-05 0.99996978 0.0077794967 0.00026517923
0.071308576 -0.14368035 0.69556892 -0.052402668 0.99859327 -0.0080911685 0.0024313161
0.072502173 -0.15651649 0.87437809 -0.43110263 0.6424188 0.6335997 0.087897412
0.093579024 -0.19806002 0.88936996 -0.15075421 0.039358836 0.98778749 0.045418631
0.085866272 -0.14493576 0.77030623 -0.055346061 0.99777329 0.037220296 9.7927681e-05
0.10566329 -0.14322038 0.68156666 -0.01162673 0.99963945 0.024202596 0.00025852397
0.16298775 -0.14180015 0.71914357 0.0079396153 0.9998883 -0.012664065 0.00094361563
0.24985485 -0.32247758 0.769508 0.82763284 0.00089958904 0.5612691 0.03302921
0.24911839 -0.26623949 0.77006167 0.79845512 0.044471797 0.60040957 0.019985205
0.26519525 -0.3920961 0.75303119 0.98957556 0.02984098 0.14088912 0.040648706
0.25643727 -0.14980471 0.76279885 0.63684458 0.68537968 0.3531056 0.12824026
0.26467311 -0.450187 0.76688826 0.75026125 0.21089152 0.62660426 0.099395208
0.24086826 -0.44112068 0.65395778 -0.33619556 -0.90105855 0.27398178 0.02708954
0.41682881 -0.43558609 0.71342939 0.13407521 -0.97818732 0.15866116 0
0.2618463 -0.29112932 0.7537083 0.97768873 -0.020441717 0.20906211 0.064665869
0.26111585 -0.18747443 0.75459057 0.9708643 0.028852575 0.23788676 0.084331341
-0.0011269838 -0.15060131 0.70115775 -0.33336294 0.83879912 -0.43044776 0.071397111
0.015351706 -0.15069567 0.80314392 -0.49943465 0.77452374 0.38817266 0.067565672
0.10977352 -0.14419037 0.78189671 -0.052129384 0.99785107 0.039695464 9.4745563e-05
-0.00027319658 -0.14717926 0.73874545 -0.21352677 0.97604662 -0.041704308 0.037378296
0.084384218 -0.1476572 0.82291627 -0.074007802 0.99662924 0.035397977 0.00089943211
-0.03140898 -0.15187435 0.72331423 -0.69422174 0.61877137 -0.3676658 0.099515267
0.038273215 -0.14482278 0.70854551 -0.17952737 0.981359 -0.068588279 0.026669873
0.049292427 -0.14602588 0.72751409 -0.039792396 0.99868864 0.032211773 0.00052894762
-0.018950934 -0.15263683 0.7588746 -0.52493227 0.80445987 0.27801159 0.048272692
0.0095908996 -0.14702672 0.70054948 -0.35581312 0.8644051 -0.35524771 0.077205896
0.11432297 -0.14499073 0.79418474 -0.051974315 0.9978953 0.038776748 0.00012245245
0.10396224 -0.30024678 0.88442421 0.13366437 -0.033232965 0.99046922 0.052428234
0.21125337 -0.14261965 0.78817111 0.40296596 0.81203836 0.4221518 0.061446827
0.07314375 -0.15086421 0.86556458 -0.17809878 0.93201011 0.31565484 0.047998384
0.17716905 -0.14325672 0.80926871 0.059983965 0.97264868 0.22440244 0.032473397
0.17005128 -0.1474922 0.8282544 0.21462198 0.87756795 0.42873287 0.060704585
0.16388258 -0.15032865 0.83538783 0.29835662 0.82659984 0.47719619 0.061074499
-0.0045125606 -0.14944008 0.75975436 -0.31174093 0.93153572 0.18724 0.032998633
0.085391067 -0.42938638 0.87901229 -0.37256417 -0.16471748 0.91327107 0.048080336
0.025849292 -0.15492223 0.82022494 -0.45713049 0.77227306 0.4411644 0.073621929
0.094338559 -0.14564945 0.79614639 -0.053345416 0.9978407 0.038316891 0.00010104106
0.10025461 -0.45422989 0.88254917 0.055115573 -0.24170013 0.96878445 0.042875338
0.14942223 -0.14186628 0.71040398 -0.015180472 0.9998821 -0.0023321516 0.00021059402
0.10447247 -0.14174718 0.65556943 -0.074974149 0.99601674 -0.048264224 0.015186116
0.023196548 -0.28131166 0.81526381 -0.78865469 0.043714896 0.61328042 0.00021292979
0.10514589 -0.14604871 0.6125598 -0.2257342 0.78987157 -0.5702166 0.079249583
0.018771136 -0.1502534 0.80700058 -0.43537706 0.83576143 0.33458865 0.067209519
-0.023921391 -0.14953132 0.7452907 -0.51628 0.84455216 0.14207968 0.080323085
-0.038240243 -0.32115749 0.74197805 -0.98602843 -0.0075595244 0.16640529 0.072038099
0.073653638 -0.15656896 0.87187028 -0.40876588 0.71183091 0.57114547 0.094382249
0.088408872 -0.15124413 0.87315315 -0.1113308 0.92203975 0.37074009 0.057175174
0.010323975 -0.14836708 0.77514231 -0.21751121 0.96330565 0.15726073 0.04254289
0.082150333 -0.36704651 0.87934887 -0.42197523 0.027914388 0.90617752 0.036372434
0.031234002 -0.15038714 0.67156166 -0.41220248 0.75550026 -0.50922328 0.084385969
0.10424034 -0.38320091 0.88630724 0.066893607 -0.0049037714 0.99774802 0.038450323
0.16358535 -0.14195704 0.73092926 -0.0049299272 0.99998409 0.0027501518 0.00027090029
0.021060223 -0.33281568 0.81615841 -0.76451439 0.0035574236 0.64459693 0.00058196246
0.072497062 -0.28515685 0.86820167 -0.57273209 0.018692238 0.81952935 0.015913978
0.080656528 -0.40375051 0.88003749 -0.3555373 -0.080192924 0.93121558 0.041352462
0.075239979 -0.31884298 0.87491071 -0.49394107 0.040321801 0.8685599 0.026071087
-0.038981747 -0.15635751 0.73758018 -0.81023425 0.58275437 -0.062592179 0.12979825
0.0017657138 -0.15287277 0.78783786 -0.47606254 0.80733645 0.34867215 0.053871822
0.010790125 -0.40910566 0.80598545 -0.77884459 -0.013354053 0.62707478 0.0015956237
0.00632487 -0.2990264 0.79438007 -0.76782638 0.014303031 0.6404984 0.00056998827
0.16889828 -0.14135756 0.68323141 0.14354357 0.9854759 -0.090732656 0.016649501
0.078059502 -0.14797145 0.85726249 -0.14526784 0.96872932 0.20114864 0.027748872
0.084551372 -0.28185433 0.87975538 -0.20152752 -0.044138283 0.97848779 0.033455588
0.050056152 -0.42663234 0.84736675 -0.71202666 -0.051365618 0.70027113 0.0019224102
0.056335859 -0.20011972 0.85211909 -0.7539826 -0.039070979 0.65573138 0.0050017722
-0.015960099 -0.14766715 0.71564919 -0.47023639 0.80841249 -0.35404372 0.072227769
0.01555323 -0.42150873 0.8089 -0.77419418 -0.025958113 0.63241571 0.0015017228
0.036720052 -0.26827773 0.83222413 -0.75923926 0.04276748 0.64940488 0.00039107655
0.082958005 -0.36190203 0.87958789 -0.40585291 0.015821757 0.91380143 0.038416203
0.066672623 -0.31325826 0.86585575 -0.60388279 0.03505449 0.7963019 0.01181022
0.089035779 -0.32831883 0.88359624 -0.31706816 0.0095303655 0.94835484 0.040462598
-0.038529932 -0.39697453 0.72517681 -0.93567938 0.14100803 -0.32345143 0.058165945
0.37171078 -0.44346148 0.78080392 -0.16462672 -0.96641988 -0.19730833 0.010811355
-0.019276261 -0.31788942 0.76682043 -0.83883047 0.0053396197 0.54436654 0.011666217
0.25957918 -0.44417205 0.96513575 -0.0056243651 -0.98829561 -0.15244733 0
0.054900918 -0.33552501 0.85274512 -0.71996439 -0.014979218 0.69384933 0.00085573847
0.086884543 -0.43286932 0.87868077 -0.34029302 -0.18332304 0.9222762 0.047840588
0.083686009 -0.20543708 0.8848784 -0.44891083 -0.028761821 0.89311355 0.031751551
0.066490993 -0.14629585 0.75133234 -0.045554847 0.99842602 0.032712996 0.00023490684
0.063708968 -0.35378024 0.86199504 -0.69180977 0.0060302624 0.7220546 0.0043479395
0.054002963 -0.31934497 0.85273129 -0.71751809 0.001406471 0.69653839 0.00088455976
0.033332076 -0.36612305 0.8283897 -0.73736525 0.0057323826 0.67547005 0.00022543335
0.035064474 -0.29869148 0.83287209 -0.7603783 0.012727254 0.64935577 0.00055013306
0.071615472 -0.39489034 0.87238842 -0.58707929 -0.016247278 0.80936635 0.014733638
0.031019205 -0.41393292 0.82760721 -0.74151456 -0.011754338 0.67083383 0.0012256689
0.085976377 -0.41756579 0.88064772 -0.3127121 -0.10500295 0.94402623 0.036761768
-0.025484262 -0.15961476 0.75999564 -0.62916809 0.69667387 0.34466353 0.073808081
0.33261529 -0.4371472 0.80006641 0.021378959 -0.9559052 0.29289606 0.0027410788
-0.00056295848 -0.18984453 0.79198891 -0.80204576 0.14738317 0.57879251 0.034657396
-0.038611975 -0.17399663 0.74849516 -0.93551439 0.27421328 0.22275531 0.098931909
0.031165389 -0.39366081 0.8273347 -0.74084806 0.010153307 0.67159593 0.00042786048
-0.022668768 -0.33303076 0.76432431 -0.87725323 -0.031318855 0.47900507 0.019488269
0.0423312 -0.32129979 0.83999556 -0.74392694 -0.010347153 0.66818082 0.00022921887
0.0052716807 -0.29847133 0.79311186 -0.76741397 0.014816401 0.64098066 0.00061293779
0.1917612 -0.14394371 0.80828786 0.22451204 0.90969312 0.3493605 0.036507163
0.040271036 -0.28420585 0.83717078 -0.73884284 0.031079186 0.67316073 0.00071263761
0.22062437 -0.13966507 0.74996513 0.21645667 0.97604138 -0.022130318 0.038385093
0.29921174 -0.44411308 0.96334136 -0.005450279 -0.98816979 -0.15326673 0
-0.038195938 -0.30316499 0.73058611 -0.97968614 0.11728255 -0.16266459 0.082264058
-0.0093414299 -0.37627214 0.77761281 -0.79318297 -0.012964381 0.60884529 0.00070056348
-0.021586254 -0.43141142 0.75900483 -0.84598452 -0.092266098 0.52516389 0.0080166068
-0.031895511 -0.38137627 0.75010616 -0.97301203 -0.013646473 0.23035048 0.053516805
0.07524059 -0.16983947 0.87825412 -0.45536268 0.33938813 0.82307994 0.053968959
-0.016418602 -0.27371955 0.77114534 -0.79182106 -0.0098233884 0.61067414 0.0094712516
0.080285862 -0.37267482 0.87829155 -0.47704363 0.034534466 0.87820077 0.031914104
0.041848339 -0.37037 0.83731532 -0.73886514 0.0098643852 0.6737811 0.000286736
-0.0001292533 -0.32357883 0.78703815 -0.76549011 0.023957888 0.6430015 0.00048363893
-0.011927829 -0.17470072 0.78167546 -0.72718501 0.34817144 0.59158993 0.060030006
-0.03647067 -0.1834967 0.75135654 -0.94952554 0.10525339 0.29550457 0.065530322
-0.04064627 -0.23700681 0.7363084 -0.95383406 -0.12889436 -0.27126896 0.063773848
0.013378201 -0.39179882 0.81027228 -0.76232648 -9.5551535e-05 0.64719266 0.0010007648
0.026776571 -0.14859828 0.80544376 -0.21685779 0.95138144 0.21873741 0.040928297
0.096450932 -0.20566069 0.8901394 -0.10087266 -0.0031697829 0.99489433 0.059768461
-0.036565281 -0.26140305 0.73672545 -0.99648696 -0.046388954 -0.069726743 0.068398379
0.0301005 -0.35093305 0.82491612 -0.7447015 -0.0013943235 0.66739625 0.00044756045
0.015299524 -0.26942214 0.80560035 -0.77070129 0.021694245 0.63682711 0.00045727281
-0.031279907 -0.15178761 0.72324371 -0.69422174 0.61877137 -0.3676658 0.099515267
-0.039686128 -0.22974032 0.73307496 -0.92483437 -0.11839651 -0.36147425 0.040273983
0.020834064 -0.15161285 0.6819427 -0.48530692 0.73666126 -0.47096443 0.083337523
0.10520013 -0.14469655 0.85516757 -0.020868229 0.97493732 0.22149897 0.037979271
0.11852213 -0.14483094 0.79568017 -0.048761863 0.9979443 0.041585855 0.00020964711
-0.0063477275 -0.3469412 0.78231937 -0.76796561 -0.00053859968 0.64049089 0.00072970521
0.052568998 -0.36844957 0.8494519 -0.7304107 0.0041769529 0.68299544 0.00077244028
0.064337626 -0.34735921 0.86216831 -0.69024438 -0.00060330285 0.72357607 0.0042703212
0.051097214 -0.31228635 0.84997851 -0.72545594 0.0069901245 0.68823302 0.00051995512
0.067979649 -0.35176259 0.86674106 -0.62607569 -0.006317779 0.77973664 0.0099585308
-0.0078290915 -0.42928874 0.77756631 -0.80521041 -0.040017355 0.59163743 0.0010264791
-0.039970178 -0.42398891 0.72220236 -0.91589105 0.14763124 -0.37329426 0.081300892
-0.00032969489 -0.42883751 0.78682643 -0.80583537 -0.044692218 0.59045064 0.001000448
0.036312364 -0.14700571 0.79385865 -0.11752407 0.98493755 0.12683116 0.023401132
0.0030681966 -0.41204828 0.79511517 -0.79540229 -0.040289201 0.60474128 0.0012105441
0.070677899 -0.36758417 0.87070465 -0.59390324 0.0067227888 0.80450833 0.015663814
0.062959045 -0.31508785 0.86181915 -0.64810944 0.026754009 0.76107717 0.0051887408
-0.0049360096 -0.42049518 0.78269464 -0.80728287 -0.037113678 0.58899653 0.00099764543
0.0073609408 -0.18098068 0.80231905 -0.78698546 0.2301891 0.57242197 0.048456356
-0.020994823 -0.29110661 0.76431966 -0.81932884 -0.013224347 0.57317132 0.010093734
0.066904515 -0.20123585 0.86516559 -0.65871394 -0.040808849 0.75128597 0.01067836
0.008984576 -0.15297689 0.80081588 -0.54654586 0.74336839 0.38560471 0.067205042
0.11353445 -0.14473018 0.78845656 -0.052028794 0.99790752 0.038386501 8.9571404e-05
0.032471977 -0.33613151 0.82757622 -0.75131798 -0.015039369 0.659769 0.00045631584
0.0056157042 -0.35078675 0.7971977 -0.76070529 0.020751022 0.64876574 0.0005437542
-0.024085376 -0.31297567 0.7615965 -0.86843008 -0.034126818 0.49463582 0.020022096
0.020200336 -0.3141453 0.81461245 -0.77334636 0.013461488 0.63384074 0.00047052582
0.19431837 -0.14348346 0.69317436 0.17565979 0.9716925 -0.15797877 0.018948341
0.061914556 -0.20101038 0.85838795 -0.72515446 -0.048854634 0.68685102 0.0042814361
-0.045152601 -0.4368332 0.72459924 -0.95809102 0.14097863 -0.24937253 0.11390048
0.03972441 -0.28967938 0.83720326 -0.74234259 0.028727083 0.66940439 0.00077431899
-0.041048329 -0.17584643 0.73988265 -0.9543758 0.24464533 -0.17121735 0.089453205
-0.032888345 -0.22734864 0.75464076 -0.93495923 -0.065641195 0.34862947 0.062459003
0.063383698 -0.39971355 0.86316311 -0.67920494 -0.023240656 0.73358053 0.0044330992
0.090061352 -0.24897523 0.88403016 -0.26268074 -0.083959483 0.96122301 0.03165647
0.015560162 -0.29965204 0.80754048 -0.77810955 0.018401254 0.627859 0.00026500141
0.090615436 -0.40351871 0.8839798 -0.11166191 -0.027362455 0.99336952 0.035799295
-0.018723536 -0.29239672 0.76681942 -0.81432927 -0.0076554343 0.58035266 0.0092732217
0.056047365 -0.2863512 0.85279322 -0.71519625 0.028983578 0.69832247 0.00062990695
-0.037901521 -0.32842642 0.74132341 -0.98147428 -0.020427197 0.19050185 0.069108337
0.097424969 -0.14461932 0.77851081 -0.055352993 0.99770164 0.039083119 7.4966818e-05
0.10171888 -0.2431397 0.88761908 0.036307331 -0.11388181 0.99283069 0.048539657
0.071441546 -0.16355497 0.87630332 -0.49005616 0.39703417 0.77602118 0.062787928
-0.021095302 -0.2831032 0.76356953 -0.83839577 0.016043058 0.54482585 0.018394126
0.013282543 -0.27552274 0.80305368 -0.76952672 0.023478499 0.63818288 0.00050428818
0.072752416 -0.14582746 0.76075387 -0.05281765 0.99810928 0.031436421 0.00014989037
-0.0090585221 -0.3485955 0.77856338 -0.7669028 -0.0023318948 0.64175898 0.00066139578
-0.039130505 -0.39338174 0.72829586 -0.94084698 0.1397045 -0.30869022 0.057038829
0.069089755 -0.38936645 0.870215 -0.62468261 -0.0024825798 0.78087485 0.010853032
0.082986608 -0.25207943 0.87913501 -0.47058877 -0.040518906 0.8814218 0.031043617
0.078960761 -0.30914044 0.87659174 -0.4333353 0.009518628 0.90118247 0.037583053
-0.039791293 -0.43473169 0.72126257 -0.90515375 0.20449384 -0.37266466 0.096660376
0.050787408 -0.32783148 0.84859854 -0.73035538 -0.0061083352 0.68304002 0.00056656962
0.060339943 -0.39928856 0.859631 -0.68578678 -0.026364235 0.72732484 0.0034639274
0.046128433 -0.32013118 0.84477443 -0.73251384 0.00057388545 0.68075192 0.00045480055
0.062157851 -0.1464974 0.7447108 -0.040386874 0.99858153 0.034695551 0.00024148975
-0.0037122106 -0.16991435 0.79222238 -0.74586993 0.42044845 0.51662481 0.070651107
0.020021498 -0.26429817 0.81158257 -0.76995164 0.021085117 0.63775378 0.00035471102
0.048764691 -0.42320591 0.84678459 -0.72469181 -0.038911421 0.6879735 0.0015739981
0.082822748 -0.30700323 0.87947851 -0.35539731 0.022820698 0.93443668 0.04874054
0.076423474 -0.23730628 0.87583917 -0.54896444 -0.017311597 0.83566636 0.025807636
-0.029550778 -0.34978658 0.7540251 -0.93331432 -0.044375841 0.35630757 0.036281969
0.034068864 -0.27970281 0.82994092 -0.7666117 0.030529676 0.64138478 0.00039061779
0.048381582 -0.21092221 0.84297752 -0.74461597 -0.02846601 0.66688585 0.0015053824
0.00096333725 -0.23699062 0.7873773 -0.72792667 -0.01441495 0.68550342 0.0011515566
0.074853562 -0.14679514 0.63542885 -0.45999593 0.7149595 -0.52653283 0.080623545
0.053565472 -0.14803015 0.80149603 -0.084400117 0.99208605 0.092961304 0.010308471
-0.037653189 -0.15471189 0.73727548 -0.76586193 0.64055437 -0.056085289 0.13016351
-0.028525027 -0.16263045 0.75943792 -0.66080874 0.65824187 0.36062375 0.0780048
0.083965629 -0.14364558 0.69220483 -0.021781145 0.99954301 0.02096164 0.00037952405
0.03457265 -0.34490418 0.82921702 -0.74153298 -0.013861219 0.67077315 0.00027347906
0.17441332 -0.14158104 0.77866215 -0.0015660807 0.99816173 0.06058611 0.0053577702
0.0075850878 -0.15488349 0.80168235 -0.59081733 0.68041706 0.43355224 0.066735223
0.041655995 -0.15253448 0.65800685 -0.49339062 0.69021499 -0.52930999 0.069236383
0.081913248 -0.24005367 0.87952548 -0.50837588 -0.045055054 0.85995579 0.028379411
0.034440186 -0.33192784 0.83047032 -0.74769986 -0.014175795 0.66388559 0.00021247013
0.069528252 -0.32294795 0.87002194 -0.54822701 0.023906382 0.83598781 0.017591929
-0.013478236 -0.3385556 0.7734161 -0.78418213 0.0043706829 0.62051523 0.0026639625
0.054943949 -0.14564499 0.65753901 -0.37465376 0.83084267 -0.41150326 0.064979777
0.079265229 -0.35338423 0.87744874 -0.4872365 -0.0038198186 0.87326175 0.026812965
-0.041242853 -0.18235348 0.73298144 -0.91681337 0.16866131 -0.36194849 0.055925846
0.085332535 -0.32491359 0.88173777 -0.39506957 0.032517105 0.9180755 0.035815742
0.068461262 -0.15036915 0.86089462 -0.18734887 0.95977271 0.20913307 0.027527625
-0.017567713 -0.15089062 0.71187979 -0.55975413 0.67981058 -0.47384897 0.068201333
0.010509986 -0.40754738 0.80585927 -0.77735955 -0.0053926362 0.62903351 0.0015822246
-0.008979883 -0.31507695 0.77726132 -0.77221066 0.017393574 0.63512856 0.00082233065
-0.0060170395 -0.21847194 0.78164798 -0.71942151 -0.059950374 0.69198167 0.0017021029
-0.022909513 -0.42244735 0.75582755 -0.86681741 -0.10917124 0.4865278 0.017013704
-0.031210251 -0.36908492 0.74957377 -0.97202659 -0.032830764 0.23256516 0.050823141
-0.017939331 -0.18252933 0.76936394 -0.73564702 0.25438425 0.6277836 0.04699564
0.037086282 -0.39778921 0.83355176 -0.7417028 0.010009382 0.670654 0.00035651025
0.091226786 -0.31916085 0.88550407 -0.16988967 0.032524377 0.98492616 0.054548722
0.030337965 -0.19774172 0.82332814 -0.70893145 0.052895252 0.703291 0.0090967035
0.11904171 -0.14254788 0.71781498 -0.028618483 0.99958998 -0.00094101235 8.078762e-05
0.075433977 -0.30418062 0.87362117 -0.47185254 -0.00035982163 0.88167739 0.028685831
0.1331757 -0.14240123 0.66629946 0.04231992 0.9987849 -0.025252115 0.0049473615
0.15933388 -0.14219034 0.64592308 0.27392069 0.90318274 -0.33049724 0.066584498
0.11050031 -0.14539534 0.85981315 0.073884211 0.95227212 0.29617372 0.069695823
0.24926147 -0.44535658 0.9733845 -0.010926333 -0.98773462 -0.15575922 4.9012953e-05
0.058978319 -0.14752804 0.78310901 -0.043320511 0.99795896 0.046917766 0.00077218219
0.091997802 -0.14717352 0.83411467 -0.075011946 0.99555963 0.056869604 0.0026847136
0.035471119 -0.3843908 0.83117765 -0.73610193 0.011705411 0.6767695 0.0002909349
0.05573751 -0.34611678 0.85329396 -0.72098631 -0.014795309 0.6927914 0.0009257705
0.15951528 -0.14229918 0.79971278 0.0002363535 0.98850787 0.15116963 0.01749243
0.22992618 -0.14427194 0.73254973 0.3674483 0.90073615 -0.23163769 0.035984207
0.23064874 -0.14671716 0.72685105 0.42057103 0.85242969 -0.31061816 0.038821619
0.1848385 -0.14274277 0.75632757 0.00052287232 0.99999678 0.0024793744 0.0011138365
0.22307099 -0.14381339 0.7806322 0.42519072 0.81187212 0.40009546 0.06656637
0.25325099 -0.44683489 0.98245651 -0.01305773 -0.97938359 -0.20158689 0.00012464641
0.14900655 -0.14354862 0.82638574 0.10670734 0.96640581 0.23382366 0.048648775
0.11305612 -0.14560871 0.85930789 0.091196232 0.94359994 0.31828037 0.069388576
0.037722327 -0.37584153 0.83308142 -0.73691106 0.01326442 0.67585957 0.00021785971
0.078635134 -0.21266867 0.87894797 -0.54326397 -0.034844045 0.83883858 0.031319235
0.048392929 -0.14453903 0.66962069 -0.30890891 0.90925235 -0.27899003 0.05983904
0.12337442 -0.14664133 0.84859842 0.11600292 0.97061056 0.21085157 0.056482177
0.0074583269 -0.14816524 0.74363416 -0.12712829 0.99119145 0.037121378 0.012635603
0.10453034 -0.14082973 0.64961922 -0.10870052 0.98815906 -0.10828642 0.030034255
0.17734922 -0.14239132 0.75132579 -0.012978223 0.99986178 -0.010387893 0.000462153
-0.03792055 -0.30692995 0.72988671 -0.98380435 0.10620297 -0.14439504 0.081801385
-0.019310847 -0.40838584 0.70152074 -0.69546407 0.095620729 -0.71217024 0.0063293041
0.04524472 -0.14631277 0.72841775 -0.040031705 0.99880248 0.028126003 0.00063066417
-0.040472072 -0.22208767 0.73535997 -0.94092923 -0.11234077 -0.31942385 0.0411902
0.06537874 -0.32266903 0.63033766 -0.62329954 0.041376479 -0.78088778 0.00088978425
-0.043131046 -0.45370486 0.71166158 -0.69936609 0.23157491 -0.67621005 0.019583803
-0.055169839 -0.44794145 0.71490455 -0.60572612 0.34265846 -0.71810937 0.024245316
0.071043149 -0.18889979 0.63184059 -0.65794206 0.064425021 -0.75030768 0.0070266882
0.016914587 -0.14825711 0.69348246 -0.39912891 0.8358947 -0.37679717 0.078646496
-0.01697321 -0.18534626 0.70780045 -0.69627637 0.097284645 -0.71115041 0.013086435
-0.01611436 -0.3590672 0.70143193 -0.69361639 0.059562281 -0.71787781 0.003243773
0.046735432 -0.44351265 0.63173145 -0.65228778 0.077428713 -0.75400633 0.0026943116
-0.039719209 -0.18707699 0.73127931 -0.9235068 0.13512622 -0.35899323 0.053111658
-0.018152602 -0.25683051 0.70973253 -0.71674621 -0.030876087 -0.69665015 0.0091848634
0.092427425 -0.33719909 0.61065185 -0.50199068 0.0078549581 -0.86483735 0.0077546476
-0.03534938 -0.22383626 0.72624755 -0.8187204 -0.061839093 -0.5708527 0.025592737
0.19156535 -0.1404755 0.78321719 0.081038907 0.99030161 0.11285158 0.026382923
-0.028429421 -0.23458509 0.71686548 -0.75885922 -0.05575924 -0.64886326 0.026736967
0.039787982 -0.15046832 0.66333044 -0.45923138 0.72667676 -0.51092803 0.074177742
-0.022740502 -0.45334601 0.69656217 -0.68974245 0.20999674 -0.69293338 0.013700071
-0.039699189 -0.2032277 0.73078269 -0.87459362 0.017133018 -0.4845539 0.032808736
0.025804507 -0.14608821 0.71591413 -0.18415979 0.97582752 -0.11766829 0.040918734
0.096356012 -0.24376509 0.6084798 -0.56427503 0.045067646 -0.8243559 0.008169869
0.10024655 -0.15425068 0.60718328 -0.42467612 0.44719455 -0.78718942 0.065432504
0.078023545 -0.17477296 0.62491304 -0.63690037 0.23493873 -0.73427624 0.035197668
0.0076243724 -0.17458206 0.68735015 -0.5862987 0.29336572 -0.75510955 0.055764828
0.10226508 -0.27718297 0.59949553 -0.36325178 0.040118881 -0.93082684 0.030550398
0.061866734 -0.37801692 0.62966734 -0.61104691 0.030512568 -0.79100615 0.00063736277
-0.03018852 -0.36880633 0.7148363 -0.86670011 0.037990913 -0.49738073 0.035665244
0.070771597 -0.31175467 0.62703812 -0.63266939 0.026232265 -0.77397758 0.00073040096
-0.015139679 -0.38303655 0.69888914 -0.70796257 0.052103721 -0.70432532 0.0050664288
0.004532849 -0.34328794 0.68556893 -0.66631484 0.051373243 -0.74389869 0.00050487655
0.078326456 -0.37943763 0.61906612 -0.57703817 0.050513607 -0.8151536 0.0010422934
0.22997679 -0.14412235 0.73296499 0.3674483 0.90073615 -0.23163769 0.035984207
0.05671417 -0.15262534 0.64452583 -0.52205437 0.57904828 -0.62622869 0.064185277
0.033690859 -0.16476251 0.66150403 -0.59137666 0.40061298 -0.6998449 0.069604591
-0.027945347 -0.21649313 0.71616429 -0.74725556 -0.010397827 -0.66445535 0.018963262
0.10249655 -0.20473039 0.60292011 -0.44450194 0.0020002476 -0.89577562 0.037437718
0.014218112 -0.16673461 0.68193394 -0.59567422 0.40378821 -0.69435394 0.069025613
0.089826338 -0.25578898 0.61281258 -0.59373015 0.039936077 -0.80367255 0.0043416647
0.062219456 -0.38722789 0.62968159 -0.61564463 0.027581671 -0.78754109 0.0006869447
0.022908844 -0.34428456 0.6678558 -0.69897288 0.048342284 -0.7135123 0.00048813556
0.0690616 -0.42387325 0.6225304 -0.61813122 0.062601164 -0.78357822 0.0010831481
0.1325423 -0.14282018 0.77038503 -0.038395133 0.99895322 0.024867687 0.00025426797
0.11709109 -0.14555606 0.80411887 -0.047399834 0.99777037 0.046983264 0.00030498221
0.059983741 -0.14734526 0.7795009 -0.039075401 0.99852651 0.037655849 0.00049308577
0.17956196 -0.14338632 0.8097133 0.091011092 0.96284384 0.25426123 0.03371172
0.042403579 -0.22096151 0.65812594 -0.66798371 0.006027706 -0.74415147 0.00077169249
0.012401402 -0.258147 0.68425101 -0.66993743 0.041109819 -0.74127853 0.00079626619
0.085988656 -0.2096985 0.61912507 -0.61085927 0.0076430775 -0.79170233 0.0040880288
0.10026635 -0.39013669 0.60093075 -0.45722735 0.054501746 -0.88767827 0.014264391
0.077577502 -0.36800912 0.6194911 -0.5781185 0.042423874 -0.81484926 0.0010674525
-0.035885267 -0.35276076 0.73068982 -0.96733832 -0.03594505 -0.25092736 0.047583014
0.0031733634 -0.16025564 0.69065857 -0.50857347 0.54069793 -0.67007381 0.079695649
0.024406424 -0.18231063 0.67178005 -0.6197077 0.18659069 -0.76232952 0.030280452
0.062004108 -0.41792813 0.62815726 -0.64238364 0.057283621 -0.76423943 0.0014583431
0.0079366704 -0.18271106 0.68745035 -0.63684076 0.17390883 -0.75112545 0.037635613
0.10585218 -0.25744462 0.598378 -0.39651516 0.032197785 -0.91746336 0.025954388
-0.040670637 -0.22416961 0.73539591 -0.93721002 -0.11870626 -0.32794216 0.039798111
0.061251625 -0.19221936 0.64109653 -0.65804118 0.0033464318 -0.75297445 0.0024965378
0.20124415 -0.14147156 0.72388309 0.10590106 0.98740125 -0.11757476 0.016597895
0.10375865 -0.40413767 0.59698236 -0.3628532 0.00037129142 -0.9318462 0.028164778
-0.028003898 -0.26248193 0.7195273 -0.80555052 -0.019092564 -0.59221935 0.035393961
-0.040186506 -0.45024228 0.72186977 -0.92034501 0.30410603 -0.24593617 0.15471084
0.051685147 -0.2591224 0.64531237 -0.66852117 0.059401534 -0.74131697 0.00024429132
0.036596984 -0.43272758 0.64878982 -0.67407584 0.052964456 -0.73676091 0.0019040084
0.069333054 -0.23411095 0.63381785 -0.66475266 0.038593672 -0.74606591 0.00052977004
0.01871375 -0.36415741 0.67052174 -0.68858451 0.045665931 -0.72371674 0.00065993727
0.12081684 -0.43364829 0.59084034 0.024005547 -0.033839032 -0.99913895 0.044797365
-0.016025426 -0.45152041 0.69185448 -0.66648227 0.18301763 -0.72270733 0.008884239
0.080199905 -0.19146007 0.62379527 -0.65077561 0.041169479 -0.75815308 0.0036234858
0.0633737 -0.27523205 0.63385773 -0.65925181 0.043673635 -0.75065279 0.0002920797
-0.029987024 -0.20684978 0.71706665 -0.76720411 0.0018387445 -0.64140052 0.023837261
0.016928323 -0.15298626 0.68335092 -0.49664646 0.68005592 -0.53932017 0.08376544
0.072504565 -0.16815953 0.62849426 -0.61408961 0.33502415 -0.71459973 0.056238856
0.019071199 -0.16353856 0.67697579 -0.61197621 0.43819591 -0.65838391 0.065234646
-0.020995254 -0.22241759 0.71002185 -0.71375895 -0.033637855 -0.69958305 0.011686029
-0.038441528 -0.19362335 0.72773582 -0.88913995 0.06935408 -0.4523496 0.039347883
0.15316938 -0.1420936 0.67393726 0.072222784 0.99473244 -0.072741717 0.012705045
0.084251277 -0.14211552 0.64131069 -0.31622848 0.88438374 -0.34331465 0.079769053
0.075598054 -0.3592566 0.62063193 -0.58362007 0.037299313 -0.8111698 0.000779733
0.10557558 -0.38757375 0.59774566 -0.37589186 0.074406438 -0.92367142 0.017690623
0.036624536 -0.37279907 0.6509738 -0.68850154 0.041615892 -0.72403985 0.00068589521
0.050194755 -0.36701402 0.63881195 -0.64133203 0.044524368 -0.76597053 0.0014154892
0.11583279 -0.14616987 0.84462583 0.046986274 0.99291754 0.10911961 0.024115231
0.06731233 -0.35370907 0.62506253 -0.59818047 0.034380846 -0.80062348 0.00050722877
-0.0048729382 -0.15348154 0.69921124 -0.42509079 0.70826149 -0.56361639 0.066492409
0.082161494 -0.22768262 0.62300688 -0.64895201 0.028346181 -0.76030111 0.0014008362
0.06578292 -0.25000995 0.63395643 -0.66284245 0.056978062 -0.74658775 0.00018681157
0.046473783 -0.1510427 0.65530896 -0.47318423 0.7007165 -0.53394115 0.06134893
0.011488373 -0.29192185 0.68057263 -0.68160474 0.045477301 -0.73030603 0.00030494525
0.107912 -0.1987032 0.59926313 -0.38916263 0.0014681845 -0.92116791 0.043446206
0.030562734 -0.15816081 0.66668111 -0.5581398 0.49935114 -0.66266763 0.080800995
-0.022896376 -0.40010637 0.70483154 -0.72325832 0.072593682 -0.68675143 0.011011021
0.038367897 -0.40816748 0.64929825 -0.67920262 0.03444365 -0.73314214 0.0016904213
0.034839343 -0.40042579 0.65183771 -0.68770486 0.03924074 -0.72492903 0.0012570008
0.10710706 -0.14428489 0.61726993 -0.12810579 0.87430936 -0.46815807 0.071652524
0.023021661 -0.14459252 0.70170397 -0.29287454 0.92275685 -0.25048822 0.060829572
0.060792964 -0.14323902 0.69444799 -0.10135941 0.9924522 -0.069028258 0.013621447
0.11715522 -0.19740807 0.59554994 -0.19759226 0.0030923134 -0.98027939 0.066044718
-0.0095563959 -0.14859582 0.71144474 -0.34491077 0.86797339 -0.35729384 0.058417279
0.09857095 -0.20119472 0.60644382 -0.48029482 0.0098646916 -0.87705159 0.027926253
0.088827983 -0.42372325 0.6060462 -0.51606381 0.031179938 -0.85598242 0.0064752321
0.05216068 -0.14800574 0.8014192 -0.083542898 0.99190843 0.095594518 0.010195401
0.14546482 -0.14718424 0.83378655 0.17642203 0.94947523 0.25956115 0.058181442
0.11117404 -0.14463834 0.78779566 -0.052945208 0.99786174 0.038323704 9.2670314e-05
0.092000023 -0.14488091 0.77782446 -0.054838032 0.9977411 0.038800925 7.9099729e-05
0.028315715 -0.14654593 0.76403791 -0.072671503 0.99580002 0.055688255 0.007804641
0.035799518 -0.14440736 0.69276732 -0.27687746 0.93806261 -0.20827246 0.061438173
0.093931653 -0.20939659 0.61221582 -0.55347222 0.011958349 -0.83278179 0.015864627
0.01479547 -0.35314533 0.67530191 -0.68476176 0.053091079 -0.72683048 0.00083716086
0.044024978 -0.14728272 0.75126445 -0.033488106 0.99893874 0.031624109 0.00031532827
0.036109596 -0.4178836 0.65128362 -0.67743832 0.034906704 -0.73475087 0.0020107832
0.04943065 -0.42648426 0.63680178 -0.6691978 0.049657058 -0.74142331 0.0023285078
0.10953245 -0.28947389 0.59716123 -0.3120836 0.028442889 -0.94962883 0.031612147
0.053644385 -0.39114642 0.63589948 -0.63589692 0.019288458 -0.77153295 0.0011781376
0.10802931 -0.15894166 0.60195804 -0.3604919 0.37215564 -0.85530454 0.063941717
-0.024472158 -0.15326543 0.75307047 -0.56225055 0.78141844 0.27066484 0.066155262
-0.019829387 -0.23558244 0.7092973 -0.69856894 -0.035069745 -0.71468282 0.0088723162
-0.016810171 -0.15117764 0.71040857 -0.57287216 0.63031578 -0.52394611 0.064181387
0.092741653 -0.19234474 0.61232734 -0.54890335 0.037861731 -0.83502799 0.015405689
0.052938942 -0.20339517 0.64897865 -0.65846825 -0.034949295 -0.7517966 0.00053565158
0.096264519 -0.20923424 0.60970026 -0.5046947 0.035613757 -0.86256301 0.026514634
0.12198512 -0.21515693 0.59432065 -0.15301114 0.061181404 -0.98632878 0.0681272
0.1174011 -0.16318502 0.59705323 -0.12490346 0.33840343 -0.93267477 0.073395088
0.045036335 -0.14348023 0.67865849 -0.25216952 0.93967527 -0.23112951 0.053115703
0.00067362143 -0.14895198 0.70438302 -0.32162145 0.8527323 -0.4115912 0.068156518
0.11182673 -0.38020673 0.59639418 -0.35223642 0.062716268 -0.93380731 0.022703527
0.10178208 -0.41595852 0.59699219 -0.36166289 -0.024596017 -0.93198442 0.030042268
0.075731725 -0.27361026 0.62401956 -0.64941663 0.034003273 -0.75967216 0.00064439687
-0.032793451 -0.32823303 0.7207635 -0.92353916 0.045574404 -0.38078651 0.07747595
0.11813861 -0.28028756 0.59361386 -0.19723786 0.041347496 -0.97948343 0.041205265
0.16336718 -0.14209923 0.7875675 -0.0069721895 0.99666566 0.081295632 0.0061786375
0.10711896 -0.14271589 0.66965234 -0.024858503 0.99966615 0.0070379893 0.0011600415
0.098659195 -0.29053897 0.6039207 -0.46126318 -0.010820922 -0.88719726 0.020104906
0.10343508 -0.19024552 0.60213697 -0.42943183 0.04125759 -0.90215635 0.036722649
0.076866359 -0.14409752 0.70333827 -0.027175967 0.99932069 0.024891673 0.00036951702
0.012370593 -0.16249053 0.68357736 -0.56554133 0.45989358 -0.68458813 0.073235072
0.069434024 -0.18912138 0.63350534 -0.66026109 0.059865102 -0.74864644 0.0067105442
0.050846472 -0.19012123 0.65085214 -0.66595483 0.029036121 -0.74542677 0.0055332389
0.043324787 -0.28582028 0.65249676 -0.66833508 0.039670732 -0.74280167 0.00026202376
0.10528255 -0.30225927 0.60075736 -0.42030376 -0.010666652 -0.90732068 0.019793201
0.11137073 -0.35227072 0.59621048 -0.30361313 0.020370008 -0.95257765 0.037922747
0.075240858 -0.43189627 0.61732525 -0.59681696 0.064713575 -0.7997635 0.0016955135
0.16023228 -0.14218108 0.80892742 0.019905739 0.97922641 0.20179045 0.029655403
0.1156417 -0.14806136 0.86952657 0.19028938 0.85518569 0.48212788 0.083432436
-0.03834613 -0.42998192 0.71798027 -0.91335046 0.1652299 -0.37214246 0.086442262
-0.030924238 -0.24225166 0.7209276 -0.79038709 -0.11360802 -0.60198134 0.031977296
0.11174602 -0.37937146 0.59568274 -0.34327009 0.069492504 -0.93666244 0.022788616
0.094335295 -0.40167037 0.60397983 -0.48313844 0.040760189 -0.87459475 0.012366197
-0.023140056 -0.1514982 0.71538162 -0.63269633 0.62671226 -0.45489255 0.07658238
-0.025359122 -0.454602 0.69771361 -0.68974245 0.20999674 -0.69293338 0.013700071
0.075859264 -0.18441217 0.62731683 -0.65747142 0.12422305 -0.74316889 0.016572243
0.0092409942 -0.21337536 0.687989 -0.63911629 -0.012661768 -0.76900595 0.00049286679
-0.021739217 -0.20178472 0.70999163 -0.71167535 0.0099389367 -0.70243818 0.0070711258
0.029882897 -0.17312209 0.66531736 -0.62088549 0.29248852 -0.72729069 0.046146441
0.095620692 -0.17676263 0.60819703 -0.50095397 0.19536963 -0.84313446 0.034344003
0.088500313 -0.17250562 0.61454082 -0.5866586 0.23877029 -0.77383488 0.031392068
0.11682732 -0.1427101 0.74133396 -0.038368054 0.9991979 0.011463919 0.00015143753
0.11912657 -0.37069046 0.5939405 -0.22773454 0.067749649 -0.97136348 0.039910991
0.097005099 -0.39140931 0.60269094 -0.47541338 0.039113566 -0.8788926 0.013157723
0.057129353 -0.32135999 0.63681835 -0.64193463 0.046793163 -0.76533026 0.00093374075
0.070910566 -0.3246274 0.62581199 -0.61985052 0.035997868 -0.78389376 0.00084016396
0.072101258 -0.29741681 0.62697405 -0.64581233 0.016349992 -0.76332116 0.0006596832
0.040948842 -0.35267192 0.64888453 -0.67712551 0.058446549 -0.7335428 0.00071248674
0.014082685 -0.14789549 0.7948966 -0.39631021 0.86986494 0.29372317 0.059069175
-0.039502855 -0.44369414 0.71326703 -0.71362394 0.17244501 -0.67897236 0.013841148
-0.035918329 -0.32408175 0.72486925 -0.95604217 -0.035402469 -0.29108438 0.073580205
-0.0095091695 -0.33304182 0.699 -0.68996525 0.044280261 -0.72248679 0.0023413082
0.064772323 -0.32210293 0.63087142 -0.62329954 0.041376479 -0.78088778 0.00088978425
0.097814769 -0.30330774 0.60550809 -0.47072518 -0.009877474 -0.88222456 0.019505711
0.035396852 -0.3779397 0.65136623 -0.69073415 0.037313771 -0.72214544 0.00045799528
-0.036822148 -0.21313468 0.72579134 -0.82745814 0.0014875015 -0.56152534 0.028337292
-0.010232887 -0.2215597 0.70213097 -0.65775412 -0.016052684 -0.75306165 0.0017586238
-0.028837223 -0.42717332 0.70958424 -0.73737681 0.15523341 -0.65740246 0.027003311
0.047959797 -0.29171988 0.64836836 -0.66655928 0.033163819 -0.7447139 0.00024223281
0.090833254 -0.23588933 0.61455792 -0.60288602 0.040907025 -0.79677796 0.0051444643
0.069288045 -0.44434482 0.61802399 -0.61020309 0.086893074 -0.78746545 0.0020599009
0.079939462 -0.21999145 0.62516326 -0.66357756 0.0084633837 -0.74805963 0.00090956117
0.097550988 -0.45167169 0.60034871 -0.42392793 -0.14057913 -0.8947193 0.02917747
0.086219013 -0.24875925 0.61680478 -0.62165236 0.044439442 -0.78203171 0.0026350843
0.061828971 -0.2605831 0.63599819 -0.66329193 0.062514015 -0.74574518 0.00028243376
0.071429886 -0.14419132 0.71207029 -0.031173525 0.9989894 0.032380648 0.0002752922
0.099575289 -0.2324174 0.6068058 -0.54180282 0.043195054 -0.83939487 0.013211351
0.089962378 -0.14697382 0.83244705 -0.07665924 0.99574059 0.051225819 0.00185647
0.13947824 -0.14232387 0.70749611 -0.024664799 0.99969578 0.00033684613 8.3447347e-05
0.11683859 -0.26096228 0.59448445 -0.20727059 0.050251719 -0.97699219 0.050526127
0.082472317 -0.14948533 0.6254279 -0.53030157 0.62386298 -0.57408643 0.076776326
0.026350722 -0.20117088 0.6723417 -0.65821618 -0.01823372 -0.75260812 0.0008758668
0.03588685 -0.22376496 0.6638357 -0.66846925 0.0056417338 -0.74371845 0.00057129399
0.049356233 -0.3574605 0.63997006 -0.65005529 0.052626017 -0.75806248 0.0013218188
0.026726734 -0.42328268 0.66022658 -0.69711429 0.056258861 -0.71474934 0.0017738721
0.02325741 -0.40746516 0.66436762 -0.69180942 0.04758196 -0.72051066 0.0010630005
0.045364022 -0.27565706 0.65063357 -0.67211223 0.051196788 -0.7386772 0.00030801873
0.04778466 -0.38689074 0.6409322 -0.65240347 0.022103999 -0.75754946 0.0011074527
0.026957156 -0.34138682 0.66415268 -0.69901532 0.051405873 -0.7132566 0.00042452768
0.091379017 -0.31530723 0.61087769 -0.53049606 0.0073756306 -0.8476553 0.0072128172
0.023803715 -0.30549157 0.66882491 -0.6801042 0.033332262 -0.73235732 0.00027879787
0.014485782 -0.37332565 0.6747517 -0.67955279 0.045443002 -0.73221779 0.0006357372
0.066685803 -0.37106436 0.62632424 -0.59565288 0.0393948 -0.80227536 0.00041360164
0.076259546 -0.31761074 0.62183088 -0.61291724 0.026845139 -0.78969091 0.0008862032
0.016299481 -0.33975005 0.67552644 -0.68104059 0.04188969 -0.73104644 0.00061709934
0.096641771 -0.35035852 0.60617 -0.45338866 0.02308635 -0.89101392 0.016171526
0.1116989 -0.40707204 0.5928548 -0.22126861 0.0078137517 -0.97518164 0.029971736
0.11127171 -0.39532495 0.59423101 -0.27493951 0.02822206 -0.96104723 0.024986919
0.075209036 -0.34193036 0.62136388 -0.59325862 0.025813378 -0.80459797 0.0007953376
0.11150851 -0.35377061 0.59653896 -0.30242217 0.027952563 -0.95276409 0.037489492
0.10281363 -0.14306305 0.71623808 -0.028644482 0.99954474 0.0094745113 0.00028165814
0.21642826 -0.14090149 0.77244222 0.26875004 0.93539673 0.22979629 0.065860845
0.0086804256 -0.37041086 0.68070257 -0.67033297 0.047248606 -0.74055469 0.00071566715
-0.015162129 -0.41915601 0.69701463 -0.68232453 0.11599515 -0.72178835 0.0050667617
0.0062100929 -0.41137969 0.68017542 -0.65856963 0.067695878 -0.74946862 0.00072710851
0.0055108373 -0.37722176 0.68315089 -0.66568393 0.049823381 -0.74456871 0.00063669233
0.00065906468 -0.39824286 0.685776 -0.65652853 0.049227238 -0.75269318 0.00051590253
0.011884543 -0.32666609 0.68034619 -0.67684394 0.03459613 -0.73531318 0.00033091736
-0.019532919 -0.39512664 0.70184106 -0.70342523 0.054053228 -0.70871103 0.0053971768
0.021753795 -0.41559657 0.66563314 -0.68574846 0.053197026 -0.72589195 0.0012029539
0.023709489 -0.29525131 0.6681453 -0.68117529 0.041811291 -0.73092556 0.00038995506
0.10116207 -0.26237589 0.60090262 -0.41775417 0.034325294 -0.90791148 0.026975285
0.08679498 -0.2303801 0.61825562 -0.61584193 0.033532869 -0.78715575 0.0035600658
0.10361417 -0.24872279 0.60141814 -0.47681308 0.039327301 -0.87812448 0.020426912
0.055904917 -0.14938287 0.64802277 -0.48878232 0.6569671 -0.57400882 0.064946987
0.027753277 -0.23184939 0.6697461 -0.66886449 0.016370067 -0.74320412 0.00068578229
0.092035107 -0.14796826 0.61798048 -0.48715469 0.64541245 -0.58832228 0.074307509
0.044380672 -0.19190587 0.65672076 -0.66215914 0.031748466 -0.74869043 0.0054214164
0.052288145 -0.16192882 0.64460593 -0.60076928 0.4058325 -0.68874985 0.049420923
0.067228928 -0.22057675 0.6364398 -0.66714346 0.012746718 -0.74482024 0.00060007238
0.019995458 -0.19143769 0.67734617 -0.64806253 0.066863462 -0.75864643 0.010453801
0.048747461 -0.15597235 0.64920849 -0.55710334 0.52223468 -0.64568329 0.059312169
0.043211982 -0.15147959 0.82426959 -0.18381715 0.96470535 0.18855995 0.049172454
0.012471468 -0.29042754 0.679434 -0.68163413 0.045562774 -0.73027319 0.00031014121
0.0044104191 -0.21109919 0.69143605 -0.63237029 -0.013369032 -0.77455097 0.00041504452
0.219027 -0.14486402 0.72179818 0.26972002 0.92752087 -0.25875875 0.041466746
0.23537548 -0.14678182 0.73151851 0.44852233 0.84891289 -0.27959707 0.041816872
0.23579276 -0.14309369 0.76766717 0.4277446 0.85300958 0.29901391 0.082936756
0.18009634 -0.38525057 0.64105004 0.76978445 0.048473548 -0.63646066 0.00023618896
0.20519806 -0.14476188 0.69887245 0.23415618 0.94633275 -0.22276717 0.02529216
0.1916976 -0.14475456 0.68360442 0.22367512 0.96170962 -0.15837964 0.016868642
0.14756246 -0.42381006 0.60235208 0.36993998 0.08163514 -0.92546207 0.034370586
0.23978132 -0.16748869 0.71964985 0.66722441 0.48791361 -0.56280726 0.038959567
0.13922851 -0.36607498 0.59961349 0.34328026 -0.010524504 -0.93917406 0.048733458
0.18989623 -0.31918943 0.65610486 0.7356593 0.03086796 -0.67664796 0.00039712069
0.23276255 -0.2876479 0.70841366 0.78045934 0.052981954 -0.62295753 0.00060295832
0.12224483 -0.40185189 0.59186614 -0.062855817 0.0073304027 -0.99799573 0.027567018
0.17359899 -0.30432221 0.64117223 0.74430269 0.017201284 -0.66762078 0.00076863921
0.18527272 -0.35433662 0.64970773 0.75392586 0.055864532 -0.65458 0.00048729824
0.26443627 -0.37897435 0.74878341 0.99809211 0.06162113 0.0038641961 0.043343075
0.22099876 -0.15431949 0.70525002 0.43508548 0.82280749 -0.36563444 0.057672765
0.26480848 -0.39148158 0.74705833 0.99539107 0.02512268 0.092550494 0.044369135
0.15829708 -0.42339379 0.61247987 0.62350166 0.057508197 -0.77970409 0.012923639
0.20432442 -0.14451133 0.79979372 0.4177421 0.78694719 0.45409882 0.049243219
0.055058893 -0.14814849 0.81328964 -0.1213939 0.98409379 0.12970334 0.025627783
0.20620836 -0.13972037 0.78488117 0.33282146 0.89740717 0.28963816 0.065983735
0.058893319 -0.147021 0.76230532 -0.034117576 0.99906552 0.026533825 0.00029079587
0.12862328 -0.33328435 0.59371811 0.015858686 -0.0004106893 -0.99987417 0.050819311
0.12730999 -0.26202083 0.59302378 0.029816924 0.054073595 -0.9980917 0.048690837
0.1077052 -0.26538548 0.59650594 -0.33409375 0.022847839 -0.94226289 0.031333715
0.090595007 -0.3203046 0.61084145 -0.52318776 0.00019640346 -0.8522175 0.0069127963
0.090630718 -0.30997095 0.61051399 -0.53553349 0.0031796065 -0.84450799 0.0081513412
0.1071039 -0.25723475 0.59779692 -0.37499934 0.030410064 -0.92652619 0.030519199
0.08089111 -0.2785714 0.61869901 -0.62030303 0.023888415 -0.78399837 0.0017598283
0.10605534 -0.30023226 0.60026759 -0.42139605 -0.012922435 -0.90678465 0.02024658
0.11273833 -0.31644544 0.59481764 -0.2291721 -0.023536686 -0.97310132 0.03749479
0.1117253 -0.28224671 0.59486204 -0.28510872 0.038478252 -0.95772249 0.032590616
0.14292562 -0.30717233 0.60428786 0.49465516 0.047189083 -0.86780721 0.05123147
0.14229226 -0.14446558 0.82288224 0.071206756 0.98068732 0.18215922 0.041327998
0.14425589 -0.3423129 0.60432535 0.47220469 -0.019856174 -0.88126528 0.052521255
0.1083341 -0.13951358 0.63395929 -0.068336852 0.95845205 -0.2769472 0.041256193
0.11558875 -0.14315777 0.70240867 -0.022298366 0.99971944 0.0079897661 0.00016830952
0.14027871 -0.14206681 0.67623442 0.034079786 0.99884832 -0.033774026 0.0049126488
0.16768591 -0.14172783 0.78161275 -0.0028269854 0.99812925 0.061074495 0.0051290207
0.16300477 -0.14361832 0.8241567 0.16073225 0.92049152 0.35617492 0.055597909
0.14686753 -0.14341548 0.81421977 0.046834022 0.9840883 0.17139657 0.030832481
0.22107656 -0.14231971 0.77767283 0.39505213 0.84277648 0.36559752 0.069376931
0.13148671 -0.1424161 0.67020929 0.031914033 0.99938476 -0.014545047 0.0036173081
0.22862257 -0.14395456 0.77538872 0.43808737 0.82235599 0.36305654 0.071875669
0.16870996 -0.1418685 0.74252677 -0.0054306523 0.9999786 0.0036438708 0.00028830342
0.098965839 -0.14129139 0.65594864 -0.093692653 0.99345183 -0.065384179 0.020028079
0.10641924 -0.14328101 0.70189857 -0.017924221 0.99975109 0.013279319 0.00022314316
0.12770353 -0.1459692 0.82559514 0.02063207 0.99685931 0.076457486 0.012188953
0.11744515 -0.2593978 0.59413761 -0.17430882 0.059656542 -0.98288226 0.055503409
0.1232219 -0.37827143 0.59291774 -0.12978955 0.062049586 -0.98959821 0.037561346
0.12210902 -0.43769646 0.59086913 0.044107944 -0.07102032 -0.99649918 0.049068846
