# .PCD v0.7 - Point Cloud Data file format
VERSION 0.7
FIELDS x y z
SIZE 4 4 4
TYPE F F F
COUNT 1 1 1
WIDTH 1431
HEIGHT 1
VIEWPOINT 0 0 0 1 0 0 0
POINTS 1431
DATA ascii
0.026254799 -0.18283109 0.67212057
0.074657887 -0.188354 0.63430542
0.248182 -0.2114895 0.73460251
0.1835243 -0.34877339 0.64860243
0.1109558 -0.1702688 0.59573412
0.1218646 -0.171553 0.59875709
0.01522705 -0.14569721 0.77307862
0.1274004 -0.1615003 0.59920013
0.0303286 -0.42477271 0.66187447
0.240629 -0.32515511 0.72488898
-0.043243099 -0.17385121 0.73722428
-0.003648788 -0.1484976 0.69885182
0.16560639 -0.1411023 0.64862931
0.14273129 -0.19778781 0.61474788
0.1035632 -0.2014495 0.60762912
0.094350673 -0.1982387 0.60705858
0.13023239 -0.15062159 0.60894549
0.27544749 -0.37684789 0.75739652
0.1209242 -0.1562188 0.59797877
0.096621871 -0.242064 0.60208231
-0.042951811 -0.24461789 0.74377853
-0.043351259 -0.202117 0.738644
0.1221662 -0.1965597 0.60205871
0.1255959 -0.43340701 0.59968138
0.1245968 -0.30008161 0.59648728
0.092300057 -0.42415291 0.60359383
0.1066103 -0.4035002 0.59440958
0.1024067 -0.39028341 0.59866643
0.1216244 -0.37057969 0.59030777
0.094650328 -0.33761159 0.60637021
0.1280158 -0.32702559 0.59772748
0.1447992 -0.35213971 0.61138457
0.1240422 -0.35155469 0.60612422
0.095636308 -0.36487719 0.61610591
0.1195623 -0.38944891 0.59702247
0.1136413 -0.37774619 0.59076208
0.1177469 -0.35980511 0.5958181
0.098923951 -0.38924879 0.60937852
0.13307101 -0.3014971 0.59547383
0.12587079 -0.35549751 0.59656823
0.12499 -0.31512681 0.59804171
0.1143918 -0.3006576 0.59944522
0.1193797 -0.318147 0.60264492
0.1138801 -0.40553829 0.5950157
0.092701323 -0.31199679 0.60748053
0.093607374 -0.30356771 0.6160087
0.1252583 -0.33412459 0.5957638
0.094002493 -0.35337389 0.61993688
0.1068726 -0.35643941 0.60339677
0.1022192 -0.41689271 0.60603678
0.1140877 -0.39385441 0.59772998
0.14168631 -0.43769991 0.59611738
0.1090571 -0.4111852 0.59741712
0.124939 -0.40568101 0.59222507
-0.031844109 -0.33309609 0.71653128
0.01290515 -0.28237721 0.68616343
-0.036163568 -0.3301523 0.72871578
-0.04107609 -0.29704541 0.74057633
-0.041392799 -0.3063575 0.73901629
-0.022370219 -0.26488671 0.71502352
0.01327808 -0.2842226 0.6858353
0.001968116 -0.2482546 0.69313067
-0.01264429 -0.20723 0.70896471
0.084700793 -0.2271902 0.62298381
0.072978623 -0.1883812 0.63462532
-0.026190341 -0.3410922 0.7148217
0.01685619 -0.1644657 0.68078548
0.0098925978 -0.1723354 0.69401008
0.083949544 -0.2426914 0.62266117
-0.016873211 -0.25704071 0.70977181
0.083541363 -0.20915779 0.62873822
0.089900881 -0.2163537 0.62475222
0.01397973 -0.1796376 0.69583708
-0.026113059 -0.2355909 0.71850133
0.068482064 -0.17097761 0.63663107
0.01210606 -0.2487385 0.68483478
0.002130508 -0.23779009 0.70129353
0.004000545 -0.31771111 0.68984061
0.086424649 -0.2044739 0.6157316
0.078023113 -0.16718771 0.63215709
-0.025603 -0.2321931 0.72490948
-0.020897301 -0.36654201 0.70731407
0.0055022538 -0.40778041 0.67847103
-0.01299131 -0.3861534 0.70026249
0.009701997 -0.3698661 0.6802032
-0.01334238 -0.42054519 0.69700778
-0.01451129 -0.36118019 0.70186329
-0.02870813 -0.37519571 0.72196162
0.0062872171 -0.34548479 0.69275272
-0.036160741 -0.40136021 0.73217738
-0.02336308 -0.38517809 0.71220899
-0.02600785 -0.35877371 0.71927059
-0.021275889 -0.40253901 0.7130838
0.01060537 -0.38515201 0.68621188
0.016724359 -0.41258109 0.67609417
0.024374681 -0.43554211 0.66850269
0.006913126 -0.42838109 0.68499541
-0.043025792 -0.42665091 0.73111153
-0.01021408 -0.453114 0.70243192
0.1198957 -0.3442359 0.60217577
0.0065433681 -0.1576632 0.69668353
-0.029175131 -0.277632 0.72796088
-0.018618669 -0.1794744 0.70908701
0.022572789 -0.41017431 0.66858739
-0.0064319372 -0.3377763 0.69872981
-0.0004799515 -0.39680171 0.69834018
0.025126841 -0.1433481 0.69752932
0.078647792 -0.18171661 0.6319465
0.01006156 -0.1827708 0.69459242
0.082455844 -0.1929388 0.62825853
-0.0057437872 -0.1823044 0.70347929
0.094458073 -0.23555049 0.61985332
-0.02152258 -0.452342 0.69883281
-0.0055029839 -0.1719622 0.70304888
0.002026469 -0.26482901 0.69885951
0.015946871 -0.15577389 0.68280703
0.0015860799 -0.2255469 0.69451648
-0.007442296 -0.28554729 0.70367593
0.021639559 -0.15946791 0.68268842
-0.027468121 -0.2069429 0.72364122
-0.001898244 -0.1649162 0.70637518
0.1085964 -0.4458068 0.60457832
0.071097121 -0.14221901 0.6354441
0.1188857 -0.40127021 0.59417808
0.01258665 -0.25543749 0.68999797
0.05862182 -0.20677079 0.64958543
0.02081852 -0.2006819 0.68077111
0.089383572 -0.2465886 0.62133372
-0.031302091 -0.199771 0.72277379
-0.01768988 -0.26957941 0.71217728
0.080890179 -0.2017736 0.63072759
0.13322669 -0.28598541 0.5965094
-0.02323997 -0.25308359 0.72020918
0.057378739 -0.2307293 0.65040839
-0.04357231 -0.185917 0.74151248
-0.01548672 -0.30933401 0.71010011
-0.004250661 -0.24621961 0.70020169
-0.022286059 -0.16562881 0.71850449
-0.03926852 -0.35018519 0.73639989
0.121468 -0.217228 0.59791863
0.030666471 -0.2426963 0.67623621
0.03292625 -0.15369651 0.67106718
-0.029283971 -0.1931098 0.72886658
-0.0090135932 -0.2821337 0.7107091
-0.04948689 -0.17977279 0.73745751
-0.039233342 -0.1678087 0.74078017
0.1217065 -0.2870723 0.59528649
0.1207671 -0.187071 0.59920549
0.096444763 -0.1906981 0.61652648
0.098951668 -0.20661139 0.61302942
0.1062616 -0.1874339 0.60776663
0.1149368 -0.31391561 0.60170841
0.114897 -0.35292411 0.59994543
0.098779112 -0.34555051 0.61111867
-0.01943508 -0.4067167 0.70500791
-0.01892912 -0.3907198 0.70240259
-0.001596496 -0.43290499 0.68340093
-0.0286594 -0.45348001 0.71674287
0.093718737 -0.37950799 0.61543119
-0.039347138 -0.45437229 0.71523058
0.064754739 -0.1912884 0.64549458
0.01669376 -0.27328381 0.68803602
-0.032782469 -0.3103542 0.73702371
0.01073673 -0.2121748 0.69168901
0.0045353621 -0.2080268 0.69523549
-0.031396691 -0.31734651 0.7260977
-0.024580611 -0.32691589 0.72050631
-0.00033080581 -0.2876642 0.70149398
-0.0023423431 -0.3009367 0.69618899
0.021218229 -0.18768249 0.68151122
0.02487075 -0.1685442 0.68035579
-0.00078946352 -0.21220601 0.70158821
0.070793703 -0.1583343 0.63525558
0.032097861 -0.16898119 0.66851479
-0.035197262 -0.2102308 0.73203713
-0.03138693 -0.2409893 0.72456682
0.2200772 -0.1449132 0.77667361
0.2058865 -0.1444037 0.72358823
0.099181123 -0.14550009 0.65585428
0.077931799 -0.1769228 0.63036418
0.1775564 -0.14216539 0.80451661
0.088155203 -0.2117466 0.62637019
0.1130569 -0.1963927 0.59743702
0.069662213 -0.1873274 0.63454288
0.1028663 -0.2038909 0.60635728
0.047898158 -0.19607081 0.65593982
0.032379579 -0.2251827 0.6660856
0.069430813 -0.22795901 0.63132483
0.024526641 -0.2008125 0.67595887
0.083167091 -0.2318019 0.62440652
0.23219959 -0.13918 0.78161901
0.091568157 -0.2441234 0.61923259
0.082376763 -0.19462819 0.62063259
0.073532991 -0.1685891 0.63211471
0.1098194 -0.15685061 0.60423923
0.116992 -0.2603277 0.59507418
0.1148701 -0.37416631 0.59416658
0.1169788 -0.43396291 0.59078592
0.050103139 -0.36038649 0.64446789
0.1006708 -0.39233351 0.60363019
0.099895328 -0.27749309 0.60094529
0.09206225 -0.3419424 0.61276621
0.028682761 -0.39408481 0.6577931
0.02790688 -0.4220486 0.6595363
0.092309617 -0.25950059 0.61807919
0.1016214 -0.4052048 0.60091329
0.049016111 -0.39080641 0.64664477
0.049841762 -0.27497309 0.656295
0.020368779 -0.40247479 0.66248512
0.06705977 -0.4250882 0.6274395
0.069310263 -0.42104009 0.62346232
0.064803869 -0.277179 0.6388135
0.0462825 -0.2876856 0.65537733
0.079278901 -0.38241929 0.62398392
0.0282478 -0.42579001 0.66122192
0.063002527 -0.37946641 0.63123912
0.01734264 -0.24594051 0.68155318
0.1050372 -0.257287 0.60006797
0.080547303 -0.25241661 0.62336212
0.092104591 -0.37094849 0.61231828
0.090749018 -0.3194927 0.61513472
0.072122358 -0.3131102 0.62684631
0.066706747 -0.3708204 0.63058668
0.02680688 -0.34132159 0.66640532
0.090653911 -0.30871069 0.61564201
0.026928609 -0.3491939 0.66539168
0.1128883 -0.3836374 0.5948509
0.1040213 -0.2999112 0.60106349
0.04028479 -0.40769449 0.65534949
0.1118927 -0.4084748 0.59198582
0.1046858 -0.31040421 0.59960347
0.1125105 -0.30461729 0.59676808
0.025165839 -0.1457133 0.68099511
-0.0088413982 -0.146697 0.70299381
0.0099525163 -0.17726929 0.6903792
0.01499441 -0.1663457 0.680924
0.0083911652 -0.1876754 0.69465268
-0.005605598 -0.228862 0.70064688
-0.0075565819 -0.1739157 0.70013249
-0.0068507749 -0.1840395 0.6983217
-0.032511968 -0.2107707 0.71683991
-0.001168848 -0.2293427 0.69407648
-0.02575811 -0.1512655 0.71637863
-0.02325476 -0.36654711 0.70769799
0.005618711 -0.2421872 0.69611973
-0.0323231 -0.33810091 0.72486722
0.01256966 -0.2872785 0.67964858
-0.01462911 -0.3839187 0.70042849
0.0092825098 -0.28654411 0.68195349
-0.015890829 -0.41876039 0.69230312
0.0040204888 -0.31941259 0.6916315
0.003410188 -0.41330481 0.67776829
-0.01884027 -0.25913471 0.70722377
-0.02678388 -0.2367278 0.71974069
-0.03403201 -0.43435559 0.72349781
-0.039050721 -0.33258119 0.73008537
0.002555843 -0.35003191 0.68916601
-0.03032035 -0.33873969 0.717924
0.01059338 -0.25196049 0.68548352
-0.025214201 -0.38762099 0.70856839
0.009265637 -0.38477299 0.67655098
-0.01644755 -0.31181821 0.70579922
0.0062846239 -0.42939609 0.68013191
0.026455341 -0.1903536 0.68666571
0.016498109 -0.3524484 0.67234582
0.039934799 -0.31155431 0.65979898
0.081451528 -0.2797879 0.62152648
0.0061758468 -0.15992969 0.69230378
0.066670857 -0.1736472 0.63582158
0.081102908 -0.2230691 0.62519717
0.1132254 -0.39619449 0.59502399
-0.030605691 -0.3186233 0.72604489
0.01403181 -0.39836279 0.67893529
0.071954884 -0.29753011 0.62553477
0.1151966 -0.39332911 0.59445238
0.077913404 -0.1844084 0.62855649
-0.038088679 -0.2280326 0.72396481
-0.02778825 -0.45745951 0.70006299
0.051486649 -0.1869859 0.64885002
0.045678321 -0.1846077 0.65851068
0.018858621 -0.20218959 0.67304212
0.117043 -0.3226656 0.59854352
0.055038359 -0.2042823 0.65233397
0.055703569 -0.2334816 0.64572668
-0.036888901 -0.1694003 0.73478287
0.03481805 -0.16908289 0.67041612
-0.022993371 -0.1672947 0.71355522
0.063805357 -0.31410331 0.63779157
0.099562094 -0.29447731 0.60492343
-0.028767159 -0.19496299 0.71970469
0.081300817 -0.1501534 0.86694008
0.1152005 -0.288333 0.59754682
0.1237391 -0.30374369 0.59461498
0.063850969 -0.36318031 0.63076061
-0.045721918 -0.15255471 0.74183738
0.07982754 -0.203831 0.62680942
0.1916154 -0.1392286 0.81626701
0.035382729 -0.14941821 0.79826218
-0.027984191 -0.43195891 0.71727788
-0.026249381 -0.1784506 0.71508819
0.022225421 -0.28308079 0.67816532
0.045558471 -0.4370825 0.64661908
0.1283209 -0.14273641 0.69732589
0.083639488 -0.33118719 0.61889249
0.06009138 -0.29288 0.63996959
-0.03756921 -0.1831435 0.73336452
-0.042071339 -0.1869117 0.73475808
0.1238079 -0.35580859 0.58996528
0.1637217 -0.1447107 0.64391547
0.1190048 -0.2721709 0.59031719
0.1178034 -0.31428051 0.58978307
0.119708 -0.2877256 0.58995962
0.072625473 -0.1484008 0.77040511
0.088706277 -0.35328609 0.61814272
-0.033770092 -0.211227 0.72384328
-0.036372449 -0.4014332 0.72263521
0.1143758 -0.16342419 0.6013214
0.23516031 -0.36937991 0.71710169
0.1056452 -0.37509921 0.60004753
0.1168132 -0.36313039 0.59222877
-0.0087278802 -0.28829029 0.69637638
0.032565419 -0.2823945 0.66412407
0.1171931 -0.3326765 0.58778012
0.067897707 -0.32206851 0.63085431
0.1318578 -0.28859681 0.59181023
0.1000673 -0.2468033 0.60780412
0.082805112 -0.1464631 0.62675768
0.031833209 -0.14764979 0.68453699
0.119875 -0.32286829 0.58903521
0.039643899 -0.3776679 0.65244192
-0.0067054038 -0.34169701 0.69553572
0.1589682 -0.29482251 0.63268071
0.1546438 -0.2187019 0.62795681
0.098818444 -0.2102576 0.6095649
0.087333381 -0.44239181 0.60492003
-0.039427351 -0.45382261 0.70897323
0.1163372 -0.1428224 0.701141
0.1507574 -0.1447335 0.62590247
0.086126417 -0.148674 0.85447133
0.1030992 -0.14829829 0.89007008
0.018907599 -0.33640161 0.67655152
-0.03706187 -0.25240639 0.73148859
-0.040609341 -0.24781039 0.73450518
-0.00040465029 -0.39671239 0.68695217
0.01213535 -0.33309469 0.68311322
0.1084554 -0.172094 0.59182322
0.04623748 -0.2202601 0.65780848
0.1277415 -0.27117091 0.58073568
0.141561 -0.44086829 0.59323871
0.2336985 -0.40907329 0.700068
0.062347591 -0.28494951 0.6364252
0.1257944 -0.213522 0.59143472
0.14343479 -0.25844941 0.60992008
0.2159602 -0.38574579 0.69187993
0.14982121 -0.32336101 0.61267591
0.071723513 -0.1781531 0.63195252
0.16128691 -0.42736 0.61230218
0.04152884 -0.15083089 0.66149122
0.14625899 -0.41725439 0.60559511
0.18198401 -0.3773908 0.64393079
0.003370485 -0.2487646 0.69365752
-0.01264668 -0.1773866 0.69526547
0.1650829 -0.32360321 0.63725913
0.1268194 -0.16281611 0.59596902
0.2148812 -0.34072369 0.68909311
0.22813269 -0.28102031 0.70788389
0.15447091 -0.245516 0.62431508
0.1370925 -0.1750437 0.60991979
0.1839859 -0.35239059 0.64565778
0.099819817 -0.32291439 0.60646862
0.05876971 -0.2180683 0.64887792
0.1198142 -0.2205012 0.59343892
0.112235 -0.1444083 0.63333881
0.1122891 -0.1463877 0.80514687
0.25546899 -0.1403275 0.75947642
0.200537 -0.23782291 0.67515618
-0.040176891 -0.29617831 0.73400772
0.01836814 -0.15044831 0.78654653
0.015958169 -0.41418281 0.67081249
0.08825703 -0.1674971 0.62235701
0.03625945 -0.44381729 0.64990163
0.2102813 -0.2927427 0.68040037
-0.0074510979 -0.3207761 0.69891822
-0.044019759 -0.4280082 0.72086179
-0.37124699 -0.458985 1.044184
-0.019908231 -0.40985799 0.70440477
-0.030575991 -0.30627149 0.72772849
0.089526989 -0.2168868 0.61954957
0.1375515 -0.29268581 0.60183388
0.0526716 -0.14883441 0.86621058
0.043309219 -0.33272311 0.65555239
0.098527543 -0.2002776 0.61043417
0.1219504 -0.40340871 0.58389223
0.1139582 -0.22316781 0.59777129
0.072059423 -0.44241431 0.61988169
0.093060628 -0.38053939 0.61199838
0.02147001 -0.1621713 0.67710781
-0.02808455 -0.45341429 0.70974451
0.25905761 -0.27436599 0.75295299
0.25415331 -0.33787319 0.75153482
0.26677659 -0.42160609 0.74768257
0.033693571 -0.1475766 0.82350242
0.060114589 -0.1480094 0.76272279
0.19768371 -0.1396576 0.69674349
0.25727889 -0.3748894 0.74741727
0.042731419 -0.1494398 0.72624242
0.24797291 -0.1403411 0.75403392
0.21331599 -0.14184371 0.71008372
0.25659621 -0.2019148 0.75894171
0.1770121 -0.35201061 0.83681518
0.1553622 -0.1427981 0.6519804
0.26480359 -0.4056524 0.75602162
0.15560549 -0.14440501 0.65638012
0.18936311 -0.13660119 0.68856508
0.25360969 -0.26266661 0.75557148
0.23162089 -0.1446885 0.77957422
0.25821099 -0.2107285 0.75444698
0.19352999 -0.2025526 0.81752998
0.10408 -0.1494337 0.85744482
0.2440746 -0.32653421 0.77030581
0.13258161 -0.27677211 0.86401361
0.2051792 -0.14493009 0.72128022
0.26600301 -0.4062545 0.75100321
0.028489619 -0.1461518 0.6850155
0.222409 -0.1388647 0.74747747
0.2480612 -0.29243091 0.76751858
0.2452855 -0.20836011 0.77208263
0.2499115 -0.3687219 0.77085859
0.2548888 -0.37686229 0.75810993
0.22655229 -0.17114671 0.78265423
0.184691 -0.27639511 0.8247636
0.1653816 -0.3890765 0.84895831
0.25365749 -0.35684201 0.76627767
0.23836949 -0.1855271 0.77593732
-0.04581828 -0.15030921 0.73020071
0.21450029 -0.31327879 0.79603529
0.26227161 -0.27476731 0.75074828
0.2239757 -0.4175522 0.79144728
0.1450807 -0.4429397 0.8612749
0.22733849 -0.41741851 0.78691423
0.1780377 -0.3041836 0.82618427
0.044614129 -0.14631601 0.66057038
0.25475591 -0.33058801 0.76065731
0.2181401 -0.26565081 0.79201448
0.2170905 -0.44742501 0.60770148
0.2433787 -0.33199599 0.76912552
0.1943603 -0.36782441 0.82007837
0.092639633 -0.1460721 0.71246362
0.1524719 -0.1436267 0.80085152
0.06747473 -0.14750201 0.69969738
0.079337023 -0.1422497 0.64266628
0.1715906 -0.2434902 0.83089161
0.1788438 -0.44075531 0.82731128
0.1726637 -0.2139634 0.82855451
0.128695 -0.29232949 0.86537039
0.2090096 -0.41646701 0.80175412
0.20677669 -0.1465354 0.79763448
0.2319518 -0.44205889 0.65114552
0.32046029 -0.44495481 0.6989572
0.25857529 -0.3456718 0.76194412
0.23834971 -0.1423862 0.73600358
0.1419163 -0.31277159 0.86378777
0.2522164 -0.42312011 0.76965058
0.2277628 -0.3392936 0.78739828
0.1343281 -0.39765921 0.86794412
0.2288848 -0.1779335 0.78543973
0.2358166 -0.1667486 0.78347331
0.26010799 -0.33477491 0.74648118
0.033699062 -0.14272919 0.80847722
0.25066081 -0.2780309 0.76598102
0.1244501 -0.14454681 0.87072062
0.1098412 -0.17381801 0.8883388
0.1385392 -0.1863167 0.86297309
0.14036851 -0.28090209 0.86495161
0.088181987 -0.145946 0.82554829
0.093438894 -0.14608569 0.81033111
0.1181275 -0.3140243 0.87743467
0.2084866 -0.1390934 0.7876721
0.26296699 -0.38254729 0.74514729
0.1116092 -0.32499391 0.89070278
0.1245224 -0.3637391 0.87601137
0.1162524 -0.23991971 0.8809737
0.1159567 -0.2253454 0.88087559
0.21785229 -0.14099421 0.72976768
0.22434179 -0.141045 0.77732557
0.1092936 -0.3106277 0.88922441
0.1200482 -0.29613489 0.88001078
0.1628606 -0.42255041 0.84800488
0.2589812 -0.26119339 0.7475208
0.097582214 -0.14211529 0.64111358
-0.00099154445 -0.1473501 0.70515072
0.074499771 -0.1477956 0.83216399
0.1123521 -0.2565378 0.88839447
-0.01448158 -0.1503865 0.71227717
0.1191019 -0.1443339 0.86277962
0.17831489 -0.1374241 0.81646931
0.18755271 -0.4360573 0.82026178
0.1836565 -0.44026941 0.82301819
0.2202825 -0.3063173 0.79651147
0.1245469 -0.3450011 0.87176162
0.22420651 -0.3799901 0.79304129
0.0274281 -0.14671239 0.66363931
0.1026451 -0.1748596 0.89088827
0.1117661 -0.3126424 0.87731582
0.035574239 -0.46123481 0.82949692
0.2368499 -0.27862871 0.77775872
0.1074184 -0.1446728 0.78851408
0.091740489 -0.2178838 0.89025348
0.093395554 -0.41411129 0.88857168
0.115219 -0.2090843 0.88855028
0.1108999 -0.1460645 0.71564192
0.1050029 -0.1408539 0.61666232
0.1077216 -0.19591901 0.89079332
0.1030148 -0.14953239 0.89334083
0.080404513 -0.40698391 0.87485129
0.080444671 -0.1586522 0.87370199
0.097267039 -0.1838084 0.89194697
0.016155289 -0.14545991 0.70605332
0.034315899 -0.1444484 0.71459669
-0.040243249 -0.2306377 0.73742998
0.059416059 -0.2022793 0.85199922
-0.04488226 -0.1522108 0.73504817
0.030932499 -0.2844854 0.81792778
-0.03550389 -0.32159609 0.73938757
-0.048292451 -0.44764239 0.70590669
0.095582157 -0.26624081 0.88604039
0.1098882 -0.36813691 0.88720697
0.2528609 -0.28493789 0.76424521
0.0030003351 -0.32528839 0.78870982
0.092857428 -0.39431429 0.88363338
0.022713009 -0.1479269 0.80761981
0.052176241 -0.21820781 0.84352762
0.066954307 -0.14283019 0.68320811
-0.032042589 -0.14767531 0.73022431
0.082634613 -0.1444757 0.8553856
0.0059425598 -0.1503319 0.79186821
0.03106072 -0.17515139 0.82062751
0.082947917 -0.2405255 0.87944943
0.066097051 -0.25183871 0.85779572
-0.0370107 -0.3239741 0.74459368
0.093915753 -0.22183239 0.89110023
0.089273661 -0.37401599 0.88093388
0.037397921 -0.38902041 0.82819802
0.1154156 -0.3627122 0.89219332
-0.058707811 -0.4370496 0.71555603
0.092444614 -0.2489446 0.88595068
0.069042452 -0.31804869 0.86149198
-0.01278899 -0.30752411 0.77187729
0.1539243 -0.1413326 0.797656
0.17361809 -0.14412791 0.82464921
0.1527182 -0.143778 0.83216077
0.161761 -0.1438638 0.83602393
0.1578701 -0.1489118 0.84131938
0.1607091 -0.36768231 0.84467602
0.1772411 -0.38610151 0.83273798
0.1793569 -0.34124929 0.8360585
0.19599929 -0.40310559 0.81534082
0.1665775 -0.39508069 0.83881629
0.076318704 -0.28419569 0.8611514
0.2141853 -0.33679399 0.80370373
0.2467304 -0.2040031 0.78030199
0.051578499 -0.42932609 0.84363139
0.20378269 -0.2220885 0.79901999
-0.02424475 -0.1478619 0.75056791
0.1750946 -0.1620405 0.8165586
0.035551671 -0.46084321 0.82837337
0.1156986 -0.42440629 0.87793487
-0.02931116 -0.1596164 0.754345
0.05331555 -0.23187061 0.84477341
0.086505853 -0.42503509 0.87156308
-0.031573769 -0.16784699 0.74739099
-0.00069925381 -0.23577 0.78303021
0.3535822 -0.4493565 0.93951088
0.1490946 -0.16601311 0.85350609
0.37221381 -0.44258931 0.77553469
0.38921151 -0.4438127 0.92854351
0.3408637 -0.44372979 0.78455448
-0.039252419 -0.2747511 0.73081768
0.034097381 -0.1535622 0.82798499
0.01598439 -0.42351159 0.79853582
0.058490001 -0.34991771 0.85036743
-0.0038339819 -0.3499181 0.77844352
0.04088803 -0.27182791 0.83348322
0.050995961 -0.2496746 0.84482437
0.1040077 -0.25812891 0.88972872
0.016809231 -0.33596361 0.80727541
0.082029901 -0.3176904 0.87298059
0.068623923 -0.3632547 0.86557168
0.053582381 -0.39776719 0.84466481
0.0049752849 -0.30422461 0.78643692
0.091722012 -0.26585299 0.88905871
0.072950259 -0.2424511 0.8671186
0.032921281 -0.34123799 0.82201141
0.098735459 -0.1611647 0.87811792
0.08572831 -0.2041807 0.88344121
0.085737139 -0.28431079 0.87712407
0.1031156 -0.3433843 0.88762999
-0.0039735809 -0.2036909 0.78118342
-0.02014499 -0.45149231 0.76467371
0.01629205 -0.2199973 0.80440658
0.038903639 -0.1639379 0.83240229
-0.01849002 -0.35067391 0.76346028
0.02067945 -0.1809829 0.80661792
-0.017700789 -0.2808882 0.76484537
0.049163181 -0.4529534 0.83921778
0.061622191 -0.22085559 0.85243863
-0.0092475088 -0.2545982 0.77268708
-0.28278899 -0.45853981 0.2153544
-0.01043266 -0.17875791 0.77771932
0.0528556 -0.37403879 0.8417415
0.062959626 -0.35614431 0.85248649
0.04168009 -0.37480271 0.83462828
0.01036859 -0.4282766 0.79674822
0.055429209 -0.3220025 0.85012472
0.079065733 -0.3361142 0.8735674
0.03580771 -0.23132791 0.81996518
0.09249723 -0.42245701 0.86433142
-0.024073509 -0.29689041 0.75809562
0.092593908 -0.33215979 0.88880938
0.083447017 -0.35792649 0.87766039
-0.039961461 -0.18558539 0.7403518
-0.01550444 -0.3239693 0.77303737
0.1130012 -0.39092889 0.87697768
0.0081214746 -0.28155831 0.79528832
0.017228991 -0.1992344 0.80337352
-0.024799271 -0.20914111 0.7585296
0.0563768 -0.33910671 0.84793299
-0.0064053121 -0.22312219 0.77821171
0.071697973 -0.4400591 0.86579412
0.072223321 -0.45123971 0.86594093
0.018047789 -0.1410273 0.68353581
0.079114974 -0.1435643 0.70245802
0.1106911 -0.143658 0.65822828
0.05286105 -0.1460463 0.67286497
-0.01705607 -0.1501167 0.71828002
0.094460219 -0.14837611 0.79368943
0.1186985 -0.1494251 0.8463701
0.01789091 -0.1470951 0.75830942
0.2012275 -0.1389201 0.78777879
0.2029614 -0.1385507 0.78635591
0.04604096 -0.1512657 0.82491177
0.1720306 -0.144651 0.66331601
-0.03603382 -0.42589229 0.72587538
0.04112846 -0.1473469 0.69598413
0.074717291 -0.36369199 0.62122852
0.2050413 -0.1450769 0.70143801
0.070093393 -0.1862727 0.63191712
0.110392 -0.161218 0.5981586
0.054510221 -0.1624967 0.64643532
0.054073442 -0.35914159 0.6427654
0.001612301 -0.1937394 0.69270039
0.233734 -0.1422936 0.73147058
-0.002285019 -0.1670537 0.69812852
0.030960931 -0.1863443 0.6740973
-0.0157286 -0.27276409 0.71397787
0.077346027 -0.21983451 0.62108588
0.026904151 -0.2012873 0.67162019
0.01320873 -0.25214389 0.68382537
0.03154128 -0.4281998 0.6559099
-0.0056571881 -0.1761682 0.69725388
0.03652228 -0.1435235 0.65890759
0.062429082 -0.37814781 0.62768221
0.003092871 -0.3505376 0.69024628
-0.038769782 -0.2062304 0.73300987
0.098718829 -0.2485704 0.60987562
-0.02970908 -0.3715623 0.71386307
0.1056956 -0.27790779 0.59966582
0.0066341851 -0.1739447 0.68404579
0.091303587 -0.14335629 0.74083233
0.25837371 -0.1431741 0.75812382
0.06162665 -0.1489137 0.77893919
-0.01537206 -0.3602635 0.69871962
0.063101053 -0.38664529 0.62813783
-0.02369345 -0.39964321 0.70668179
-0.01797607 -0.41203311 0.70112532
0.03712973 -0.1482013 0.72406542
0.022370899 -0.3422882 0.66581023
0.081932351 -0.38389689 0.61966091
-0.029200129 -0.20585839 0.71642298
0.082382433 -0.1461775 0.62316149
0.1041204 -0.2034021 0.60331541
-0.0165243 -0.41885561 0.69439262
0.09826237 -0.3087455 0.60426289
0.0065256888 -0.41283181 0.68222839
-0.026383961 -0.23602469 0.71893919
0.04187306 -0.40877789 0.64931858
0.1211271 -0.14138199 0.80073482
0.092457473 -0.2579428 0.61257547
-0.01470259 -0.3145237 0.70546091
0.036199309 -0.1661759 0.66361523
0.012622 -0.2592696 0.6840077
0.093637697 -0.3411794 0.61198437
0.087140054 -0.35740229 0.61100131
0.099403687 -0.38896811 0.60149658
0.048137881 -0.1853811 0.6571964
0.034342889 -0.40002581 0.65886933
0.02022147 -0.1626233 0.67493278
0.00483019 -0.37719479 0.68555743
0.01450069 -0.1656733 0.68076462
-0.01476421 -0.38340381 0.69786108
0.097403243 -0.143512 0.68827963
0.039525751 -0.31320801 0.65595341
-0.025026821 -0.22071891 0.71818691
0.16178261 -0.14121769 0.65980917
-0.01160992 -0.1774084 0.69903642
0.090411857 -0.151674 0.80644888
0.1083483 -0.2588532 0.59816778
0.077297337 -0.37007359 0.61333752
0.067468703 -0.42400569 0.62598062
0.04399791 -0.22244141 0.65814841
0.089910462 -0.2104528 0.62043929
0.078779973 -0.19183861 0.61916119
0.02228109 -0.3686488 0.67019862
0.019003371 -0.24610309 0.67905593
0.020752581 -0.2031035 0.67600298
0.06230795 -0.29595259 0.63914102
-0.001496013 -0.20077071 0.69475901
0.1385479 -0.14824501 0.7606746
0.188236 -0.1448275 0.81265968
0.0038972991 -0.32000709 0.68884063
-0.01477143 -0.26151061 0.70965141
-0.036215581 -0.19747519 0.72985709
0.15867209 -0.1472217 0.84032118
0.1217628 -0.43421051 0.58850229
0.1050592 -0.4189944 0.5940634
0.01748907 -0.41692179 0.6699639
0.0095028244 -0.18530481 0.68678558
0.00191132 -0.2508013 0.69206268
0.01238136 -0.32708251 0.67899078
-0.04291907 -0.2279909 0.73549747
0.02461718 -0.41753221 0.66401798
0.062382631 -0.1517209 0.8060686
0.1110021 -0.1535099 0.82849449
0.0163454 -0.35543311 0.67431259
-0.006901748 -0.2227117 0.70360589
0.038426671 -0.42187369 0.64978278
0.037377361 -0.40320191 0.65115219
0.01881149 -0.33953431 0.67492688
-0.01402251 -0.33316329 0.70269871
-0.01236691 -0.247447 0.70619613
-0.02073439 -0.33893269 0.71101218
-0.02724958 -0.26444569 0.71962649
-0.019587601 -0.1704046 0.71496749
0.095541552 -0.1528264 0.81669033
0.030104671 -0.44987619 0.8322916
0.1066838 -0.15122689 0.87782502
-0.033768959 -0.36153829 0.73606122
0.085399851 -0.14894409 0.61980921
0.118632 -0.37253329 0.59661818
0.112957 -0.13790829 0.64563888
0.2309825 -0.14755391 0.72456491
0.1163982 -0.1978509 0.5975008
0.1202855 -0.43354511 0.59325743
0.15820301 -0.1399813 0.64077473
0.04298557 -0.2140085 0.66008288
0.041276529 -0.14876901 0.79531789
0.082808152 -0.15025631 0.86048043
0.081585713 -0.2093139 0.62739569
0.1175499 -0.3312293 0.58558393
0.1177922 -0.204547 0.59097898
0.2029006 -0.1424678 0.69820249
-0.00383726 -0.14856841 0.76798201
0.1651329 -0.29331371 0.63051999
0.2242464 -0.15670951 0.71080709
0.1363498 -0.29337841 0.60582548
0.1225233 -0.32116851 0.58809948
0.1200305 -0.3465586 0.58792931
0.23601571 -0.41395459 0.70387691
0.1512001 -0.21454871 0.61888587
0.1169461 -0.21961521 0.59121841
0.1567893 -0.42766139 0.61374688
0.1224609 -0.16109911 0.59344292
0.14080089 -0.17528559 0.61234647
0.1549256 -0.2428527 0.61955762
0.23797201 -0.2961376 0.71149951
0.2337178 -0.28570539 0.70879519
0.18509801 -0.3771148 0.64421642
0.1640332 -0.32334131 0.63536471
0.2127344 -0.3751317 0.67662388
0.2561906 -0.38336521 0.72853899
0.23854171 -0.3333568 0.70757419
0.26511821 -0.34082109 0.75336123
0.2078471 -0.2876983 0.67371452
0.1420968 -0.1955975 0.60322422
0.1379378 -0.30268249 0.60298699
0.2026225 -0.1694373 0.68521708
0.1034164 -0.1517293 0.61406302
0.1371813 -0.1445981 0.66968489
0.1946312 -0.23013701 0.66650802
0.1257845 -0.39534429 0.58748662
0.1728155 -0.41692531 0.63126689
0.1301135 -0.30909371 0.59614122
0.1274083 -0.34177589 0.59039372
0.1538536 -0.18667141 0.62859458
0.15113629 -0.1748327 0.62281191
0.1320599 -0.1531288 0.60682672
0.1881253 -0.4153474 0.64676672
0.12609421 -0.1535977 0.60237563
0.238226 -0.1902312 0.7154898
0.1039896 -0.1442382 0.68886012
0.1389264 -0.2351917 0.60006219
0.17459659 -0.2088922 0.64567238
0.1679192 -0.4134787 0.62274688
0.1317756 -0.29906911 0.59719813
0.1883478 -0.3770332 0.64518672
0.2074836 -0.41639289 0.66886568
0.1733779 -0.28366539 0.63984722
0.1363278 -0.41252151 0.5995875
0.2651968 -0.3718223 0.75357229
0.2058733 -0.39005771 0.67029792
0.21803521 -0.33330631 0.68894982
0.23874921 -0.36585319 0.70538408
0.050556552 -0.14331689 0.82681489
-0.016207861 -0.15325379 0.74634981
-0.037467141 -0.1447085 0.72682881
-0.01007405 -0.1461527 0.72136092
0.1145368 -0.145889 0.75056797
0.22048891 -0.2339669 0.69091189
0.1527973 -0.32463431 0.61586851
0.1314858 -0.35278609 0.59347451
0.190174 -0.2292134 0.65820652
0.13945571 -0.1774026 0.60486722
0.1839935 -0.15096921 0.65613163
0.2024945 -0.25275531 0.6838789
0.1232914 -0.4218452 0.59194791
0.04062818 -0.15507171 0.66692883
0.1836807 -0.19823471 0.66394413
0.26503879 -0.27071971 0.75395322
0.1667608 -0.1389775 0.63885099
0.21935301 -0.2673178 0.68698019
0.2099158 -0.300322 0.68069488
0.1854215 -0.2557326 0.65038109
0.15118781 -0.2429778 0.62420541
0.1718294 -0.260295 0.63572669
0.13661399 -0.35371849 0.59662151
0.1996378 -0.33727121 0.66860503
0.2060284 -0.43825331 0.67217177
0.2208298 -0.22861449 0.69976228
0.1939498 -0.1457797 0.67263699
0.2136223 -0.2306852 0.68526173
0.15494581 -0.14974 0.63158762
0.1970147 -0.1734148 0.67998981
0.1481439 -0.1995465 0.61772609
0.19496439 -0.25532541 0.67466992
0.15949181 -0.14197201 0.74428719
0.15423021 -0.2838783 0.6223532
0.1713323 -0.3659977 0.63223708
0.1504434 -0.3507567 0.61168259
0.1696991 -0.38283381 0.62688702
0.1373888 -0.33732811 0.60068768
0.139377 -0.28070009 0.6038903
0.1388862 -0.33909729 0.605488
0.19645409 -0.40077469 0.66254789
0.1947546 -0.37771219 0.66262847
0.13619851 -0.2157346 0.6089102
0.15987431 -0.2898663 0.62586832
0.2447079 -0.42507261 0.71477741
0.01847001 -0.1514169 0.69109643
0.1196236 -0.1436788 0.66001248
0.1223633 -0.2258953 0.59410948
0.2441961 -0.39780131 0.72465903
0.20906641 -0.3406215 0.68049723
0.1566167 -0.177168 0.63530511
0.1356945 -0.18247721 0.60850048
0.2003146 -0.16138589 0.68344063
0.2313868 -0.1863981 0.7179594
0.1921331 -0.2752122 0.66883773
0.238105 -0.2817004 0.72009301
0.21469849 -0.29092011 0.69003439
0.2457829 -0.21250591 0.73182029
0.2206822 -0.2440044 0.69429648
0.2592079 -0.1382384 0.75646353
0.17812461 -0.1399097 0.65166873
0.23438381 -0.17040449 0.72204572
0.25719079 -0.2706179 0.73895031
0.2623477 -0.30302539 0.74620402
0.23579019 -0.33669701 0.71407712
0.2105851 -0.42007229 0.67661548
0.1192904 -0.3354587 0.58393908
0.26205361 -0.37195769 0.7432059
0.1378946 -0.40821159 0.59977841
0.080042042 -0.146484 0.63242012
0.080296122 -0.27681309 0.61866128
0.19958019 -0.2339962 0.67911088
0.2042727 -0.2716848 0.68009478
0.1839755 -0.29063869 0.6599105
0.2246587 -0.30172649 0.7030645
0.13365801 -0.26640669 0.60190278
0.2304159 -0.156455 0.71450943
0.23578119 -0.2254663 0.72063851
0.1480296 -0.1758154 0.62214518
0.1023984 -0.43551591 0.5849973
0.19056641 -0.36254239 0.66177499
0.2115903 -0.1528257 0.69667929
0.143409 -0.14455689 0.77260989
0.22259989 -0.1450849 0.76026958
0.2529231 -0.14755049 0.74090171
0.1486733 -0.42075121 0.60579008
0.15419251 -0.34646231 0.6142326
0.2557804 -0.41450831 0.72849691
0.1763448 -0.2489371 0.64866543
0.1863495 -0.41905579 0.64851922
0.12613741 -0.21991199 0.59638488
0.25789109 -0.36911619 0.7330547
0.089941427 -0.1413179 0.6589303
0.1824107 -0.2720384 0.64932328
0.17097931 -0.22994231 0.64691591
0.1809402 -0.37505409 0.64002782
0.2441815 -0.3259263 0.73055112
0.2389617 -0.2224465 0.71917689
0.1979124 -0.1991435 0.67722851
0.14643399 -0.2743966 0.61218828
0.230764 -0.28763869 0.70780921
0.2054581 -0.38078079 0.67270058
0.1725587 -0.31626871 0.64050329
0.26148301 -0.28157011 0.74386251
0.1444755 -0.2057227 0.61151558
0.2081503 -0.33846521 0.67543018
0.1320952 -0.1626541 0.6044867
0.2675119 -0.3017838 0.7495414
0.25871149 -0.29794309 0.73385352
0.26625219 -0.23994081 0.7505123
0.215996 -0.4269357 0.67436957
0.26374909 -0.3594186 0.74428958
0.27708909 -0.35372749 0.75810808
0.16010579 -0.14654981 0.68266571
0.2567431 -0.33743101 0.74741971
0.2104706 -0.13937379 0.72162008
0.20220301 -0.1388029 0.69452131
0.081794403 -0.1418988 0.67924148
0.15815911 -0.13936029 0.77009767
0.26377961 -0.40494049 0.75187862
0.15923201 -0.14022329 0.64663279
0.1399574 -0.14220621 0.74906439
0.12728439 -0.14112779 0.7479589
0.089217253 -0.1372081 0.64485151
0.08719299 -0.1389959 0.66330153
0.1036595 -0.14109699 0.66391861
0.103434 -0.1398049 0.60909933
0.033073161 -0.1414856 0.67500538
0.1487112 -0.1396295 0.71271628
0.26438349 -0.4013699 0.75345951
0.2621097 -0.27142641 0.75237268
0.2471184 -0.32219791 0.77110678
0.25939181 -0.1973495 0.75616318
0.24578381 -0.31671739 0.77285159
0.2605907 -0.2095395 0.75232339
0.26328361 -0.2736409 0.75034952
0.24639431 -0.36671749 0.77228367
0.26022971 -0.1447856 0.75610721
0.25664309 -0.1377358 0.75632823
0.25380239 -0.13902991 0.76030898
0.2414884 -0.4343586 0.65897709
0.25238371 -0.35194919 0.76395929
0.26203191 -0.1609716 0.75265372
0.21051291 -0.41216481 0.79752553
0.23603749 -0.43385229 0.64985383
0.2436702 -0.24328279 0.7717526
0.1704113 -0.14124011 0.73596632
0.1957503 -0.1348273 0.72148848
0.2607778 -0.1634272 0.75442213
0.26011151 -0.37223089 0.74866593
0.26223981 -0.2134698 0.74913311
0.0912361 -0.14312699 0.62313092
0.1242155 -0.14168771 0.66141719
0.2636236 -0.37078601 0.74621618
0.25858411 -0.31949791 0.75704622
0.2432259 -0.1791044 0.77265108
0.2588383 -0.2777665 0.75744039
0.1308784 -0.1399397 0.76332468
0.071015343 -0.1452176 0.752397
0.22192679 -0.30738971 0.78690702
0.24441861 -0.2209229 0.74707448
0.24448571 -0.2091939 0.76835948
0.22871549 -0.14081921 0.76159859
0.21854509 -0.137777 0.77121878
0.1008269 -0.1396351 0.65930581
0.15400819 -0.1424268 0.64652991
0.15917911 -0.14228889 0.63391358
0.1660715 -0.1494927 0.64348662
0.1184287 -0.1442652 0.64739358
0.1944662 -0.13566761 0.69123858
0.1874526 -0.1394159 0.72442693
0.1342437 -0.3555527 0.59204757
0.1498953 -0.1429418 0.74377209
0.089241497 -0.1429477 0.73391169
0.12986919 -0.1437377 0.7628603
0.18556429 -0.14198589 0.75774348
0.1777557 -0.138661 0.75398391
0.1568668 -0.1423521 0.62593043
0.123438 -0.2088505 0.58717161
0.02083119 -0.1440306 0.69743419
0.040106181 -0.14743941 0.7224344
0.158079 -0.14021979 0.76525187
0.24302191 -0.1450834 0.73230499
0.1468246 -0.1402908 0.76888847
0.20707481 -0.14432 0.69829339
0.1929452 -0.1407235 0.78910458
0.1326523 -0.1405265 0.75185108
0.208961 -0.139349 0.78206879
0.065895401 -0.14889669 0.75153542
0.1816809 -0.14323109 0.70048022
0.04572254 -0.1412303 0.71534002
0.09170115 -0.1433125 0.77613622
0.056772169 -0.1443698 0.74030328
0.116044 -0.14341 0.77744818
0.04496007 -0.14336529 0.75004667
0.1075247 -0.14581691 0.79387999
0.1524439 -0.1418488 0.79749221
0.1660482 -0.1428932 0.82759029
0.123272 -0.14437041 0.84631169
0.12512229 -0.1431817 0.65081459
0.001836819 -0.1450561 0.74928093
0.14071199 -0.14433859 0.83112907
0.085790433 -0.1408378 0.64095378
0.1397219 -0.1378707 0.70135093
0.050471671 -0.14703611 0.79680109
0.090052567 -0.1460634 0.81326169
0.068689421 -0.1438674 0.74282932
0.1159951 -0.159816 0.58316529
0.1403712 -0.35356191 0.59983391
0.086669087 -0.1482244 0.64929593
0.1239432 -0.14575981 0.76053858
0.182363 -0.1398821 0.80447268
0.097327419 -0.14455821 0.72697592
0.2402904 -0.14306641 0.73914152
0.1446535 -0.14123569 0.66195571
0.1172372 -0.1441565 0.68127787
0.091943368 -0.14053451 0.71332288
0.1135338 -0.1403036 0.78360552
0.067016989 -0.1431852 0.69114202
0.042819589 -0.1468171 0.70468909
0.2311417 -0.14264411 0.75888872
0.076521032 -0.1459897 0.87160468
0.15378191 -0.1431459 0.66043371
0.1779502 -0.1483631 0.79131681
0.048328072 -0.14994881 0.83410442
0.004565258 -0.14386509 0.78391957
0.084803872 -0.14926711 0.87207472
0.075330153 -0.1422316 0.61746758
0.1021093 -0.1372195 0.62691188
0.1107835 -0.14502139 0.58373493
0.095260277 -0.1487294 0.59507239
0.0828036 -0.146292 0.61568242
0.1678651 -0.14243411 0.68428111
0.1630125 -0.1443904 0.72276038
0.072601199 -0.1430622 0.6276195
0.1476918 -0.1429534 0.7035718
0.1456722 -0.1351831 0.67746568
0.056159589 -0.1526766 0.83890653
0.083568543 -0.1438823 0.7651276
0.1546665 -0.1408558 0.72139239
-0.00073103968 -0.1480224 0.76446629
0.087761723 -0.1467126 0.82930118
0.048854008 -0.1452066 0.67087191
0.04009781 -0.1442194 0.6432696
0.112012 -0.1497044 0.79639173
0.024546331 -0.1442481 0.72901893
0.1065124 -0.1455252 0.87019199
0.1163676 -0.14545929 0.84356242
0.05411493 -0.1481687 0.75096339
-0.0013096021 -0.15451761 0.684389
0.09871792 -0.1417073 0.78872073
0.064798109 -0.1448307 0.68031752
0.03797489 -0.143142 0.6651274
-0.04448808 -0.14917479 0.73445499
-0.028856279 -0.1442349 0.7072919
0.1649636 -0.1438823 0.73407191
-0.01574403 -0.15596969 0.74202389
0.17895 -0.1461049 0.71777463
0.2324063 -0.29410949 0.70551759
0.14563701 -0.14088529 0.73316813
0.074886389 -0.14304461 0.68628329
-0.02074982 -0.14564291 0.70800382
0.1146905 -0.1455546 0.69988018
0.20201799 -0.1421088 0.68612242
-0.026648801 -0.1604172 0.74634773
-0.02096962 -0.14439151 0.7007184
0.16761459 -0.14493661 0.7629199
0.1023134 -0.13801961 0.58652592
0.1013698 -0.1403624 0.60672933
0.213771 -0.1443186 0.71910453
0.072392844 -0.14800429 0.82574201
0.13327821 -0.39293641 0.59063089
0.1015757 -0.152014 0.8284331
0.1767294 -0.1419048 0.74678141
0.1030305 -0.1611916 0.59405673
0.1902689 -0.36169469 0.65304297
0.13637219 -0.14911769 0.75006491
0.1522131 -0.1441181 0.69646782
0.186546 -0.1486937 0.66496879
0.15357681 -0.1431378 0.81004268
0.1657865 -0.1422974 0.70287758
0.18924101 -0.1430836 0.78602839
0.1848169 -0.1436961 0.7345714
0.20509461 -0.1493137 0.79269117
0.1715935 -0.1460069 0.82065737
0.1992977 -0.1379447 0.78200889
0.1717332 -0.2308699 0.64476663
0.2183748 -0.1550054 0.69908983
0.2401703 -0.1679756 0.72242832
0.20834249 -0.2479988 0.69342363
0.2155208 -0.246804 0.68983668
0.143537 -0.1496568 0.75840843
0.1587476 -0.2211466 0.63487172
0.1792409 -0.37651041 0.63853478
0.139595 -0.41635889 0.59616339
0.19496331 -0.15148599 0.70588648
0.1731271 -0.3252745 0.63843131
0.2046307 -0.14058159 0.72862041
0.1968146 -0.13836171 0.69351482
0.2070117 -0.14439251 0.7168206
0.2190578 -0.1386497 0.75772047
0.032189481 -0.14384609 0.8206467
0.148148 -0.1417028 0.75902379
0.073877066 -0.1479651 0.79438668
0.22207449 -0.1461084 0.78250521
0.1528402 -0.2123065 0.84285551
0.0322311 -0.1425682 0.68684763
0.25352341 -0.16528881 0.75410253
0.041581079 -0.1487437 0.72263849
0.1274891 -0.14356869 0.7607038
0.02127469 -0.15046249 0.80634803
0.12341 -0.1468745 0.86009502
0.1524311 -0.18544769 0.84176868
0.1661482 -0.146643 0.65376371
0.220485 -0.1546454 0.78016031
0.22858161 -0.2012285 0.77644098
0.078569889 -0.14883471 0.81857651
0.1030997 -0.31028911 0.88639712
0.09460225 -0.39625031 0.88292831
0.1536404 -0.207605 0.84078199
0.1717758 -0.1403044 0.81829661
0.1127032 -0.14259189 0.83879232
0.2138961 -0.31513619 0.79265583
0.2501488 -0.21692771 0.74998999
0.065121777 -0.1455781 0.69289052
0.1009334 -0.1480819 0.85346287
0.25132361 -0.34326589 0.74169672
0.1494457 -0.1357473 0.73563212
0.15530591 -0.182551 0.83879101
0.1472147 -0.36785969 0.85087979
0.076773994 -0.1484282 0.78070551
0.074003957 -0.1436362 0.62944752
-0.02647805 -0.14967769 0.75733149
0.03677183 -0.14423139 0.70919669
0.25547719 -0.31510279 0.74699408
0.25617641 -0.16700441 0.75046468
0.1490781 -0.37810791 0.84533441
0.1401934 -0.1483779 0.84705538
0.1756255 -0.1580897 0.82152379
0.1872353 -0.14349741 0.77110559
-0.001402288 -0.1485053 0.73957849
0.091508977 -0.23509941 0.88752133
0.094891429 -0.28195709 0.88609368
0.1811343 -0.1624558 0.81290263
0.2448909 -0.27120301 0.74903101
0.23494001 -0.3071346 0.77527332
0.1178545 -0.25660181 0.87100869
0.1158911 -0.1472322 0.86725992
0.26042339 -0.41417849 0.74665147
0.2448674 -0.2101526 0.76884669
0.13203339 -0.3252672 0.85528082
0.2400367 -0.211824 0.76841748
0.25228 -0.2149839 0.7482962
0.1102641 -0.1482207 0.87731868
0.2203531 -0.31256521 0.7861191
0.2436607 -0.4308506 0.76611209
0.2436251 -0.28931531 0.76163483
0.2233548 -0.39142659 0.78639883
-0.0091285296 -0.1478958 0.69940901
0.0077222469 -0.1467828 0.68548942
0.1066178 -0.1423196 0.66882747
0.1785289 -0.14199769 0.78979158
0.1965739 -0.13954119 0.71509957
0.1196809 -0.14425699 0.68697453
0.1029875 -0.145235 0.77853233
0.25940189 -0.41007939 0.74889249
0.088659398 -0.1428677 0.61682612
0.166549 -0.1787115 0.82866561
0.22852559 -0.23816989 0.77379388
0.1027096 -0.44983861 0.8750518
0.1458604 -0.1422395 0.68082303
0.1753055 -0.44331539 0.82072359
0.22119039 -0.181243 0.7804693
0.1340616 -0.38542041 0.86042202
0.25563219 -0.31588039 0.74277312
0.1077106 -0.24254289 0.87873662
0.18772469 -0.40723819 0.81422812
0.1147342 -0.36579171 0.87802851
0.2392396 -0.446648 0.65410513
0.091647983 -0.3159264 0.88909322
0.18661439 -0.14784379 0.80813158
0.2561723 -0.2799601 0.74512869
0.1206148 -0.3026692 0.86731517
0.2499042 -0.38521701 0.74003702
0.2297854 -0.1720798 0.77543688
0.090878882 -0.3420898 0.89019442
0.1122972 -0.31584051 0.8780033
0.1575558 -0.35859621 0.84037942
0.1450669 -0.1406779 0.74096972
0.2138882 -0.42610201 0.78544402
0.1078029 -0.2271859 0.8796525
0.24142151 -0.330827 0.76675087
0.1441666 -0.1996942 0.84478539
0.1532896 -0.1541463 0.83670241
0.1234175 -0.1921546 0.86239243
0.1071379 -0.20094331 0.88021863
0.02475325 -0.1442412 0.67552781
0.04599914 -0.1444923 0.65415418
0.1105154 -0.14725059 0.79671818
0.16561329 -0.1462014 0.82584518
0.25735709 -0.3796806 0.74217552
0.25340489 -0.4281584 0.74562871
0.2494556 -0.33745301 0.75200158
0.1489249 -0.31086811 0.85153979
0.2224493 -0.42391911 0.78316891
0.2548497 -0.21657901 0.74390793
0.31205511 -0.44707999 0.6225974
0.29824501 -0.44962969 0.74780178
0.24516059 -0.29291591 0.760037
0.1780093 -0.1452096 0.81276971
0.24783219 -0.1434 0.75905877
0.2092178 -0.41584349 0.79631978
0.1673255 -0.1577282 0.82537538
0.17259809 -0.1759644 0.82100189
0.24656449 -0.2762287 0.75634831
0.2335832 -0.28933001 0.76895952
0.1449547 -0.22521441 0.84314162
0.1497627 -0.31750521 0.84580672
0.15295149 -0.1647771 0.83722693
0.1019574 -0.26511261 0.88426948
0.1308082 -0.317155 0.8598454
0.13611729 -0.45189959 0.85740101
0.1440338 -0.20072991 0.8487699
0.2408175 -0.25120011 0.76759648
0.1572533 -0.3912062 0.84282309
0.2374738 -0.15512741 0.76968652
0.09924607 -0.2197682 0.88470292
0.1110181 -0.27135491 0.87999231
0.1016637 -0.2564204 0.88439912
0.22192 -0.34410599 0.78422987
0.1402728 -0.42223009 0.85416597
0.2385302 -0.1831758 0.76954228
0.2501471 -0.3200067 0.75654519
0.1512956 -0.2887556 0.84478372
0.25026399 -0.42210439 0.75282568
0.1953176 -0.45156759 0.80630678
0.1291243 -0.28923601 0.85948431
0.1791646 -0.1436867 0.72639751
0.14862511 -0.1594971 0.83928412
0.1658721 -0.1742941 0.82699502
0.1384041 -0.1448331 0.65599871
0.1442343 -0.1424412 0.62501431
0.25566149 -0.34457171 0.74150401
0.25597271 -0.453269 0.74661863
0.2162755 -0.38435081 0.79174793
0.2491567 -0.37709531 0.7506364
0.1273836 -0.36460051 0.86741072
0.1413452 -0.42928791 0.85628343
0.1462283 -0.29290491 0.84610713
0.26220009 -0.35450199 0.752514
0.26019061 -0.4433603 0.73163313
0.1251045 -0.3648262 0.86555201
0.221604 -0.147484 0.77461749
0.2167161 -0.44744501 0.60352039
0.2247203 -0.23824871 0.77842933
0.2127855 -0.27013519 0.78758699
0.159464 -0.4515729 0.8364175
0.25421301 -0.36906791 0.75258482
0.2535558 -0.327571 0.7525779
0.1255019 -0.2346663 0.86072129
0.13975839 -0.25548279 0.85140091
0.21386141 -0.1800528 0.78503042
0.1051516 -0.1516975 0.88326633
0.2082472 -0.3624846 0.79674178
0.14656121 -0.3821224 0.85353178
0.1160303 -0.4324536 0.87468082
0.12592711 -0.32481229 0.86526978
0.115652 -0.3067396 0.87286258
0.2163927 -0.26878411 0.78912592
0.086993873 -0.14919581 0.86449289
0.14496709 -0.1482113 0.84314638
0.092230342 -0.1445373 0.81665897
0.24218351 -0.37782821 0.76517183
0.091626599 -0.1455095 0.63645071
0.092061788 -0.20364369 0.89004511
0.19010469 -0.14462321 0.73455459
0.1699795 -0.1408768 0.74158978
0.1075414 -0.14421859 0.73064792
0.22944769 -0.2865701 0.77684838
0.1127089 -0.29814431 0.87974578
0.1329428 -0.1584734 0.85589808
0.13711581 -0.3020536 0.85471112
0.15665621 -0.301667 0.84309012
0.096768692 -0.4550882 0.88791478
0.19399481 -0.4303669 0.80722177
0.1027582 -0.23594519 0.88547063
0.21996529 -0.36934629 0.78922451
0.1421912 -0.23898061 0.85000241
0.016478561 -0.15208741 0.77252352
0.05545909 -0.1540754 0.84092277
0.02448087 -0.14747401 0.83307368
-0.01460094 -0.14546619 0.787081
0.090745978 -0.40438971 0.88680029
0.090974972 -0.1782586 0.88924861
0.1300471 -0.27473909 0.86140209
0.1268384 -0.1894481 0.86249852
0.1005378 -0.17667709 0.88500649
0.098934531 -0.32894069 0.88677979
0.1060519 -0.1782261 0.88134873
0.12641241 -0.40716261 0.86914778
0.1001516 -0.37335029 0.88450921
0.1449026 -0.40959561 0.85159838
0.100742 -0.33379751 0.88479692
0.1131438 -0.33095029 0.87762958
-0.031745691 -0.14636829 0.72576302
0.17038129 -0.140752 0.74156511
0.092361622 -0.14644539 0.868864
0.1451795 -0.14118309 0.66414827
0.1467143 -0.1403999 0.66605133
0.01042002 -0.1460759 0.68880498
0.094622143 -0.14674351 0.86718422
0.1469838 -0.1411089 0.66650009
0.071007729 -0.1444948 0.69615358
0.16920149 -0.1423209 0.73997009
0.071332328 -0.1443416 0.69556028
0.069597207 -0.1472318 0.88063341
0.092947423 -0.1980322 0.89251912
0.085777171 -0.143388 0.77037448
0.1056739 -0.1445224 0.68154281
0.16298731 -0.14175171 0.71914399
0.2546421 -0.3225036 0.7735582
0.2492841 -0.26623029 0.77020341
0.26384509 -0.39209971 0.75287288
0.2541368 -0.1521007 0.7616961
0.26226139 -0.45110741 0.76434809
0.23925491 -0.4460527 0.65496641
0.41682881 -0.43558609 0.71342939
0.26352039 -0.2911472 0.75408459
0.261235 -0.1874781 0.75462359
-0.0030120299 -0.14622509 0.69854152
0.01610134 -0.1520676 0.80260217
0.1097335 -0.14326321 0.7819488
0.0001302476 -0.1495083 0.73879111
0.084366277 -0.14736409 0.82292378
-0.035390299 -0.14834 0.72106123
0.038185369 -0.14426769 0.70851052
0.04931939 -0.1467064 0.72748888
-0.022110891 -0.14709599 0.76102048
0.01074716 -0.1501119 0.70180678
0.1143859 -0.1460755 0.79415393
0.1048576 -0.30042341 0.89145058
0.21113691 -0.14290109 0.78805977
0.072455287 -0.14612021 0.86651552
0.177186 -0.1417373 0.80953932
0.1712414 -0.14233389 0.83072358
0.1652317 -0.1462066 0.83782059
-0.0042193909 -0.15065131 0.75956839
0.084537067 -0.42960119 0.88127428
0.0228251 -0.15000071 0.82327718
0.094532058 -0.1497965 0.7960003
0.099924281 -0.45573971 0.88905782
0.1494215 -0.14183 0.7104044
0.104466 -0.1416499 0.65556657
0.02309035 -0.28130731 0.81534261
0.105115 -0.1459413 0.61249238
0.017060351 -0.1463279 0.80839461
-0.023571519 -0.1501815 0.745161
-0.040869679 -0.32127401 0.74255168
0.073971309 -0.1570497 0.87147307
0.088057861 -0.14761589 0.87419093
0.0104204 -0.1488903 0.77509081
0.080338679 -0.36694431 0.88283497
0.027901789 -0.14554609 0.66803992
0.1041177 -0.38318509 0.88389599
0.1635914 -0.1383687 0.73094428
0.02230148 -0.33285359 0.81509608
0.075883523 -0.284998 0.86313647
0.080884807 -0.40370119 0.87951452
0.076078027 -0.31896231 0.87358809
-0.047318552 -0.1514585 0.73708552
-0.0003912785 -0.1492669 0.78923857
0.0045862072 -0.4093191 0.81097609
0.0048195948 -0.29898009 0.79563719
0.16925541 -0.1373412 0.68299758
0.077553883 -0.14188939 0.85789239
0.083893612 -0.28190589 0.88180512
0.04876155 -0.42674151 0.8486976
0.056098569 -0.20010909 0.85232228
-0.015982 -0.1476187 0.71563113
0.01637559 -0.42147231 0.808227
0.035066951 -0.26815799 0.83366799
0.084101997 -0.36195621 0.87730151
0.066946954 -0.31327939 0.86550891
0.087448023 -0.328188 0.88783592
-0.0499231 -0.39511159 0.71756017
0.37151149 -0.4446193 0.78056532
-0.018052259 -0.31788 0.76599503
0.1832145 -0.4483946 0.9951098
0.25957701 -0.44266489 0.96523267
0.055157039 -0.3355144 0.85249943
0.083867967 -0.4338696 0.88706428
0.084382363 -0.20548441 0.88344818
0.066473387 -0.1459296 0.75134343
0.063072503 -0.35376641 0.86264318
0.054477159 -0.31934339 0.85226768
0.032659288 -0.36612761 0.82901651
0.03560435 -0.29869509 0.83240449
0.071755514 -0.3948898 0.8722136
0.031082129 -0.41393179 0.82755041
0.086852834 -0.41733319 0.87837201
-0.027929019 -0.15654621 0.7616334
0.33261529 -0.4371472 0.80006641
-0.00070358731 -0.1898274 0.79209661
-0.03990408 -0.17382529 0.74897319
0.030610491 -0.39366069 0.82783842
-0.023022249 -0.33304229 0.76452363
0.042569771 -0.3212997 0.83977711
0.0061474112 -0.29850051 0.79237717
0.1921766 -0.1408062 0.8091017
0.03727299 -0.2840161 0.84014553
0.21991239 -0.1439281 0.74989522
0.29921111 -0.44412789 0.96333969
-0.04833094 -0.30249959 0.72962987
-0.0098597175 -0.3762866 0.77798939
-0.02240848 -0.43154421 0.75945932
-0.032636601 -0.38137579 0.75034308
0.077544637 -0.1712312 0.87476039
-0.01794116 -0.27372169 0.77233171
0.07993798 -0.37263799 0.87892491
