# .PCD v0.7 - Point Cloud Data file format
VERSION 0.7
FIELDS x y z normal_x normal_y normal_z curvature
SIZE 4 4 4 4 4 4 4
TYPE F F F F F F F
COUNT 1 1 1 1 1 1 1
WIDTH 581
HEIGHT 1
VIEWPOINT 0 0 0 1 0 0 0
POINTS 581
DATA ascii
0.25045672 -0.43149653 0.75916165 0.98824769 0.14331901 -0.053161383 0.00052561134
0.18998246 -0.16077587 0.55419785 0.73767257 0.67498082 0.015491926 0.037553705
0.20001578 -0.16814607 0.59872258 0.6776908 0.73020124 -0.086840965 0.020443494
0.099544846 -0.28721485 0.7149384 0.51170188 0.78654528 -0.3456988 0.01002979
0.15905008 -0.3020249 0.62834287 0.54311764 0.74573481 0.38587922 0.052393306
0.22132266 -0.33254102 0.53901523 0.93702298 0.33504292 0.098662406 0.0091198087
0.25325179 -0.46767169 0.66531116 0.96212959 0.25584373 -0.094077274 0.00097955926
0.24171931 -0.42321473 0.64773554 0.98695987 0.15207894 -0.052745968 0.0008702277
0.20969975 -0.16381623 0.8302024 0.87302268 0.48761067 -0.0082047908 0.066225119
0.19941522 -0.30679289 0.57158053 0.89283222 0.30784336 0.32875991 0.0063596568
0.23962557 -0.42236567 0.5372386 0.99260008 0.09999048 -0.068899348 0.0025120175
0.19569303 -0.21709462 0.53589076 0.99642044 0.016682139 -0.08287292 0.017244514
0.20788354 -0.19458671 0.82418835 0.98534375 0.10861255 -0.13153361 0.0034622543
0.16261357 -0.24281271 0.79606479 0.54165846 0.22118378 -0.8109771 0.0089722136
0.2491803 -0.36898229 0.80775619 0.97727561 0.19745003 -0.077109337 0.00081439636
0.10533845 -0.1398185 0.72122252 0.0076054726 0.99962634 -0.026255915 0.00041589103
0.23098575 -0.32799521 0.61846828 0.98667651 0.14891699 -0.065522619 0.0020402609
0.24439399 -0.4863691 0.57550645 0.94138104 0.16223414 -0.29577309 0.0048176516
0.10781997 -0.13808674 0.74444401 0.0077220895 0.99983943 -0.016171034 0.00040102997
0.20032074 -0.15488984 0.69425982 0.46886754 0.88322985 -0.0082510542 0.018369239
0.24194795 -0.43515155 0.59479362 0.98052788 0.19176994 -0.042300422 0.0016237566
0.20600888 -0.15958576 0.66842479 0.71567905 0.68879008 -0.11563651 0.088396303
0.19926718 -0.16926989 0.65767241 0.79984057 0.51027298 -0.31603247 0.1144327
0.13106127 -0.27690664 0.76400632 0.39851004 0.55369145 -0.73117399 0.026962064
0.13119829 -0.2654725 0.76896501 -0.39034534 -0.48354596 0.7834627 0.020647684
0.18357702 -0.30633846 0.68843931 -0.13644865 -0.99036926 0.023464249 0.0036034274
0.13124384 -0.24743734 0.76350367 0.76201826 0.11331662 -0.63756365 0.063496433
0.24482636 -0.41823056 0.70587569 0.99039996 0.11724601 -0.073220588 0.00013372771
0.27188301 -0.50848335 0.73080164 0.96151078 0.27044901 -0.048522092 0.0099697877
0.25011489 -0.3777439 0.80863237 0.99367243 0.07868576 -0.080148578 0.00032707833
0.21232256 -0.17140327 0.73855036 0.61222875 0.7846657 0.097342923 0.0069260043
0.19870263 -0.29309359 0.82568133 -0.26830196 -0.86953235 0.41464147 0.017776828
0.2061564 -0.19421157 0.81965834 0.98534155 0.089013562 -0.14552929 0.0032303552
0.22004229 -0.22693056 0.85645837 0.99228787 0.11687028 0.041304015 0.018343095
0.21525002 -0.19684218 0.8554455 0.98937517 0.14526859 -0.0058305473 0.0066524711
0.20593257 -0.16971487 0.80897886 0.8739664 0.48329607 0.051065564 0.091567598
0.25833055 -0.45163333 0.82413882 0.97548217 0.19997087 -0.091903292 0.00054581848
0.26203027 -0.49563247 0.77847821 0.97455788 0.21286049 -0.070194691 0.0018876069
0.25011805 -0.40080792 0.88917255 0.92575729 0.19844502 0.32185882 0.0084785679
0.26825407 -0.51038134 0.6829927 0.96568257 0.25391674 -0.054621328 0.013767688
0.25350833 -0.38245106 0.85014129 0.99422407 0.10668822 0.011668032 0.0030033307
0.25209588 -0.3771683 0.86251527 0.98877072 0.099848159 0.11118856 0.0073812041
0.1460551 -0.24699399 0.78369182 0.51068068 0.27515674 -0.81455141 0.0075394874
0.22283302 -0.3139939 0.7023229 0.38297987 0.91685933 0.11267374 0.033519335
0.21691807 -0.22477986 0.85083765 0.98756266 0.14982043 -0.047684997 0.0090505965
0.1561798 -0.29760242 0.74918926 -0.3076176 -0.7745828 0.55262375 0.031734083
0.23119925 -0.32391506 0.62792891 0.98685682 0.15545599 -0.044125769 0.0021891349
0.2500591 -0.3855224 0.79627949 0.99270743 0.071076706 -0.097365446 0.00031091864
0.26114389 -0.43639678 0.88058096 0.98726237 0.15159282 0.048298232 0.0048074857
0.022085249 -0.1368017 0.7690118 0.0040435488 0.99998999 -0.0019250674 0.00089586462
0.24486615 -0.32139093 0.87876993 0.9378255 0.21188526 0.27493277 0.022097889
0.25318336 -0.48001027 0.59769416 0.96068436 0.2563462 -0.10664047 0.0060948166
0.12350468 -0.2930105 0.63396615 0.43709767 0.8991437 -0.022053115 0.012356001
0.11261772 -0.29666859 0.68950111 0.73393965 0.66670936 0.12973486 0.019178323
0.210253 -0.21936224 0.83429593 0.98862654 0.10446866 -0.1081841 0.0068324134
0.20119038 -0.15798333 0.65823573 0.6474154 0.74678332 -0.15221061 0.01826353
0.2329096 -0.34597927 0.61536515 0.99067581 0.10816976 -0.082828984 0.00028668714
0.23416558 -0.28913593 0.87728733 0.84154952 0.35772416 0.40475661 0.053983815
0.20534527 -0.15984133 0.70470762 0.50166976 0.86470181 -0.024863476 0.016314782
0.21657428 -0.22311637 0.84555137 0.98639756 0.15870638 -0.042803541 0.0098252818
0.21996002 -0.22714818 0.86139023 0.98726779 0.067600846 0.14398769 0.028238617
0.26191103 -0.4418529 0.87131572 0.98524344 0.16183086 -0.055732738 0.0025311152
0.2308545 -0.31198794 0.64969385 0.98949575 0.14357209 -0.016884791 0.0014699869
0.26286453 -0.46342376 0.84051418 0.96798414 0.22721465 -0.10667835 0.00052250584
0.25146136 -0.39013395 0.88050395 0.93919683 0.17276505 0.29675159 0.008151955
0.24542521 -0.43112949 0.68260306 0.98297495 0.16930905 -0.071377374 0.00078666379
0.25366953 -0.45057029 0.76589513 0.98376346 0.16702747 -0.065660372 0.0007348822
0.24518922 -0.40483198 0.71800667 0.99207872 0.10341589 -0.071308404 0.00023000367
0.25269306 -0.43975019 0.78684729 0.98450768 0.1596919 -0.07240922 0.00040239817
0.24087018 -0.41905436 0.61507857 0.9902885 0.13413101 -0.036574047 0.00059639296
0.24182402 -0.43489638 0.61275285 0.98694462 0.1564918 -0.038088255 0.0012121254
0.25538996 -0.40045041 0.8535291 0.98094022 0.18790022 0.049495924 0.0023249213
0.23521501 -0.34853476 0.63276941 0.99231225 0.11262421 -0.051304471 0.0011348487
0.2533274 -0.45770824 0.74859303 0.98340726 0.17229825 -0.056775242 0.00097816845
0.24674289 -0.35455522 0.88236761 0.88451815 0.11542352 0.45200124 0.015671125
0.24935067 -0.34981963 0.85525823 0.99105209 0.12962076 0.031848487 0.0035952097
0.20610829 -0.28286046 0.52585816 0.94157201 0.32805952 0.076283991 0.019757062
0.22163773 -0.33392093 0.53743136 0.93590361 0.34917337 0.046501189 0.01204746
0.20623611 -0.2859768 0.52962846 0.93844688 0.32732067 0.11035693 0.014529534
0.24069001 -0.3090359 0.87861639 0.87624884 0.28452814 0.38888526 0.040020175
0.22344281 -0.3443642 0.52972549 0.96037698 0.27487311 -0.046052679 0.0083152056
0.23900487 -0.31019026 0.81782597 0.55000567 0.82512349 -0.12909274 0.022412106
0.24550848 -0.36642355 0.76987469 0.97258258 0.20623915 -0.10746381 0.0020001903
0.20907666 -0.16236752 0.68373048 0.77984881 0.6211319 -0.077660039 0.087162539
0.2391257 -0.41543081 0.53728557 0.99189103 0.097634651 -0.081360601 0.0024634339
0.21005116 -0.29489616 0.82339495 -0.27786502 -0.86538321 0.41701671 0.013938027
0.093722269 -0.13897501 0.79004526 0.030250818 0.99954027 0.0020049191 0.0004245243
0.20816369 -0.30516496 0.54947299 0.91750598 0.33697158 0.21126492 0.0068107853
0.26533049 -0.47071174 0.84784764 0.97422272 0.19889879 -0.10644004 0.00042154358
0.12046512 -0.1382743 0.75092131 -0.0014035503 0.99987876 -0.015508939 0.00040277318
-0.032220736 -0.13684218 0.81269443 -0.0015661928 0.9999913 0.0038687987 0.00038346477
0.2456089 -0.38406235 0.89406145 0.9122622 0.13457671 0.38686782 0.016054474
0.26276752 -0.45281109 0.86426711 0.9783597 0.18382311 -0.094980322 0.00063119968
0.23936744 -0.33301607 0.88895088 0.84027368 0.13759986 0.52441043 0.016170304
0.21509646 -0.22312638 0.83690959 0.98699594 0.13918243 -0.080419369 0.0087984167
0.186948 -0.15874752 0.54714119 0.78648704 0.61743641 -0.014505541 0.037346333
0.22969928 -0.31411693 0.67302936 -0.16448002 -0.98073781 0.10535499 0.0070090126
0.16056305 -0.30375525 0.63020551 0.36975303 0.92028016 0.12793359 0.020690724
0.24269207 -0.4216916 0.66175491 0.98525983 0.16169988 -0.055823535 0.00079880905
0.19261983 -0.29338086 0.82367897 -0.27385354 -0.90308034 0.33083254 0.014015069
0.26492572 -0.50809407 0.62080908 0.94065863 0.25248855 -0.2267399 0.0022988396
0.23962866 -0.42530063 0.53614593 0.99260008 0.09999048 -0.068899348 0.0025120175
0.24613392 -0.40959591 0.72099334 0.99221969 0.10265512 -0.070441529 0.00015560264
0.19510195 -0.16692998 0.58042586 0.65663528 0.74486536 -0.11834551 0.027989833
0.24659824 -0.45305604 0.6235618 0.9762339 0.21282431 -0.040905431 0.0012174636
0.2447606 -0.43545279 0.66722655 0.98264474 0.1756874 -0.059525672 0.0005544927
0.14551996 -0.28530836 0.76558501 0.39903387 0.55371892 -0.73086762 0.027291199
0.2384613 -0.32291946 0.77567798 0.71500105 0.61615431 -0.33034432 0.041239053
0.25939703 -0.43231153 0.86282355 0.9843803 0.16694169 -0.055910155 0.0021640814
0.25062487 -0.42419541 0.77085334 0.99231666 0.10121457 -0.071157143 0.00053349586
0.24982436 -0.41768616 0.76749319 0.99326998 0.09353444 -0.068309091 0.00050427933
0.15114172 -0.13807508 0.79528773 -0.014324813 0.99982738 0.011836165 0.0010794712
0.24682954 -0.43658304 0.68920904 0.98434556 0.16380417 -0.065054052 0.00085159828
0.24852872 -0.43317324 0.72781831 0.98857343 0.1349979 -0.067067817 0.00038937418
0.24907579 -0.43559286 0.7328456 0.98796821 0.14087532 -0.06382034 0.00048178571
0.24714924 -0.43323684 0.70144302 0.99038911 0.11891573 -0.070628777 0.00013815134
0.25744367 -0.4699313 0.73873502 0.96470755 0.26316407 0.0091627399 0.0030046748
0.2391513 -0.39343125 0.66374624 0.99207777 0.11606146 -0.048077662 0.00022312315
0.24917454 -0.44113639 0.71186972 0.98484653 0.16064654 -0.065345071 0.0011361582
0.23184602 -0.34351298 0.61171198 0.99013776 0.11085362 -0.085665874 0.00032595717
0.11831482 -0.30014741 0.71329975 0.31092805 0.87876737 -0.36206582 0.012751514
0.24618901 -0.45198667 0.64782649 0.98108113 0.18633407 -0.052529793 0.00087181217
0.25211665 -0.4038693 0.89011103 0.92336154 0.2174017 0.31644893 0.0076612141
0.24154413 -0.42582345 0.61849499 0.99021292 0.13462196 -0.036814611 0.00050933065
0.20768413 -0.30746841 0.76580745 0.44664946 0.89316845 -0.052481882 0.0086537106
0.23855518 -0.33029932 0.7951197 0.90026325 0.37266755 -0.22504464 0.047461543
0.25393119 -0.40146354 0.88133323 0.95248097 0.19041784 0.23774143 0.0055032903
0.1843611 -0.25293967 0.5572145 0.97028363 0.12504931 0.20715293 0.023542618
0.14920034 -0.26518941 0.60009491 0.4982973 0.57555896 0.64840698 0.010238457
0.19688042 -0.1887559 0.53679556 0.96619695 0.20447195 -0.15701808 0.013812644
0.21171248 -0.29557934 0.50098646 0.94796282 0.31172171 -0.064777732 0.01717452
0.22656776 -0.36786455 0.50034684 0.86543804 0.24422473 -0.43746001 0.03193675
0.21569508 -0.15407446 0.78746033 0.51553816 0.83869237 0.17554358 0.029508682
0.19175465 -0.30541757 0.76663816 0.35348639 0.93350577 -0.060120668 0.010086278
0.21105798 -0.31051588 0.7263363 0.41729319 0.90810049 0.034927297 0.030482944
0.21922427 -0.32916981 0.50116313 0.95793033 0.1891737 -0.21583064 0.01699481
0.19614568 -0.1905382 0.52482313 0.94754064 0.21367136 -0.23772107 0.021984018
0.19288531 -0.17677143 0.52081871 0.90226161 0.3396306 -0.2656596 0.032581151
0.1907295 -0.16324143 0.53449845 0.84051073 0.52118009 -0.1480305 0.046805661
0.23284373 -0.3986111 0.51405698 0.96872246 0.11829839 -0.21813393 0.0037701328
0.21131192 -0.25775841 0.89063984 0.79787135 0.15403692 0.58281559 0.028868645
0.19067046 -0.16208616 0.5281347 0.8664602 0.4606666 -0.19243968 0.041253168
0.20876279 -0.16811135 0.81594568 0.90964419 0.41537803 0.002913398 0.074330457
0.26573005 -0.50583684 0.67273456 0.96691501 0.25433689 -0.019699348 0.021179089
0.24298382 -0.42019346 0.67731303 0.98936278 0.12922187 -0.066805154 0.00016569793
0.24287076 -0.42182112 0.66828829 0.9853006 0.16097404 -0.057185832 0.00075778982
0.19657017 -0.18748452 0.53613496 0.96088594 0.22116457 -0.16668674 0.01410784
0.20799722 -0.16245054 0.66546333 0.78128642 0.58746278 -0.21090057 0.10400882
0.17603116 -0.14307924 0.5259428 0.72861779 0.67057091 -0.13946639 0.071459576
0.2067486 -0.28903183 0.52253956 0.94977331 0.30760112 0.057551801 0.012937796
0.19748907 -0.35971838 0.47167733 0.52658093 0.22071669 -0.82097298 0.01490483
0.22654629 -0.37145928 0.49870661 0.84921592 0.28472891 -0.4447042 0.033590626
0.20836653 -0.28756469 0.49762601 0.91989493 0.3274703 -0.21576966 0.025547506
0.2214072 -0.38184056 0.48083773 0.74354893 0.20496546 -0.63649362 0.039754298
0.2276262 -0.38645604 0.48839599 0.81535631 0.21909034 -0.53590429 0.030163664
0.22224174 -0.37029338 0.4880079 0.85302907 0.23162277 -0.46764553 0.033804175
0.20998664 -0.29394349 0.49522465 0.92937356 0.32588279 -0.17339323 0.017544458
0.19512157 -0.26660886 0.49617696 0.52046579 -0.083919749 -0.84974867 0.074162498
0.23548311 -0.35392651 0.62546152 0.99067581 0.10816976 -0.082828984 0.00028668714
0.18344598 -0.16860348 0.50000429 0.68544143 0.37270683 -0.62550747 0.070209555
0.19041805 -0.18149483 0.50597864 0.80914378 0.26817137 -0.52284831 0.057906091
0.20314652 -0.24750307 0.50038749 0.78093916 0.21002822 -0.58823651 0.059975777
0.18072782 -0.14651282 0.53221107 0.77649742 0.62299001 -0.094526373 0.062824972
0.24259131 -0.36998677 0.72601682 0.98336267 0.15104367 -0.10091428 0.0013931267
0.21909404 -0.32845959 0.49949384 0.95178717 0.18188366 -0.24702154 0.019831397
0.19142261 -0.16524196 0.53048569 0.86645383 0.46067369 -0.19245143 0.041252803
0.26479492 -0.50551963 0.61100346 0.93339503 0.22463645 -0.27984327 0.0032808902
0.19993182 -0.30882272 0.56426471 0.89675093 0.3343814 0.28987378 0.0062669334
0.2104276 -0.17291674 0.84077704 0.96630979 0.24625453 -0.074860483 0.027419589
0.13028891 -0.28800938 0.74347568 0.39346942 0.74914265 -0.53288579 0.030184321
0.18842877 -0.17532235 0.507658 0.83851689 0.33833745 -0.42710322 0.049415082
0.19742346 -0.15176634 0.66506207 0.54713523 0.83513319 -0.056529351 0.022380592
0.18971129 -0.29896715 0.80873239 -0.23215407 -0.93617529 0.26397017 0.013904773
0.25173134 -0.43408495 0.77018797 0.98663467 0.15181215 -0.059203278 0.0006300676
0.24770917 -0.41833308 0.73090661 0.99172157 0.1107967 -0.064902477 0.00015595939
0.19103479 -0.18265675 0.50742704 0.83372802 0.27777049 -0.47722241 0.052769516
0.21928687 -0.41847089 0.47069576 0.72243243 0.088673629 -0.68573207 0.035931043
0.22379807 -0.44039905 0.46974757 0.51184142 -0.41348183 -0.75302792 0.048916172
0.23601584 -0.38189894 0.60988271 0.99044836 0.10011096 -0.09481518 0.00015457757
0.23265259 -0.39386272 0.51745141 0.97087449 0.15624803 -0.1816293 0.0029788874
0.21422493 -0.29709959 0.82164609 -0.30958685 -0.86047262 0.40465146 0.020200791
0.19277427 -0.21733566 0.50466394 0.80238187 0.11676322 -0.5852775 0.048705097
-0.026872668 -0.13723806 0.79506361 -0.0098370435 0.99995136 -0.00062461145 0.00056239311
0.19748467 -0.23486504 0.50234473 0.69615233 0.14506377 -0.70308495 0.082490601
0.19835842 -0.30458698 0.78806365 0.35215518 0.88860118 -0.29389581 0.016578533
0.055987049 -0.14146025 0.62835777 -0.036901556 0.99718136 -0.065326445 0.00073654007
0.038219847 -0.13750583 0.81910902 -0.0087847346 0.99976754 0.019691397 0.0011094939
0.17425193 -0.37349701 0.46189848 0.23455149 0.16256545 -0.95841432 0.010026271
0.21999086 -0.32257098 0.50945306 0.96861416 0.247113 -0.026866606 0.0088956328
0.25638041 -0.41417316 0.86119241 0.98439896 0.15364747 0.085739031 0.006102528
0.11838582 -0.1395862 0.72637731 0.015636161 0.99942392 -0.030123379 0.00038235713
0.2138038 -0.32379961 0.48983029 0.85377812 0.16852841 -0.4926064 0.033927098
0.24478033 -0.43648708 0.65837431 0.9830091 0.17386052 -0.058869313 0.00076476496
0.21944955 -0.37959588 0.47881445 0.66732866 0.176929 -0.7234422 0.044800855
0.15760711 -0.13749476 0.78801835 0.0067997859 0.9999606 -0.0056988178 0.0030298906
0.15966973 -0.3049486 0.71340972 -0.10013546 -0.98171073 0.16191645 0.0062107532
0.26262701 -0.46251377 0.84639907 0.97422862 0.20106812 -0.10222648 0.00047761173
0.22768518 -0.31403667 0.67156446 -0.16448002 -0.98073781 0.10535499 0.0070090126
0.24411969 -0.41752863 0.69111872 0.98982906 0.122214 -0.072815821 0.00015281743
-0.15746979 -0.13829681 0.6321438 -0.15516324 0.9878543 0.0082580699 0.0048819315
-0.099859357 -0.13752376 0.71576816 -0.024944063 0.9996649 -0.0069149798 0.00057630986
0.15439695 -0.1435882 0.57586473 0.24295574 0.96609974 -0.087314494 0.014904312
0.059753027 -0.13823985 0.75054306 0.011957881 0.9994508 -0.030903433 0.00020167341
-0.13206701 -0.13986109 0.57852912 -0.014674277 0.99559236 -0.092631228 0.0021154496
-0.011338228 -0.13707523 0.80831784 0.0024080353 0.99989229 0.014476821 0.00089721853
-0.012186346 -0.13993227 0.59852034 0.03717627 0.99928534 -0.0068355231 0.00045381763
-0.040716395 -0.14002451 0.55907959 -0.012362338 0.99257302 -0.12102043 0.0037856826
0.12656623 -0.13952801 0.73436105 0.019929579 0.99926519 -0.032741278 0.00062121195
0.19080673 -0.19624478 0.50458235 0.7848081 0.12031345 -0.60794818 0.056857403
-0.020523766 -0.13882911 0.60666811 0.030708065 0.99952388 0.0030079314 0.00064945436
0.1885968 -0.20917352 0.49928021 0.63864607 0.20110549 -0.7427569 0.06137893
0.19813511 -0.24483028 0.4945212 0.51104838 0.085982569 -0.8552407 0.052960962
0.0032805111 -0.31427523 0.50332534 -0.0079649109 0.94230211 -0.3346692 0.039894883
0.24176893 -0.43846399 0.57916152 0.99029124 0.13685097 -0.024393227 0.0015284967
0.16299109 -0.30152673 0.62120932 0.54311764 0.74573481 0.38587922 0.052393306
0.235773 -0.33886412 0.73503214 0.84719193 0.52722585 -0.065565363 0.039280798
-0.027630012 -0.13697122 0.81459928 0.0022153833 0.99996918 0.0075424379 0.00041607383
0.18543646 -0.30649862 0.68965644 -0.13682894 -0.99036139 0.021497816 0.003486735
0.062793426 -0.14328519 0.60999823 -0.035751589 0.99661416 -0.074040547 0.001482553
0.022423679 -0.13861692 0.67541146 -0.0030702518 0.99941814 -0.033969428 0.00061548577
0.12130374 -0.13968974 0.71255112 0.019843291 0.99950147 -0.024557531 0.00045159104
-0.085803203 -0.30939093 0.53112972 0.28694031 0.6274578 -0.72385222 0.0088766273
0.2492608 -0.34487998 0.87007159 0.9345665 0.092898488 0.34344631 0.0055190003
0.024203433 -0.14249539 0.5360055 0.067250267 0.95817471 -0.27817017 0.019929426
0.21364117 -0.22927412 0.88711643 0.97105271 0.02180396 0.23786815 0.023527959
0.13128771 -0.37671176 0.4594821 0.025213704 0.25134966 -0.96756792 0.0027993531
-0.019735245 -0.14588219 0.53563666 -0.025655862 0.94470447 -0.32691771 0.0098246457
0.26198247 -0.48549125 0.72511029 0.95463556 0.29762015 -0.0096535077 0.0019346083
0.13574891 -0.34379858 0.466142 -0.035721235 0.26976943 -0.96226215 0.0030041074
0.12955578 -0.28775015 0.63476533 0.54186809 0.7547251 0.36982316 0.054668751
0.20754194 -0.30855852 0.55469245 0.91410762 0.32275441 0.2454322 0.0065318188
0.18123001 -0.14545725 0.51883644 0.78791034 0.5848214 -0.19282472 0.068783566
0.25291198 -0.45442495 0.7500574 0.98318547 0.17341377 -0.057218596 0.0010327215
0.20664002 -0.15713628 0.82524049 0.66406816 0.7408849 -0.1005142 0.07204283
0.19939241 -0.16364428 0.66077197 0.78737402 0.56374037 -0.24947755 0.11106496
-0.0069107246 -0.3085672 0.53495246 -0.0074869683 -0.98202693 0.18859203 0.0036894269
-0.031479832 -0.49066353 0.45787385 -0.25855514 0.25362325 -0.93210757 0.017154194
-0.13822545 -0.28035289 0.52701336 0.39233354 0.50343651 -0.76982212 0.0067649819
0.00010939452 -0.30397838 0.56182212 -0.050958522 -0.97003472 0.23756252 0.017839503
0.11735986 -0.38541713 0.45713162 0.029117253 0.26107755 -0.96487856 0.0040578241
0.16744117 -0.41688582 0.45538539 0.16796707 0.10015512 -0.98069161 0.0015174943
0.024476536 -0.38574859 0.46612105 -0.085527249 0.14813335 -0.98526216 0.0074048173
0.031043371 -0.43325868 0.46122631 -0.14532125 0.081950277 -0.9859848 0.0048147473
0.073882215 -0.5116297 0.44186831 -0.20525099 0.17440034 -0.96304542 0.040066134
-0.0053376397 -0.38788289 0.46744052 -0.09140531 0.096681111 -0.99110943 0.0061858748
0.095061667 -0.50867075 0.43305749 -0.1856523 -0.017876392 -0.98245287 0.051681872
-0.11240897 -0.22510907 0.55395269 0.77105576 0.20372078 -0.60329998 0.024162225
-0.017417511 -0.48153096 0.45659485 -0.16530229 0.26890305 -0.94887632 0.013916363
0.016276728 -0.38754126 0.4665066 -0.081773564 0.13314834 -0.98771691 0.0059630615
7.4276948e-05 -0.45398855 0.4620474 -0.063242123 0.17371227 -0.98276371 0.00077636191
0.097142577 -0.3090601 0.51331329 -0.55980289 0.58657616 -0.5852769 0.017960813
-0.0095349979 -0.41796836 0.46758294 -0.083547615 0.10167509 -0.99130321 0.001344386
0.030948997 -0.46655852 0.45702848 -0.11905034 0.21595412 -0.9691186 0.015492116
-0.043493252 -0.40528044 0.47105107 0.03226557 0.055490952 -0.99793774 0.013722753
-0.072469898 -0.35647717 0.47309175 -0.015194238 0.36946183 -0.92912167 0.072824709
-0.13910034 -0.15885936 0.51859319 -0.16625175 0.84989518 -0.50003856 0.056811906
-0.15280707 -0.31125671 0.49925372 0.29817817 0.57947004 -0.75848818 0.02279981
-0.061745897 -0.35407928 0.46849701 0.027799403 0.33078817 -0.94329548 0.060295489
-0.10019507 -0.40400609 0.47141263 -0.10764294 -0.030451842 -0.99372309 0.022436893
-0.10149223 -0.39898369 0.47187194 -0.11565492 -0.014088952 -0.99318957 0.02360069
-0.15856925 -0.3778156 0.47636163 -0.12566361 0.18357843 -0.97493976 0.0098186499
-0.085092686 -0.42828894 0.46897718 -0.018586434 0.043531589 -0.99887919 0.016622011
-0.049598034 -0.43874079 0.4653469 -0.02262301 0.11779352 -0.99278027 0.010371376
0.043005157 -0.30853611 0.56684846 0.018887196 -0.97917324 0.20214614 0.010577876
0.043598518 -0.29245386 0.58495808 -0.068220928 0.86839229 -0.49116263 0.039910324
-0.093298867 -0.51029086 0.45019978 -0.023636272 0.28632414 -0.95784116 0.0027872617
0.11017734 -0.50824034 0.43851781 -0.22256806 -0.10619915 -0.96911567 0.058348801
-0.028273812 -0.29392785 0.60631257 0.33662286 0.85548401 -0.3934873 0.12028572
-0.10652656 -0.22358879 0.5413444 -0.80055445 -0.35586131 -0.48215687 0.066665784
0.18200338 -0.42896706 0.45600048 0.28197482 0.10162184 -0.95402479 0.0028389655
-0.097500376 -0.34643212 0.47841918 -0.017096858 0.71152145 -0.7024563 0.05957314
-0.11738697 -0.34044242 0.48479983 0.085851341 0.63359183 -0.76888943 0.021841461
-0.015512843 -0.35944653 0.47261983 0.034066349 0.28060606 -0.95921832 0.011533146
-0.19176094 -0.40693384 0.47879347 -0.20483193 0.11015128 -0.9725793 0.0016238028
0.10068674 -0.50316519 0.43418026 -0.22447601 -0.027427861 -0.97409356 0.056530107
-0.15459439 -0.281524 0.51886815 0.40296304 0.53207195 -0.74466115 0.0088233175
-0.1613467 -0.33558583 0.49323168 -0.06598758 0.38956225 -0.91863316 0.015507253
-0.091613054 -0.50912708 0.4506346 -0.022907577 0.28579444 -0.95801711 0.0028731856
-0.12013514 -0.46492949 0.46392515 -0.073965296 0.21453488 -0.97391164 0.0013547816
-0.11928163 -0.30702883 0.52133209 0.33772016 0.6008659 -0.72450352 0.0064465585
-0.14231522 -0.43737429 0.4700855 -0.08470019 0.1628492 -0.98300868 0.0011235971
-0.16511013 -0.28627241 0.51431817 0.31027052 0.57239842 -0.75900739 0.011241168
-0.19349702 -0.35930094 0.48445681 -0.31431764 0.2208596 -0.92326891 0.018184438
0.0092759877 -0.39083254 0.46640968 -0.12526937 0.079690978 -0.98891699 0.00066807779
-0.18334883 -0.42540824 0.47635955 -0.14847131 0.078084201 -0.98582923 0.0013164722
-0.13872612 -0.50700945 0.45631284 -0.15671813 0.21172981 -0.96468127 0.0038327647
-0.17846087 -0.21643105 0.51335257 -0.37044019 0.17563854 -0.9120993 0.048182517
-0.23596472 -0.47766536 0.47931921 -0.63615847 0.12899944 -0.76069802 0.017184619
0.018112425 -0.51312363 0.43761858 -0.07533697 0.50458366 -0.86006957 0.038280983
-0.0040345839 -0.23765723 0.61379081 -0.084139876 0.011752794 -0.99638462 0.028813532
0.21673752 -0.44638255 0.46870646 0.51184142 -0.41348183 -0.75302792 0.048916172
-0.046916552 -0.24965239 0.60336947 0.41215268 -0.11232021 -0.90416503 0.018768795
-0.19003367 -0.41667771 0.47741568 -0.17302197 0.09068045 -0.98073465 0.0012678363
-0.09748856 -0.34592465 0.47815767 -0.017096858 0.71152145 -0.7024563 0.05957314
-0.16002738 -0.37361223 0.47490442 -0.15721983 0.20296752 -0.96648127 0.011146083
-0.1809565 -0.39287803 0.47848734 -0.20798025 0.11602798 -0.97122693 0.0030421244
-0.17632143 -0.50592577 0.4597345 -0.10806791 0.13149266 -0.98540908 0.003026881
-0.16256495 -0.30727243 0.49134353 0.36968386 0.49865204 -0.7840153 0.034266021
-0.22945486 -0.49183685 0.47645324 -0.51967299 0.021992197 -0.85408223 0.014771647
-0.012826941 -0.50921118 0.41440216 -0.14967835 0.62030834 -0.76994407 0.082782991
0.0048397169 -0.30365899 0.56418514 0.036978677 0.96014982 -0.27702838 0.019720141
-0.11445389 -0.47226804 0.4610002 -0.086639442 0.21855545 -0.97197068 0.00074205641
-0.14467046 -0.50594956 0.45660597 -0.14466807 0.21803203 -0.96515971 0.0028478748
-0.067291424 -0.3589994 0.47985646 0.023303077 0.32882133 -0.94410461 0.075682737
0.12708488 -0.33388376 0.47213021 -0.090426549 0.44057107 -0.89315182 0.01710541
0.0019371687 -0.27757436 0.60617393 -0.83705616 0.3532598 -0.41778514 0.17028461
0.15987888 -0.25939593 0.48680201 0.20631255 0.061656263 -0.97654164 0.039288346
-0.096625008 -0.27062213 0.55625153 0.49364343 0.34019387 -0.80036509 0.020997323
0.0027991 -0.51286077 0.43699461 -0.12174343 0.59528345 -0.79423928 0.043804053
0.053932156 -0.17832841 0.49452236 -0.030384522 0.689816 -0.72334689 0.0029624598
0.1316698 -0.3371492 0.47038278 -0.091024272 0.42738611 -0.89947522 0.017024351
0.19196936 -0.35712957 0.46852994 0.48970386 0.21422012 -0.84516257 0.01379407
0.089366078 -0.3419241 0.473344 -0.18921804 0.56851959 -0.80061352 0.037513833
-0.12907943 -0.27561998 0.53813624 0.37625787 0.49932891 -0.78044903 0.0060598571
0.17217657 -0.346416 0.46657091 0.19322766 0.35667506 -0.91402733 0.012128491
0.22759059 -0.35569602 0.53519094 0.97876322 0.20161633 -0.037059262 0.0045322068
0.18635769 -0.21265826 0.49833366 0.60940289 0.19012815 -0.76972687 0.059100959
0.17702387 -0.36204091 0.46401635 0.20061761 0.18821388 -0.96141982 0.01099922
0.23329234 -0.4005872 0.51489335 0.96761286 0.1067118 -0.22877479 0.003437958
0.10140845 -0.50351125 0.43403882 -0.30358469 -0.044909865 -0.95174545 0.056706842
0.23623298 -0.38483247 0.61409259 0.99170238 0.10606873 -0.072635517 0.0003322371
0.22041816 -0.33049276 0.5356977 0.94664067 0.31541395 0.066223234 0.011189854
0.22081539 -0.33020744 0.5321297 0.95703018 0.28782779 0.035332125 0.0088825887
0.24694438 -0.45546687 0.6255905 0.9762339 0.21282431 -0.040905431 0.0012174636
0.20978369 -0.36382923 0.47945914 0.53674704 0.2084379 -0.81759173 0.016156383
0.24120779 -0.42143288 0.62931645 0.99081367 0.12953335 -0.038849626 0.00034938561
0.22400402 -0.36673912 0.49563807 0.86235631 0.23408739 -0.44893733 0.032845266
0.22825906 -0.37973067 0.49953604 0.89866817 0.23498166 -0.37037703 0.027503323
0.23854361 -0.3917295 0.63089406 0.99457675 0.095066361 -0.042184915 0.00017870401
0.24304129 -0.44139069 0.59937638 0.97729081 0.20863177 -0.037087549 0.0018139249
0.25195402 -0.45931453 0.73221785 0.98168755 0.18434997 -0.048006684 0.0013194262
0.24838629 -0.44009462 0.70941192 0.98448002 0.16195329 -0.067603946 0.001208734
0.23749454 -0.41679934 0.53092176 0.9853273 0.11768147 -0.12361711 0.0018231337
0.23096557 -0.32479286 0.62660009 0.98837125 0.14738351 -0.037420761 0.0019923535
0.23810624 -0.42481723 0.52639127 0.98582733 0.11487152 -0.12226629 0.0020841465
0.18254873 -0.17022987 0.50012422 0.66879135 0.35280275 -0.65440685 0.06771858
0.17626916 -0.31686053 0.61879462 0.64728439 0.56663942 0.50984573 0.014238677
0.20185693 -0.15485945 0.6843847 0.52544588 0.84964556 -0.044823989 0.017803309
0.18848003 -0.16162014 0.55726659 0.71916282 0.69467157 0.015371029 0.037413295
0.19980252 -0.2889643 0.83033466 -0.26830196 -0.86953235 0.41464147 0.017776828
0.14777482 -0.14289504 0.57566082 0.1861302 0.97770435 -0.097209938 0.013323599
0.23056826 -0.31037506 0.80294091 0.36496741 0.88194662 -0.2982766 0.014114466
-0.046685647 -0.13845307 0.88700265 -0.090776011 0.73797464 0.66869509 0.047378454
0.15850785 -0.14062965 0.71930808 0.10675982 0.99323452 -0.045689769 0.0073435735
0.011956898 -0.13891873 0.70137674 0.0085354326 0.99938017 -0.034153085 0.00024322346
0.15724733 -0.1406187 0.71133983 0.095323689 0.99317044 -0.067274362 0.0048536039
0.11529533 -0.13912055 0.73469746 0.011850037 0.99960136 -0.025626713 0.00042231657
0.20358579 -0.16338685 0.66919267 0.71567905 0.68879008 -0.11563651 0.088396303
0.20808876 -0.29200637 0.52284861 0.94500619 0.32374847 0.046369966 0.010379693
0.20789225 -0.29277021 0.52963847 0.9389075 0.3293491 0.099909022 0.0094521614
0.26434326 -0.48966402 0.79335934 0.97332871 0.21062486 -0.090930127 0.0013166327
0.26247233 -0.44477105 0.87438482 0.98705584 0.1564451 -0.035293933 0.0025792532
0.26400527 -0.46881238 0.84686792 0.97422862 0.20106812 -0.10222648 0.00047761173
0.25829965 -0.4767898 0.75244051 0.96486539 0.26270521 -0.004571287 0.0030727051
0.26527351 -0.48759371 0.80026883 0.97123855 0.21829839 -0.09508688 0.0010250201
0.25849515 -0.45183766 0.82642412 0.97551167 0.19955766 -0.092486404 0.00050861668
0.25431889 -0.4538213 0.76718777 0.98245579 0.17121531 -0.073932521 0.00078595831
0.25483015 -0.46228614 0.75703555 0.98237818 0.17802124 -0.056933999 0.0011019428
0.22646815 -0.38957646 0.48431885 0.80257773 0.26004323 -0.53688604 0.031054866
0.22809318 -0.44183126 0.47514421 0.58232903 -0.38416675 -0.7164557 0.04719273
0.20711869 -0.29314306 0.53667635 0.91287261 0.38413098 0.13822782 0.0078549339
0.22419071 -0.44012511 0.4739325 0.66080433 -0.033662293 -0.74980301 0.052973602
0.2608757 -0.48975796 0.77812457 0.97445542 0.21319333 -0.070605375 0.0016050928
0.25451654 -0.46356025 0.75368243 0.98231941 0.17831942 -0.057015929 0.0010665447
0.23962793 -0.42471001 0.53749549 0.99318635 0.097665474 -0.063579388 0.0022255431
0.1781625 -0.17999913 0.50305605 0.52820641 0.29353082 -0.796767 0.07879331
0.21807721 -0.42266467 0.4684597 0.64637983 0.06318748 -0.76039487 0.025049934
0.19558114 -0.3633959 0.46977487 0.51743668 0.19306076 -0.83365881 0.016942218
0.1671977 -0.42015526 0.45493698 0.16796707 0.10015512 -0.98069161 0.0015174943
0.1583773 -0.13733128 0.78326005 0.0081166476 0.9999032 -0.011302795 0.0025650125
0.089242607 -0.13866366 0.78846014 0.026975021 0.99963605 -0.00027262379 0.00038691954
0.0011293956 -0.14089532 0.64905226 0.026232637 0.99945384 -0.020096458 0.00071274093
-0.1688305 -0.13976672 0.62301254 -0.19592415 0.98044008 0.01873198 0.0035199153
0.12451889 -0.1398917 0.71924573 0.018238658 0.99937689 -0.030217357 0.00041451334
-0.027344303 -0.13940899 0.57159042 0.0265301 0.99743974 -0.066409022 0.0028175963
0.2413543 -0.4591462 0.50721878 0.90312564 0.28346613 -0.32250747 0.0055663567
0.21210186 -0.29618546 0.82207799 -0.28384179 -0.87819582 0.38497525 0.016377361
-0.0747642 -0.1486793 0.89658856 -0.1193644 0.84344578 0.52378553 0.045701217
-0.10174928 -0.13986956 0.59496081 0.00030056937 0.99931675 -0.036958054 0.0009791964
0.20646249 -0.14659557 0.86166686 0.56482452 0.81243455 0.14464912 0.095043726
0.21965344 -0.33392274 0.50087458 0.92912567 0.15822822 -0.33419949 0.029360481
-0.02185576 -0.13750429 0.75423598 -0.0077903224 0.99991423 -0.010530419 0.00046652506
-0.042530838 -0.13981785 0.67062283 0.02650742 0.99943805 -0.02051555 0.00034390774
0.18982187 -0.18593538 0.50732464 0.78809243 0.2502028 -0.56241345 0.049435057
0.20491672 -0.15828468 0.72064686 0.47559473 0.87885541 0.037721809 0.0092006354
0.23077416 -0.33074355 0.61507756 0.98667651 0.14891699 -0.065522619 0.0020402609
0.15463136 -0.30486375 0.62450212 0.54311764 0.74573481 0.38587922 0.052393306
0.11350673 -0.13887458 0.7611658 0.007348753 0.99987739 -0.013824283 0.00043148745
-0.040184204 -0.1402037 0.55626243 -0.010826061 0.99034059 -0.13823277 0.0039310595
-0.024346814 -0.13938548 0.57972878 0.037651155 0.99835736 -0.043186184 0.0017348089
-0.058643028 -0.13836659 0.68112773 0.020954745 0.99948108 -0.024464231 0.00040199913
0.21945725 -0.23299441 0.87102586 0.9792428 0.12039836 0.16305786 0.031800143
0.19900559 -0.16898805 0.60485065 0.64009339 0.76277041 -0.091987759 0.014778405
0.24878426 -0.38079172 0.78766006 0.99283016 0.073336288 -0.094392963 0.00032588374
0.25036821 -0.37326831 0.812823 0.98449659 0.16563636 -0.057714067 0.00088244886
0.23488598 -0.32317463 0.77855331 0.61580122 0.69430614 -0.37246189 0.045559034
0.22477899 -0.34395435 0.53715634 0.94731587 0.3141717 -0.06235972 0.0068471436
0.080784798 -0.50883859 0.44032669 -0.19986418 0.15690777 -0.96717852 0.044118829
0.15832727 -0.29831529 0.74841267 -0.21894877 -0.81190473 0.54117662 0.026845858
0.09148366 -0.51168472 0.43262497 -0.17317082 0.065193273 -0.98273176 0.055294715
0.11212897 -0.5066874 0.43733317 -0.22256806 -0.10619915 -0.96911567 0.058348801
0.11247843 -0.50649989 0.43720335 -0.22256806 -0.10619915 -0.96911567 0.058348801
0.23049268 -0.3516506 0.58562553 0.98010343 0.14957629 -0.13047691 0.0044549787
0.18778634 -0.15961733 0.55529875 0.72396588 0.68946064 0.022747932 0.037514471
0.24184294 -0.44103724 0.58390462 0.98625594 0.16256009 -0.0295534 0.0023488253
-0.038799647 -0.13711365 0.79669505 -0.006957476 0.9999705 -0.003248991 0.00060424366
-0.15150298 -0.14117962 0.86275363 -0.27118188 0.95461738 0.12315025 0.032149021
-0.14897086 -0.14837389 0.89627081 -0.2136177 0.59630561 0.77381343 0.076103874
-0.09653838 -0.13700405 0.73078322 -0.020943379 0.9997772 0.0026230616 0.00048352894
-0.022816606 -0.13694631 0.79172951 -0.010716703 0.99994206 -0.0010046291 0.00054728932
0.0513721 -0.14289971 0.87878704 0.0081136003 0.98054212 0.19614135 0.0027226887
0.039511543 -0.13723414 0.83387333 -0.0058217854 0.99914283 0.040984251 0.0019166021
-0.096140347 -0.13730939 0.81740153 -0.011852121 0.99986392 0.011473185 0.0011813496
-0.0065759015 -0.13743787 0.80316907 0.0014016876 0.99988455 0.015129048 0.00087068463
0.021618648 -0.1376778 0.8179428 -0.003283682 0.9998017 0.019642774 0.0010656584
-0.10701441 -0.13774267 0.74923217 -0.033824708 0.99938887 0.0088156629 0.00037752706
-0.07820683 -0.13677731 0.74330693 -0.0018095376 0.99996817 0.0077678086 0.00068273483
-0.066572383 -0.13782999 0.7846604 -0.0022170467 0.9999975 0.00033247485 0.00039434084
0.073809385 -0.13664436 0.78820837 0.025763242 0.99964643 -0.006582126 0.0002851114
0.049894955 -0.13801129 0.75624716 0.011827944 0.99937135 -0.033421069 0.00023876724
0.039929435 -0.13726808 0.75515062 0.010825252 0.99947476 -0.03054464 0.00019332681
-0.038198769 -0.13769875 0.74930811 0.0045260764 0.99998569 -0.0028401914 0.00051110005
0.026743423 -0.13684504 0.77706796 0.0020017338 0.99999779 0.0006091976 0.00095972396
-0.0417656 -0.13696152 0.8069104 -0.0003891096 0.99999917 0.0012208624 0.00032652245
0.098120652 -0.13814226 0.74207193 0.011008145 0.99977857 -0.017937031 0.00029555245
0.030885104 -0.13643973 0.75674534 0.0095802899 0.99959069 -0.026956491 0.00016863566
0.073964328 -0.13779557 0.74898523 0.018409751 0.99948543 -0.026268531 0.00024229402
-0.12095855 -0.1389149 0.78032953 -0.087572344 0.99611592 -0.0091697965 0.014348654
0.040983044 -0.13752766 0.74658823 0.013495272 0.99935704 -0.033216581 0.00016803113
-0.10944449 -0.14219858 0.86222523 0.058255017 0.97683018 0.20593455 0.034970604
0.022392545 -0.13775802 0.82111615 -0.0039897999 0.99979216 0.01999362 0.001133105
0.053476363 -0.13786621 0.75771701 0.013318896 0.99942225 -0.031268813 0.00026023146
0.042193912 -0.13821158 0.73216093 0.013554355 0.99921834 -0.037135657 0.00012633714
-0.0096843587 -0.13774428 0.72529489 0.0087010795 0.99969691 -0.023029942 0.00018146388
-0.06756524 -0.13682045 0.72502315 0.0063481652 0.99996966 -0.0045181946 0.0005111536
-0.01502216 -0.13713588 0.73850042 -0.0019418162 0.99978244 -0.020766992 0.00049683318
-0.17851821 -0.14588517 0.74807906 -0.36842206 0.92939329 -0.022212006 0.010322246
-0.1667619 -0.14266644 0.78266037 -0.2724182 0.95885199 0.079944588 0.028594986
-0.072534844 -0.13674548 0.71673965 0.0059422217 0.99997252 -0.0044468795 0.00054138951
-0.05327037 -0.13767797 0.8307507 -0.0084005492 0.99835771 0.056669164 0.013530283
0.03413659 -0.13702919 0.79321748 -0.0019024322 0.99999225 0.0034671938 0.00078674487
0.037454184 -0.13661766 0.79054427 -0.0032117483 0.99998981 0.0031702407 0.00090862199
-0.024198659 -0.13753781 0.80571324 -0.0012284586 0.99998915 0.0044827489 0.00026839078
-0.041669205 -0.13686453 0.80322856 -0.0028282702 0.9999758 -0.0063512912 0.00071184541
0.051445607 -0.13790391 0.74844027 0.011410419 0.99939775 -0.032770466 0.00017352618
-0.022170175 -0.13695763 0.79284239 -0.0095162084 0.99995464 -0.00041667552 0.00051737804
-0.040654212 -0.1363373 0.82198292 -0.027308293 0.99836206 0.050274689 0.016136661
-0.056848023 -0.13760374 0.7466861 0.0059286989 0.99997377 0.0041676061 0.00045255141
-0.129099 -0.13922426 0.72617149 -0.08460594 0.99611408 0.024467397 0.0015839424
-0.17470278 -0.14384381 0.76391727 -0.31557047 0.94749171 0.05171657 0.048860341
-0.15243244 -0.14503516 0.88527632 -0.20440969 0.82568437 0.52579653 0.09529379
0.0021004309 -0.13686709 0.79297161 6.5166052e-05 0.9998979 0.014288828 0.00077339861
-0.0059894808 -0.13749866 0.80681479 0.0024504934 0.99987102 0.015870623 0.00089300645
-0.044005308 -0.13769463 0.76032907 0.0023399414 0.9999947 -0.0022766066 0.0004551649
-0.033616494 -0.13594392 0.82865822 -0.033943683 0.99826109 0.048194606 0.015578186
0.040348988 -0.13682048 0.78146076 0.0011997817 0.99999899 0.00077484024 0.0011019426
-0.12685259 -0.1370935 0.80491418 -0.092815995 0.99174708 -0.088447236 0.02109064
0.10675623 -0.13826402 0.73493975 0.0075229718 0.99968392 -0.023988156 0.00035786134
-0.11969742 -0.13929075 0.78131193 -0.087304763 0.9961254 -0.010589651 0.01412062
-0.0046751099 -0.13765602 0.83561242 -0.0007600697 0.99950176 0.031556234 0.0011111699
-0.045453005 -0.13734622 0.75026071 0.0054004542 0.99998415 -0.0015854965 0.00046388974
-0.10109303 -0.13730225 0.74596065 -0.023484528 0.99963367 0.013454849 0.00099227601
-0.078527093 -0.13684696 0.74501902 -0.0019242121 0.9999705 0.0074349535 0.00066573045
0.0014574709 -0.13869464 0.7070809 0.010362218 0.9994809 -0.030504465 0.000185627
0.031618845 -0.13694641 0.78299379 0.0010513288 0.99999785 0.0018124488 0.00091753266
-0.039399829 -0.13713406 0.79096669 -0.0067837108 0.99997312 -0.0027732567 0.00053739874
-0.097216278 -0.13703497 0.73025608 -0.020966593 0.99977559 0.0030439068 0.00047608328
-0.021045301 -0.13776295 0.7223106 0.011535245 0.99978954 -0.016968142 0.00047340491
-0.0048651095 -0.13791798 0.72172219 0.0087819779 0.9996472 -0.025067342 0.00017479363
-0.012019995 -0.13902643 0.69467109 0.016471272 0.99924666 -0.035139158 0.00033639115
0.0077944812 -0.13851902 0.71355814 0.0089634219 0.99948835 -0.030704258 0.00015106496
0.087163307 -0.13910726 0.70925772 0.014524125 0.99983191 -0.011193692 0.00037189026
0.0082539665 -0.1376936 0.83147734 -0.00057239807 0.99977696 0.02111024 0.0012562349
0.052551493 -0.13731678 0.82175404 0.00094883755 0.99981904 0.018999515 0.0012802256
0.076263525 -0.13766928 0.80789322 0.02715154 0.99961549 0.0056341169 0.00040951223
0.092174724 -0.13797273 0.80106592 0.034035213 0.99942011 -0.0010423466 0.00053009222
-0.14783113 -0.14112431 0.81301361 -0.15642834 0.98641062 -0.050242011 0.01945968
-0.066446885 -0.13685097 0.73366338 0.0051661339 0.99998665 8.9872905e-05 0.00050518813
-0.036041219 -0.13706671 0.73411781 0.014392991 0.9998467 -0.0099705029 0.00052770507
-0.12861238 -0.13882329 0.7214753 -0.078232236 0.99668849 0.022177411 0.0018111711
-0.10301213 -0.13738574 0.68110996 0.00044548447 0.99999768 0.0021221312 0.0005096813
-0.05966185 -0.13787958 0.68361765 0.017919701 0.99959683 -0.022027235 0.00020519209
0.064356066 -0.13918319 0.69181097 -0.0056406888 0.99996167 -0.0066935625 0.00043466067
-0.025683431 -0.13738355 0.76672894 -0.011105398 0.99991828 -0.0063384157 0.00036865936
0.035535358 -0.1369378 0.75900334 0.0065619717 0.99957478 -0.028412482 0.00022043577
-0.0080325576 -0.13960433 0.67284852 0.015457443 0.99929184 -0.034307081 0.00048784722
0.00092148734 -0.13864133 0.70148295 0.012442498 0.99936289 -0.033453178 0.00023597537
0.017937511 -0.13952719 0.69877148 0.0087675173 0.99930865 -0.036130253 0.00024881575
-0.055010676 -0.13852428 0.66380578 0.02820473 0.99948037 -0.015607991 0.00035576179
-0.067120291 -0.13823916 0.6604377 0.023863092 0.99959284 -0.015645918 0.00018987145
-0.020973107 -0.13857311 0.69045222 0.018242048 0.99927276 -0.033483513 0.000315246
0.011214128 -0.14024933 0.66305423 0.00094441319 0.99927562 -0.038043596 0.00068484858
-0.066000104 -0.1383892 0.65377885 0.030089814 0.99943757 -0.014806892 0.00048214843
0.0019155564 -0.14036876 0.65546924 0.016757598 0.99957281 -0.023944769 0.00079795043
-0.061213568 -0.49910486 0.97522223 0.10145298 0.38148305 0.91879159 0.0034931863
-0.0064867209 -0.13764547 0.83732158 -0.00018018547 0.99949765 0.03169528 0.0011336632
0.045066386 -0.13725637 0.8277266 -0.0066015804 0.99960303 0.027391868 0.0015788601
-0.058523502 -0.13773379 0.81862801 -0.0059932335 0.9986884 0.050847638 0.013897081
0.078073949 -0.13584235 0.83846307 0.03332898 0.99763089 0.060181882 0.0011714832
-0.08255472 -0.13718161 0.80667204 -0.0062197233 0.99996722 -0.0051952521 0.00031765952
0.022827467 -0.13693109 0.78198898 0.0028502652 0.99998695 0.0042454582 0.00086716749
0.038191888 -0.13635272 0.76584584 -0.00044623489 0.99992234 -0.012453312 0.0017497907
-0.02446978 -0.1380083 0.71533585 0.015189248 0.99964309 -0.021976843 0.00015837171
-0.067601152 -0.13682622 0.72250128 0.0063059158 0.9999705 -0.0043913871 0.00050695526
-0.085850038 -0.13703504 0.68494129 -0.0023950601 0.99975061 -0.022207048 0.00047018743
-0.17140006 -0.14247252 0.66737115 -0.4404206 0.89493573 0.071552604 0.027264012
-0.1239012 -0.13918515 0.74485242 -0.071134947 0.99714828 0.025202006 0.00062058162
-0.090595514 -0.13723578 0.74519163 -0.015795315 0.99981213 0.011234621 0.00078527589
-0.17657241 -0.14844973 0.72189593 -0.36160597 0.92797154 -0.090055101 0.013195388
0.026358658 -0.14009576 0.66245908 -0.008322482 0.99909645 -0.041678231 0.00065629906
-0.13322981 -0.13717639 0.65131259 -0.099954404 0.99488431 0.014645773 0.0039809723
-0.069276847 -0.13811556 0.66195047 0.020113861 0.99969345 -0.014439788 0.00023464586
-0.10498496 -0.13937612 0.61905944 0.0092508094 0.99940956 -0.033088073 0.00015521733
0.028514635 -0.14041255 0.6514098 -0.0117853 0.99883217 -0.046854384 0.00065965264
-0.1873844 -0.45938954 0.97925615 -0.76689488 0.4964608 0.40669271 0
-0.09609478 -0.48461527 0.96894372 0.058949556 0.44204241 0.895055 0.00044460449
-0.099225357 -0.13728799 0.82854712 -0.015461859 0.99885422 0.045291148 0.0015535199
0.077532001 -0.13755839 0.8451556 0.035886697 0.99611318 0.080440648 0.0014245661
0.0040191724 -0.13736781 0.83403873 -4.3963497e-05 0.99977344 0.021283874 0.0012252851
0.036956575 -0.13750885 0.81337863 -0.0061149546 0.99983943 0.016845137 0.00094401353
-0.052818134 -0.13773711 0.78652102 -0.0054347725 0.99997902 -0.0035105052 0.00046720405
-0.073856182 -0.13782565 0.77646661 -0.0040646703 0.99998319 0.0041299313 0.00048653441
-0.17321278 -0.14414193 0.74498785 -0.30263013 0.9526509 -0.029518014 0.012322578
-0.005221135 -0.1377113 0.8203792 0.0015899289 0.9999125 0.013131911 0.00089027564
-0.0010996229 -0.13659704 0.79038477 -0.00041879652 0.9999333 0.011542114 0.0007258447
-0.15750398 -0.13945712 0.59572154 -0.1293887 0.9902364 -0.051870614 0.011525036
-0.13597892 -0.13806924 0.70544791 -0.10103896 0.99446994 0.028648408 0.0027313549
-0.16176848 -0.1389475 0.59315127 -0.13777335 0.988877 -0.056043088 0.011346737
-0.11645062 -0.13956781 0.60804081 0.005792039 0.99951679 -0.030538671 0.0001966069
-0.16865391 -0.13945065 0.61764908 -0.16460103 0.98627895 0.012662326 0.0044216788
-0.064771533 -0.13851249 0.65099758 0.028283563 0.99950278 -0.013936426 0.00051220902
0.002855276 -0.14055236 0.64350593 0.031493329 0.99938238 -0.01558878 0.0006411667
-0.14102422 -0.13933817 0.58655059 -0.031551909 0.99642247 -0.078400403 0.0018725479
-0.061328266 -0.13887168 0.61816323 -0.0039567309 0.99984783 -0.016993621 0.00011720952
-0.092649147 -0.1398415 0.59980285 -0.00040423268 0.99987763 -0.015637027 8.8554931e-05
0.0072592623 -0.14045824 0.66405141 0.001177843 0.99935609 -0.035860125 0.000684981
-0.089387223 -0.13979626 0.59901279 -0.00018266193 0.99988604 -0.015095939 9.0162888e-05
0.053707883 -0.13919805 0.65039486 -0.031235976 0.99776101 -0.059137549 0.00068880833
-0.12382766 -0.14014497 0.57429284 -0.011124804 0.99570376 -0.091925383 0.0019884936
0.049773451 -0.14131922 0.87383366 -0.023534015 0.98559701 0.16746554 0.0027590594
-0.04853316 -0.13926123 0.62774998 0.013596845 0.99988788 -0.0062713111 0.00061784463
0.12499495 -0.13946049 0.73036009 0.018679157 0.99932522 -0.03162422 0.00055575586
0.2043511 -0.30668837 0.71685445 0.28694212 0.95385414 0.088467203 0.043491308
0.045438185 -0.3688958 0.9337976 0.0083477758 0.1514556 0.98842883 0.00046154976
0.10243005 -0.32695872 0.92167389 0.11363237 0.47407821 0.87311947 0.022425752
0.15686128 -0.14971641 0.8909812 0.14723262 0.92184383 0.35850596 0.019502928
0.044453304 -0.13758571 0.75809693 0.011014726 0.9994294 -0.031932238 0.00025979732
0.20497605 -0.30948034 0.69606912 -0.14194155 -0.98897529 0.04219548 0.0043180585
0.26008171 -0.475932 0.79240817 0.97661996 0.19766378 -0.08451274 0.00060086051
0.24581297 -0.40788811 0.72405243 0.99236697 0.10130155 -0.070325278 0.00013214332
0.23995833 -0.3070952 0.87672561 0.87624884 0.28452814 0.38888526 0.040020175
0.0011188037 -0.3858391 0.93717217 0.049402606 0.15751463 0.98628014 0.00088335865
0.12168527 -0.13911036 0.70634592 0.026853979 0.99945605 -0.019144781 0.00050872948
0.24320871 -0.39865464 0.90469813 0.89588565 0.16384465 0.41296965 0.009845769
-0.013148425 -0.13713637 0.78918797 -0.00031882813 0.99998945 0.0045843255 0.00071460666
0.092914559 -0.44757718 0.94431078 0.14736137 0.29035938 0.94550306 0.0071430337
0.042007007 -0.36004978 0.93265873 0.021941936 0.18336275 0.98280048 0.0012115869
0.20116735 -0.15522936 0.86959803 0.54692131 0.72965324 0.41046712 0.083203159
0.2075154 -0.28691676 0.51310611 0.94621092 0.32278147 -0.022294408 0.02026544
0.047935717 -0.13734238 0.83886856 -0.001175549 0.99892247 0.046394087 0.0022630526
0.20839433 -0.30664068 0.55075365 0.91410762 0.32275441 0.2454322 0.0065318188
0.1434357 -0.35136324 0.92695564 0.11125866 0.29182166 0.94997984 0.0056699915
0.23784551 -0.32335681 0.79630786 0.68514389 0.6909948 -0.23044321 0.074625403
0.20766346 -0.15200675 0.78863406 0.46388704 0.88430721 0.053005267 0.014389151
-0.1671873 -0.14164619 0.57496202 -0.2040841 0.97344279 -0.10372449 0.013225901
0.1353441 -0.14244395 0.55955088 0.060880914 0.99592692 -0.066505849 0.0050004944
0.22870567 -0.31108448 0.68504477 0.17656304 0.98410302 -0.019152787 0.0046078558
0.25011829 -0.37173301 0.80839211 0.97843385 0.1913633 -0.077763699 0.0009440381
-0.025032291 -0.13777684 0.7243107 0.012665616 0.99981064 -0.01477679 0.00048086693
0.23364134 -0.32607606 0.77664846 0.61580122 0.69430614 -0.37246189 0.045559034
0.20330726 -0.30750746 0.70834613 -0.13883723 -0.99002731 0.023876617 0.0038774183
0.25293171 -0.45749059 0.7416743 0.98421896 0.1674639 -0.057173446 0.0011867635
0.22394694 -0.39692244 0.92998654 0.58018363 0.1285156 0.80428278 0.051819086
0.24179882 -0.42926157 0.59417629 0.98909146 0.14102007 -0.042560816 0.00095123937
0.16691336 -0.14520949 0.59239393 0.32372034 0.94272977 -0.080409825 0.018760491
0.19527104 -0.17577766 0.53224105 0.90114033 0.36465892 -0.23445679 0.032529771
0.22543451 -0.3025656 0.81536824 -0.30358616 -0.86782962 0.39332834 0.016874559
0.20744278 -0.28648084 0.51742816 0.9467833 0.32187167 -0.00017311808 0.017944256
0.15746631 -0.30363059 0.66749245 -0.086099781 -0.993393 -0.075875998 0.0096115228
0.20861982 -0.15272833 0.79184854 0.448459 0.88924384 0.090166144 0.018858211
0.24069665 -0.31654227 0.80151623 0.44534758 0.84737802 -0.28916454 0.014370817
