# .PCD v0.7 - Point Cloud Data file format
VERSION 0.7
FIELDS x y z normal_x normal_y normal_z curvature
SIZE 4 4 4 4 4 4 4
TYPE F F F F F F F
COUNT 1 1 1 1 1 1 1
WIDTH 578
HEIGHT 1
VIEWPOINT 0 0 0 1 0 0 0
POINTS 578
DATA ascii
0.14207107 -0.13087647 0.67940468 0.71038401 0.69948924 0.077905849 0.13484253
0.11596387 -0.12572499 0.71057898 0.53497899 0.69175076 0.48505512 0.063272633
0.064832531 -0.12694246 0.66981328 0.049422741 0.99580902 -0.076953731 0.0060090325
-0.0072479793 -0.12786639 0.62587512 -0.012935862 0.99972105 0.019760739 0.00044592604
0.0038352597 -0.12918907 0.5788902 0.24297953 0.87455273 -0.41966468 0.044146325
0.10738226 -0.1312034 0.73104656 0.53134441 0.74294841 0.40706357 0.067915641
0.13912612 -0.19391045 0.70539057 0.90945578 0.016072661 0.41548994 0.018809987
0.14603494 -0.41012657 0.70537943 0.85321444 0.03241694 0.52055192 0.022101086
0.1283326 -0.25243574 0.72099102 0.829786 0.044067889 0.5563392 0.0057320166
0.14286743 -0.17978516 0.69852209 0.91885489 0.0055002673 0.39455739 0.021845264
0.14796489 -0.28669626 0.69481242 0.93973625 0.041616816 0.33935782 0.019427294
0.027284531 -0.1297069 0.79402137 0.11890234 0.98350412 0.13631549 0.027989628
-0.034943715 -0.13155237 0.73682481 -0.036599044 0.99902815 0.024559818 0.0004056789
-0.026604453 -0.12843525 0.64113069 -0.029027041 0.9991942 0.02772034 0.00031515906
-0.052425787 -0.1403102 0.7963016 -0.49617916 0.55200732 0.67014492 0.077144191
0.01283088 -0.17819811 0.84670049 -0.050308481 0.059004325 0.99698919 0.057177015
0.027139097 -0.21119629 0.83738148 0.22777538 0.060430791 0.97183669 0.050428212
-0.029991869 -0.12714306 0.5830158 -0.27570018 0.92375588 -0.26582795 0.048115298
0.010028349 -0.12673429 0.61991692 0.037705049 0.99853659 -0.038768891 0.0050768061
-0.010229477 -0.12772398 0.61128026 0.0048957039 0.99949247 -0.031478032 0.0024319512
0.016673245 -0.12642513 0.61326998 0.093732148 0.99033433 -0.10223594 0.019191353
0.10230933 -0.12900515 0.65918612 0.16605935 0.93859071 -0.30244312 0.034116037
0.11713638 -0.1307819 0.66025746 0.38164556 0.78516746 -0.48770767 0.049127638
0.13019694 -0.15501653 0.7141422 0.80449975 0.26057652 0.53374153 0.037510477
0.15005437 -0.29673764 0.68275106 0.99024838 0.050277766 0.12992407 0.052555952
0.14894533 -0.32727012 0.67813218 0.99767518 0.026941281 -0.062597618 0.043498263
0.14106405 -0.31152374 0.70330399 0.87102818 0.009205766 0.49114665 0.016550219
0.14668536 -0.1865411 0.68149388 0.99996722 0.0031082216 -0.007467798 0.075522885
0.11275833 -0.19959742 0.73759323 0.74127007 0.01719097 0.67098671 0.00039094553
0.14125301 -0.23590447 0.70306098 0.89377296 0.0082624294 0.44844347 0.018137822
0.13323329 -0.35666963 0.71837264 0.85464257 0.012929352 0.51905566 0.0059651011
0.012053851 -0.1637695 0.84781408 0.055461437 0.23665467 0.97000957 0.065433398
0.020667015 -0.23735248 0.8417387 0.22536129 -0.0027952951 0.97427136 0.065296263
0.13868289 -0.16564634 0.70608848 0.88605785 0.12127065 0.44743145 0.022128208
0.020082826 -0.19241551 0.84338099 0.15634008 -0.0025429425 0.98770005 0.069088519
0.010156505 -0.31334043 0.84722078 -0.05302782 0.01322419 0.99850547 0.062848285
0.017794613 -0.28558815 0.84488213 0.21368715 -0.010396892 0.97684681 0.071776874
0.12683845 -0.14033535 0.71726829 0.7012099 0.45339492 0.55021608 0.05056094
0.12802802 -0.13931338 0.71538758 0.68119073 0.48602799 0.54749978 0.05155845
0.15495712 -0.40801722 0.68575847 0.93508995 0.088492304 0.34318474 0.041334443
0.1486588 -0.36468464 0.69257343 0.95285583 0.054693863 0.29845333 0.045031194
-0.0080762468 -0.13144101 0.76966822 -0.064338878 0.99779558 0.016265087 0.0010769403
-0.057378706 -0.13541493 0.78706151 -0.45875749 0.71682477 0.52507508 0.091092281
-0.14816773 -0.13532813 0.71336937 -0.56125534 0.80953705 0.17216939 0.090205595
0.015029522 -0.37558484 0.844033 0.075677164 -0.032792471 0.99659306 0.047641467
0.031152861 -0.35255095 0.83586931 0.46734747 0.04661892 0.88284367 0.039099351
0.11485824 -0.41112065 0.73390484 0.71823466 -0.06222935 0.69301265 0.0015886459
0.14277025 -0.3596026 0.70501596 0.90691894 -0.00079208589 0.42130437 0.025916826
-0.012575153 -0.1310865 0.7467618 -0.045618229 0.99866748 0.024131218 0.00024214807
0.0088334456 -0.33601081 0.84627962 -0.16623811 -0.01513522 0.98596948 0.046257269
-0.00099669187 -0.13647033 0.83496708 -0.1188966 0.84325027 0.5242067 0.077394456
0.16070376 -0.43659821 0.6809907 0.95625299 0.22137274 0.19124421 0.080621831
0.048043627 -0.14138229 0.80656594 0.56801564 0.5052253 0.64969653 0.056239415
0.043367565 -0.21550834 0.81645316 0.74174386 -0.0074682962 0.67064172 0.0064545535
0.018817751 -0.1373511 0.84014183 0.35923532 0.6181553 0.69916672 0.073535383
0.015398812 -0.12690079 0.6006006 0.1253954 0.96087307 -0.24697942 0.045956384
0.042454056 -0.23406464 0.58823842 0.63941526 0.0025699632 -0.76885736 0.00094957364
0.14049189 -0.35548726 0.66285336 0.9035731 0.01575263 -0.42814425 0.044784907
0.016009731 -0.20378561 0.56730825 0.57767481 0.016208541 -0.81610608 0.0055353413
0.036666598 -0.35399798 0.57513958 0.62978899 0.068469651 -0.77374268 0.00064853666
0.13758777 -0.25587991 0.66280335 0.8418259 0.08383327 -0.53319889 0.043720666
0.060963154 -0.21882293 0.60379744 0.61860812 0.0061097215 -0.78567594 0.00077338453
0.079515718 -0.15109141 0.61713099 0.59654039 0.36702439 -0.71374553 0.044791363
0.094205707 -0.22291641 0.63126791 0.63662726 0.002097805 -0.77116877 0.00085998728
0.090151705 -0.2894519 0.62347746 0.65188825 0.037845533 -0.75737 0.0047103516
0.11778302 -0.17943615 0.65035337 0.68209559 0.054003816 -0.72926629 0.0055776522
0.098900102 -0.2266992 0.63490045 0.63113254 0.012859187 -0.77556843 0.00072424189
0.040032037 -0.19555855 0.58909351 0.64165038 0.0078550326 -0.7669571 0.00075464009
0.11166689 -0.27442616 0.64405185 0.61701238 -0.17251317 -0.76781178 0.050431713
0.10102821 -0.13653876 0.64502829 0.34725949 0.7783035 -0.52311999 0.077446245
0.082711421 -0.13684613 0.62913764 0.32741973 0.88221776 -0.33836085 0.059725322
-0.019292915 -0.29260784 0.5425514 0.032907475 -0.0022392203 -0.99945587 0.05806841
0.053249154 -0.18234321 0.60115808 0.63315952 0.02935129 -0.77346462 0.0025894654
0.036472347 -0.24900497 0.58528197 0.64169502 0.0072734165 -0.76692539 0.0011279556
0.091547348 -0.25821838 0.62831223 0.62563205 0.036162764 -0.77927965 0.0020015291
0.11307802 -0.40771142 0.64249873 0.59583819 0.24128875 -0.76600039 0.030124802
0.13893989 -0.40345797 0.65834969 0.7990033 -0.0095422827 -0.60125083 0.029002802
0.062526502 -0.26075548 0.60777038 0.61591339 0.053641513 -0.78598553 0.0022682582
-0.019322209 -0.36174497 0.54229349 -0.14875409 0.073002517 -0.98617589 0.055507008
-0.0035650595 -0.26297307 0.54932588 0.28351185 0.072039209 -0.95625907 0.034314178
0.13260306 -0.19781123 0.66106987 0.85626107 0.043015707 -0.51474911 0.062518567
0.034300782 -0.40733439 0.57357109 0.62516814 0.017062638 -0.78030354 0.0049336944
0.11074501 -0.16993846 0.64600235 0.63494515 0.13668467 -0.7603696 0.012701204
0.00065776374 -0.21684 0.55355 0.26826137 -0.011934998 -0.96327221 0.040595531
0.069045261 -0.18964978 0.61165941 0.61385268 -0.014973515 -0.78927857 0.0012627782
0.054276034 -0.13840885 0.60185164 0.50284988 0.58086377 -0.64010876 0.063461266
-0.029184207 -0.12652563 0.60224283 -0.14460734 0.98247689 -0.11759187 0.029818475
0.058230378 -0.26042327 0.60351181 0.61051762 0.053225614 -0.79021215 0.0022446713
0.13887179 -0.35638759 0.66023916 0.90391511 0.013427811 -0.42750096 0.051375981
0.058355663 -0.21777566 0.6017136 0.6184423 0.0059801219 -0.78580749 0.0008621054
0.11803709 -0.36230308 0.6438666 0.64109731 0.019878436 -0.76720214 0.003774601
0.094275244 -0.22730125 0.63061899 0.62951285 0.0030245974 -0.77698416 0.00099220173
-0.014600093 -0.31331429 0.54317033 0.0010431297 -0.0018901578 -0.99999768 0.053702857
0.070326865 -0.3436909 0.60549688 0.67305398 -0.024348145 -0.73919249 0.00086594699
0.13613962 -0.34076098 0.65891802 0.82308924 0.060274087 -0.56470454 0.027813656
0.011873994 -0.4119218 0.55402595 0.44329953 -0.031280003 -0.89582765 0.019597789
0.10328157 -0.27380544 0.63736296 0.63506168 0.015123378 -0.77231342 0.0037949509
0.053742912 -0.36942607 0.59039682 0.67343998 0.0016403103 -0.73924005 0.00064068928
0.085899927 -0.14299649 0.62770486 0.35973951 0.81935644 -0.44636598 0.070020869
0.062991507 -0.12682858 0.64163089 0.1099738 0.98245519 -0.15062438 0.013508632
0.027955174 -0.12733415 0.65820163 -0.01800568 0.99983722 0.0011841217 0.00062979199
0.055668574 -0.17383455 0.60256469 0.63929278 0.079920903 -0.76479894 0.0064118034
0.11414915 -0.18219908 0.64830679 0.66992724 0.038361665 -0.74143499 0.0037265145
0.083713606 -0.2845014 0.61852258 0.65140265 0.060315348 -0.75633103 0.0041582282
0.054618157 -0.13796446 0.60266435 0.50284988 0.58086377 -0.64010876 0.063461266
0.14147645 -0.2558735 0.66477573 0.88680017 0.1027647 -0.45058292 0.063885905
0.078265466 -0.36698043 0.61226195 0.73901916 -0.15588295 -0.65540153 0.042588413
0.11831594 -0.26943052 0.64851171 0.66607112 0.0013178663 -0.7458871 0.0056768432
0.14264122 -0.26627985 0.6666131 0.87196988 0.063365556 -0.4854413 0.056757238
0.052162476 -0.24731684 0.59811735 0.62269157 0.028623573 -0.78194368 0.0022232977
0.036775477 -0.37384403 0.57413757 0.64408356 0.022397572 -0.76462716 0.001070516
0.044549059 -0.13420387 0.59856427 0.44522423 0.64851493 -0.61741698 0.074172057
0.016895337 -0.16403776 0.56798857 0.6189943 0.18997817 -0.7620725 0.016049664
0.064607225 -0.13290033 0.61583489 0.424721 0.76340353 -0.4866488 0.068656541
0.11340327 -0.40922973 0.64235497 0.56423193 0.28493035 -0.77489161 0.032525506
0.041010395 -0.19667941 0.59005016 0.64164722 0.0079240063 -0.76695895 0.00076260534
0.054715727 -0.27800784 0.59574354 0.61968958 0.078664683 -0.78089482 0.0020920828
0.014025657 -0.34540376 0.56002414 0.49221054 0.023161214 -0.87016797 0.0093406867
-0.018575983 -0.36699456 0.54200828 -0.12280163 0.089929499 -0.98834842 0.054755811
0.014415416 -0.33247462 0.56155288 0.50072598 0.0053491774 -0.86558932 0.0094152335
-0.0013285751 -0.22552633 0.55183631 0.26021582 -0.017611435 -0.96538997 0.046756215
0.053119428 -0.4155544 0.59042805 0.64548874 0.056842137 -0.76165169 0.0058514802
0.1476486 -0.26050678 0.67534775 0.95067024 0.087679058 -0.29755431 0.074541748
0.078754991 -0.40632311 0.61689198 0.63509446 0.22272679 -0.73962682 0.075316042
0.14773981 -0.35051745 0.67323703 0.97748804 0.021806667 -0.20986116 0.071386658
0.12231147 -0.27566469 0.65146989 0.67435026 -0.099491678 -0.73167831 0.040525489
-0.012185384 -0.27793613 0.54319966 0.060734425 0.023614576 -0.99787462 0.055171542
-0.020942664 -0.22459279 0.54281485 -0.2055079 0.048658483 -0.97744501 0.073022477
0.13644785 -0.37539241 0.66016996 0.84271502 0.015766419 -0.53812897 0.040840123
0.0024787823 -0.18390508 0.55508775 0.38164368 0.053526949 -0.92275828 0.034037694
0.069910496 -0.12773409 0.64778334 0.11224706 0.98106295 -0.15784828 0.017224878
-0.015704433 -0.2632094 0.54304796 -0.0036791612 0.067377821 -0.99772078 0.047433443
0.092672542 -0.25929448 0.62835222 0.62444693 0.038773239 -0.78010422 0.0020693976
0.11599516 -0.28677461 0.65154058 0.62969297 -0.180696 -0.75553668 0.04062482
0.1146195 -0.32242772 0.65030354 0.6686967 0.096815713 -0.73720515 0.034893565
0.068370692 -0.20116486 0.6087817 0.62542844 0.028556759 -0.77975881 0.0008614391
0.00040536775 -0.16761002 0.55432636 0.34659389 0.12586081 -0.92953312 0.040934477
0.093872108 -0.2320222 0.63025564 0.62246925 0.0034553257 -0.78263658 0.00091349159
0.02342396 -0.24787106 0.57512695 0.6586042 0.028271645 -0.75195831 0.0010427919
0.017836897 -0.23379862 0.56871873 0.63789803 0.013795016 -0.76999724 0.0016380104
0.072775505 -0.19511449 0.61298895 0.61019611 0.0019827485 -0.79224789 0.0010718382
0.025086595 -0.16919897 0.57492942 0.64561719 0.15411858 -0.74794775 0.0096761575
-0.0054695113 -0.40579528 0.54293764 0.10031881 -0.054401975 -0.99346685 0.052429114
0.064318545 -0.23028697 0.60792315 0.61869264 0.00072677649 -0.78563285 0.00074203912
0.086928993 -0.2310271 0.62529129 0.62566215 0.0028447907 -0.78008896 0.00094886206
0.11077499 -0.14861831 0.64400101 0.45953181 0.61005121 -0.64549834 0.058020387
0.061844993 -0.27385697 0.60348958 0.60920006 0.07696829 -0.78927267 0.0019329678
0.09307453 -0.3260209 0.62583488 0.68405366 0.015402224 -0.72926909 0.0039451215
0.0039633061 -0.25637081 0.55742848 0.42863238 0.060783822 -0.90143198 0.034198631
0.035793643 -0.30517632 0.58153641 0.61717731 0.060261119 -0.784513 0.0017015258
-0.062445909 -0.1322684 0.72374427 -0.032379985 0.99923283 0.022027735 0.00083765946
-0.021242255 -0.21480958 0.54316998 -0.26133537 0.04408947 -0.96424055 0.073494345
-0.10183227 -0.13293001 0.73247844 -0.22175339 0.92543817 0.30722916 0.048380639
0.072974019 -0.12576085 0.70055014 -0.0076566641 0.99995744 -0.0051509812 0.0017012506
0.058811713 -0.41324764 0.59511417 0.7238254 0.070540808 -0.68636781 0.050901618
0.079307236 -0.27878881 0.6167984 0.63177025 0.086057432 -0.77036381 0.0020468808
0.077153541 -0.23587602 0.61911464 0.62097436 0.007921204 -0.78379083 0.0011670765
0.075024873 -0.2360981 0.61779314 0.61964417 0.0068606916 -0.78485292 0.0012067679
0.096644484 -0.21412863 0.633807 0.63046879 0.015688103 -0.77605605 0.00065092108
0.13260598 -0.15846133 0.66478205 0.81788963 0.19240236 -0.54225254 0.065056868
0.074256241 -0.25823426 0.61732674 0.62557542 0.044906456 -0.77887022 0.0017018446
-0.014873474 -0.32834262 0.54323906 0.046612762 -0.020460922 -0.99870348 0.055599961
0.036186408 -0.27015534 0.58402729 0.64911312 0.058557149 -0.75843471 0.0015813133
0.086406738 -0.21964663 0.62545627 0.63118559 0.0017219081 -0.77562994 0.0011029706
0.0057642753 -0.2054324 0.55813122 0.42189214 0.025497057 -0.90628749 0.034647252
-0.0099030659 -0.34302145 0.54517448 0.011913932 0.037439089 -0.99922782 0.066536419
0.096574321 -0.34430963 0.62754738 0.64136142 0.071304783 -0.76391822 0.0047687688
0.080648556 -0.42701575 0.60524768 -0.35246727 -0.70140994 0.61950862 0.057302706
0.0030371919 -0.33302298 0.55272329 0.39633024 -0.01787008 -0.917934 0.021933129
-0.00677035 -0.32646954 0.54665732 0.14045234 -0.021617675 -0.98985136 0.046267383
0.065750122 -0.12579302 0.71086931 0.00020079833 0.999982 0.006001662 0.0024149979
-0.11600141 -0.134634 0.73225826 -0.33460978 0.85146362 0.4037897 0.048207819
0.044792976 -0.36711362 0.58243537 0.65592062 0.01556113 -0.75466949 0.001146095
0.14289552 -0.12994923 0.68794644 0.74161345 0.65705049 0.1352556 0.12769933
0.13634115 -0.13747074 0.66345453 0.56951821 0.55011225 -0.61075807 0.078144364
0.14903708 -0.25568134 0.68775862 0.97690797 0.065089792 0.20350508 0.042729598
0.10850274 -0.13826668 0.64769006 0.4053058 0.68864578 -0.60124391 0.058737654
-0.0093494859 -0.29200259 0.54334712 0.10571555 0.0051350952 -0.99438316 0.05716851
-0.11944223 -0.13414806 0.69736207 -0.30278417 0.9482407 -0.095714465 0.049824543
0.037173595 -0.13685916 0.58851612 0.45870167 0.63815373 -0.61834669 0.082872674
0.14745727 -0.2022448 0.68589813 0.9903459 0.01215126 0.13808468 0.048867695
-0.0075093531 -0.20732206 0.54767978 0.14398733 -0.0023591227 -0.9895767 0.057282668
0.14396748 -0.19186535 0.67342842 0.97123367 0.059464835 -0.23058426 0.086242378
0.00051233015 -0.13619705 0.56133693 0.37508774 0.64490068 -0.66589206 0.052423995
0.1440161 -0.17792252 0.67473024 0.98571539 -0.033136122 -0.16512775 0.061791282
-0.0032275475 -0.40000346 0.54402202 0.28443924 0.006523008 -0.95867187 0.036034916
-0.0012499049 -0.26845682 0.55046487 0.29991996 0.053419653 -0.95246756 0.033720259
0.14621651 -0.22828382 0.68324894 0.9845013 0.063060008 0.16364773 0.044438507
-0.048904952 -0.1329139 0.78208429 -0.26719588 0.93046677 0.25067511 0.048950478
0.095644459 -0.12590104 0.73419094 0.424126 0.85140646 0.30858421 0.055814739
-0.15396427 -0.13676418 0.70321947 -0.77413696 0.62747586 -0.083582275 0.090052895
-0.036374714 -0.13297075 0.78862935 -0.21410125 0.95306176 0.21408848 0.035483923
0.055267762 -0.12691656 0.65579027 0.061340235 0.99495411 -0.079395808 0.0075638234
0.12846068 -0.12611741 0.69794214 0.56760776 0.76197433 0.31179583 0.091876142
-0.017485907 -0.42192262 0.54057086 0.069427751 -0.094643302 -0.99308735 0.071152411
-0.036663298 -0.41742268 0.54730654 -0.49149472 -0.15650803 -0.85670197 0.047105514
0.01752918 -0.12657803 0.69690305 -0.034825955 0.99935204 0.0090880208 0.0002964731
0.020125739 -0.3664411 0.56057948 0.54521281 0.04565936 -0.83705324 0.0043323394
0.015170777 -0.23073708 0.56635779 0.59932709 -0.011202016 -0.80042595 0.004835471
0.14234404 -0.13015105 0.6804747 0.70703226 0.70241082 0.08200229 0.13175105
-0.014790841 -0.1332131 0.81701636 -0.19590528 0.94146228 0.27435371 0.031475164
0.074641936 -0.37749106 0.6121543 0.72873485 -0.05775689 -0.682356 0.053434633
0.023047669 -0.1613552 0.57415235 0.60863143 0.26318923 -0.74853134 0.034006145
0.009265421 -0.16084304 0.56299353 0.50715625 0.21691345 -0.83411098 0.018350679
-0.011640591 -0.21224236 0.54523212 -0.027548382 0.0020927708 -0.99961823 0.06681747
0.016361427 -0.27007958 0.56516844 0.57567352 0.037006285 -0.81684184 0.0085594421
0.05576532 -0.36613455 0.59215295 0.67363012 0.0019909127 -0.739066 0.00072392833
-0.0064952741 -0.3935416 0.54241914 0.1371996 0.0030049128 -0.99053884 0.045629978
-0.010637198 -0.19893523 0.54533082 0.018052537 -0.02156706 -0.9996044 0.075235225
0.10834055 -0.30888489 0.64945644 0.65750653 0.050977662 -0.75172228 0.060849965
-0.024804242 -0.1318837 0.79331523 -0.19869532 0.96061802 0.19425026 0.017267622
-0.039000493 -0.1292835 0.64954054 -0.03159982 0.99924374 0.022659661 0.00040451201
0.043855734 -0.15689294 0.58822393 0.58107293 0.29461983 -0.75865233 0.043468527
0.012777689 -0.3391906 0.56010073 0.50519282 0.026583562 -0.86259699 0.0089461664
0.058845516 -0.1796495 0.60527229 0.6421088 0.052013133 -0.76484698 0.004388534
-0.02088831 -0.35729909 0.54265159 -0.19757609 0.077158146 -0.97724628 0.059006553
-0.0019141184 -0.20133524 0.55170459 0.28735065 0.024704805 -0.9575069 0.04268213
0.0068671224 -0.26202515 0.5582965 0.43997082 0.074589685 -0.89490891 0.031698827
0.090995252 -0.32152852 0.62460297 0.70059699 0.010926222 -0.71347356 0.0027533635
0.013838299 -0.15719074 0.5663566 0.57080501 0.29468155 -0.76638407 0.028601328
-0.055872601 -0.13093175 0.66410691 -0.035393443 0.99921829 0.017609008 0.00072440202
0.019850798 -0.13639426 0.57488018 0.39536178 0.67951524 -0.61801958 0.062095225
0.061100498 -0.12686171 0.66278177 0.056834653 0.99567163 -0.073538013 0.006426035
-0.0082286373 -0.28705958 0.54387915 0.084507935 0.022453284 -0.99616987 0.056822959
0.0022888999 -0.21122655 0.55468518 0.30077478 -0.0038381123 -0.95368755 0.037632897
-0.028347392 -0.13275099 0.80121738 -0.2360274 0.93681943 0.25818673 0.029761929
-0.091365546 -0.13159324 0.73957783 -0.22181971 0.91239297 0.3439987 0.059229292
0.14978501 -0.29566738 0.68485063 0.99020499 0.050382379 0.13021454 0.055234004
0.13893546 -0.22236235 0.66573167 0.97702849 0.031920116 -0.21070479 0.051198341
-0.026532248 -0.12897372 0.6615997 -0.037322022 0.99919963 0.014393913 0.00016127792
-0.14704223 -0.13717462 0.71990067 -0.51661658 0.80457926 0.29284722 0.079256259
0.01699627 -0.27086848 0.56606191 0.58747816 0.039610911 -0.80826998 0.0065750787
-0.019772945 -0.29157612 0.5429123 0.032918122 -0.0023247206 -0.99945545 0.0580974
0.037930083 -0.27054667 0.58539164 0.64981019 0.059274163 -0.75778192 0.0016357844
-0.011245778 -0.26849818 0.54410106 0.15613088 0.047294289 -0.9866035 0.045087993
-0.011080956 -0.27833566 0.54342008 0.078758739 0.015041402 -0.99678022 0.054947473
-0.063175566 -0.1288432 0.61474371 -0.4036569 0.86730492 -0.29127863 0.06789276
0.070945211 -0.18052615 0.61489993 0.63921177 0.036459606 -0.76816595 0.0033559662
0.0029168651 -0.2008063 0.55639255 0.37103069 0.04457524 -0.92755008 0.038136262
0.14987653 -0.29303533 0.6876967 0.99055588 0.03698292 0.13202739 0.053291582
0.0029135863 -0.23080945 0.55599487 0.35248083 -0.019922795 -0.93560696 0.037086189
0.065879688 -0.12599353 0.72397423 0.011095232 0.9993223 0.035097055 0.0041711512
-0.0016066327 -0.12836537 0.67532873 -0.039788298 0.99920785 0.00081083074 0.00018298566
-0.011375058 -0.18659596 0.54600239 0.21671626 0.013714246 -0.97613823 0.058487795
0.0010508606 -0.32709086 0.55031836 0.33562928 -0.0097210966 -0.941944 0.028275764
-0.0019017223 -0.29296783 0.54649311 0.22557209 0.026053609 -0.97387803 0.045464195
-0.036558025 -0.12698828 0.59653074 -0.3227323 0.92351025 -0.20729846 0.056602105
-0.0079438714 -0.12903365 0.66385114 -0.037722994 0.99926996 0.0060483413 0.00019261283
-0.064340204 -0.13210106 0.77893388 -0.4101505 0.78269941 0.4681434 0.0789387
0.087955803 -0.12760423 0.66158962 0.071121588 0.98065209 -0.18238224 0.011202676
-0.062125046 -0.13244273 0.73747009 -0.054252785 0.99607486 0.069939606 0.0063040643
0.15253006 -0.39966506 0.68940419 0.89927632 0.055941328 0.43378884 0.031766132
0.15029214 -0.36720708 0.68378693 0.99281424 0.02952929 0.11596469 0.06493257
0.13552329 -0.2833893 0.66319567 0.8080039 -0.0069702156 -0.58913594 0.033543564
-0.020327836 -0.18034022 0.54333204 -0.12466114 -0.013885248 -0.99210227 0.070562743
-0.034871601 -0.12993757 0.5709396 -0.4404645 0.78922075 -0.42792732 0.069479086
-0.040318497 -0.12704749 0.60764498 -0.22625566 0.9597972 -0.16612573 0.050795782
-0.00061961426 -0.18736006 0.55261773 0.33919939 0.057172913 -0.93897557 0.03945398
-0.017433597 -0.20419863 0.54355252 -0.19253755 0.0023645479 -0.98128676 0.07660263
-0.014098979 -0.38586789 0.54125684 0.024380926 -0.012326156 -0.99962676 0.04466841
0.15010071 -0.32871631 0.68465322 0.98570091 -0.0089824721 0.16826472 0.053046793
0.12873775 -0.35186839 0.65217108 0.7733829 0.042027339 -0.63254458 0.025299573
-0.0063238065 -0.31495157 0.54531747 0.1981521 -0.0020659515 -0.98016906 0.038055677
-0.0032331659 -0.13808772 0.55896151 0.4053843 0.61623681 -0.67521542 0.062461115
0.016394516 -0.19235332 0.56746995 0.5873282 0.030689318 -0.80876684 0.0036764971
-0.021755224 -0.12903319 0.71112323 -0.048330262 0.99834543 0.03115637 0.00021968607
-0.0014756377 -0.23357517 0.55102462 0.21669124 0.018025618 -0.9760738 0.049121
0.051347036 -0.23831131 0.59670419 0.63048387 -0.0002214276 -0.77620244 0.001091186
0.053297877 -0.12730384 0.6694265 0.019547002 0.99929476 -0.032060582 0.0022235438
-0.045615204 -0.13245338 0.75411546 -0.075803213 0.99304557 0.090079121 0.010663584
0.14863274 -0.2707575 0.6741721 0.96153313 0.061062157 -0.26781589 0.074456111
-0.060548838 -0.12995151 0.64395601 -0.1603335 0.98583019 -0.049315896 0.015060972
-0.08994177 -0.12949593 0.66413772 -0.28722394 0.9431566 -0.16720645 0.04364815
-0.052438658 -0.13047861 0.59158784 -0.55453217 0.73948938 -0.38164061 0.070358425
0.032134894 -0.13204765 0.59076995 0.33482778 0.76077276 -0.55598122 0.074375935
0.02246251 -0.1706432 0.57234108 0.64098388 0.12792055 -0.75681967 0.0068509136
-0.018329771 -0.26232684 0.54335141 -0.088059083 0.063486636 -0.99409008 0.058659449
-0.0171874 -0.19702254 0.54351342 -0.12782197 -0.015551411 -0.99167526 0.081931941
-0.0055856714 -0.30669162 0.54496568 0.13526681 -0.0050524492 -0.99079633 0.05429459
0.018608673 -0.40569338 0.55942005 0.5290851 -0.0095480056 -0.84851503 0.0070637292
0.01563314 -0.31577075 0.56212533 0.52454644 -0.016755691 -0.85121691 0.0079537639
-0.013624127 -0.37862802 0.54272527 -0.0016687574 0.063039482 -0.99800968 0.05049238
0.0091410913 -0.28736359 0.55669147 0.46883562 0.05341481 -0.88166893 0.025294108
0.0050300364 -0.37266287 0.55032545 0.2814191 0.025355123 -0.95924991 0.031306364
0.017476192 -0.41827396 0.55977905 0.53517264 -0.10560465 -0.83811575 0.0065062321
-0.0039335294 -0.15697177 0.55118883 0.32244727 0.24544434 -0.91421264 0.056736764
-0.089468382 -0.12927489 0.67675108 -0.20431502 0.96881199 -0.14020947 0.0316412
0.1504008 -0.36496326 0.68366516 0.99714774 0.018532528 0.073163658 0.062356561
0.14878558 -0.34533402 0.67512071 0.98543769 -0.039303962 -0.1654319 0.065036803
-0.018049877 -0.38596281 0.54130924 -0.045499288 0.00010908418 -0.99896431 0.054169837
0.13462278 -0.13227282 0.67007774 0.52985346 0.80960023 -0.25259212 0.11335123
-0.067728668 -0.13180405 0.70266622 -0.023774885 0.99935597 0.02687829 0.00051638397
-0.13231017 -0.13104875 0.71694541 -0.3830331 0.89775658 0.2175286 0.057578158
0.085958101 -0.41861808 0.61186296 0.4803009 0.58369309 -0.6546858 0.085757218
-0.02213835 -0.43062562 0.5409562 -0.060959321 -0.12653391 -0.99008745 0.075405158
0.018704206 -0.37290776 0.55957288 0.52275878 0.044392049 -0.8513239 0.0058621005
0.14695141 -0.14797097 0.68885422 0.90810609 0.23676488 0.34537771 0.055659194
0.068354785 -0.12584166 0.74750334 0.13035937 0.96950001 0.2075479 0.045889921
0.019962687 -0.12859286 0.73598671 -0.061535515 0.99777859 0.025520612 0.00057390006
0.047052592 -0.15547526 0.5904448 0.59504569 0.32747674 -0.73394799 0.048013277
-0.020430885 -0.15026613 0.54333091 0.13141514 0.283842 -0.94982302 0.084193595
-0.054817982 -0.12691855 0.61924696 -0.29162529 0.93645346 -0.19496064 0.053823669
-0.14896007 -0.13580921 0.71369421 -0.58821148 0.78897524 0.17755352 0.093626864
0.0016315626 -0.24550851 0.55551767 0.34602103 0.047939349 -0.93700123 0.039729703
-0.017912732 -0.29942051 0.54263556 -0.011508815 -0.020605991 -0.99972141 0.054262143
0.0030225292 -0.29044247 0.55247349 0.40284038 0.034418978 -0.9146229 0.03321676
-0.012213346 -0.37526122 0.54180479 0.04791018 0.056926724 -0.99722815 0.041396219
-0.014515296 -0.14516968 0.5484274 0.22482248 0.36352709 -0.90404809 0.084817506
-0.019767445 -0.41438279 0.53987336 0.046989914 -0.039253812 -0.99812376 0.059944682
-0.012548489 -0.2265809 0.54434377 0.024564253 0.016303092 -0.9995653 0.052769773
0.053981405 -0.12629287 0.74778169 0.041656237 0.98419285 0.17213112 0.031952336
-0.013436101 -0.12905875 0.66130662 -0.034864742 0.99934995 0.0091709942 0.00020946353
-0.011328082 -0.12815079 0.64186615 -0.026372669 0.99916434 0.031225868 0.0002354942
0.13183218 -0.13145874 0.6701113 0.4571498 0.84949863 -0.2633746 0.098543212
0.11780553 -0.2134416 0.65201759 0.68654704 0.012123954 -0.72698432 0.0054400279
0.086580209 -0.37069774 0.62269455 0.63703561 -0.047824118 -0.7693494 0.03272672
0.14752862 -0.14719895 0.68897831 0.91290051 0.24346706 0.32762244 0.06095751
0.1566423 -0.41200754 0.68369007 0.95089853 0.10932239 0.28955242 0.046786919
0.073954254 -0.36856961 0.60891616 0.72832006 -0.11747858 -0.67509156 0.043091349
-0.022120493 -0.12817958 0.62579256 -0.033250641 0.99919534 0.022430815 0.00054700853
-0.040341567 -0.12861817 0.6270802 -0.075600185 0.99709368 0.0094208624 0.0036431726
-0.008709236 -0.42330265 0.5424546 0.12064777 -0.11846642 -0.98560131 0.073239647
0.072002411 -0.21612538 0.61300433 0.61623883 0.0064704521 -0.78753281 0.00081815111
0.11099152 -0.13406275 0.65314806 0.36478409 0.76616335 -0.52908063 0.048807617
0.14221521 -0.35525322 0.66583318 0.91877484 0.0046473909 -0.39475465 0.052043136
-0.014722819 -0.26181656 0.54346573 0.045863107 0.078799233 -0.99583495 0.047489457
-0.022808613 -0.16731159 0.54322565 -0.15337521 0.1089141 -0.98214757 0.076282933
0.037950542 -0.12718771 0.61038446 0.16609924 0.96412903 -0.20704153 0.030469347
0.0019486484 -0.17670108 0.5550561 0.36364478 0.065733813 -0.92921555 0.038844563
0.0095092198 -0.18471006 0.56149513 0.49411446 0.037889417 -0.86857086 0.020792594
-0.024237184 -0.38876915 0.54070497 -0.15832764 0.00051566958 -0.98738652 0.05060862
-0.00022765374 -0.28339931 0.54883581 0.30838749 0.059067804 -0.94942516 0.032312557
0.085689895 -0.13858843 0.63055652 0.33445555 0.87080604 -0.36032805 0.064566731
0.14414546 -0.13797529 0.6733892 0.87084717 0.48773426 -0.061159302 0.13134007
0.13681695 -0.20128416 0.66479498 0.9335866 0.1487515 -0.32602003 0.078022763
0.07549011 -0.41021341 0.6124053 0.63509446 0.22272679 -0.73962682 0.075316042
-0.083058052 -0.13051093 0.6364696 -0.4598043 0.82018244 -0.34041265 0.075239398
-0.040557936 -0.12891467 0.63154924 -0.074812524 0.99708909 0.014714912 0.0033927506
-0.13655522 -0.14069436 0.67339736 -0.65001792 0.57056868 -0.50192434 0.050547559
0.0081667854 -0.4149836 0.55165005 0.39797544 -0.024559747 -0.91706729 0.027375419
0.035478558 -0.40734392 0.57458216 0.6265381 0.020283323 -0.77912676 0.0042475569
0.002574417 -0.1659617 0.5570783 0.40737128 0.1792233 -0.89550412 0.035288636
-0.018847739 -0.31353614 0.54287976 -0.055897459 -0.020304918 -0.99823004 0.056953132
0.033305369 -0.16209464 0.58238304 0.63623232 0.24340473 -0.73209465 0.026829503
0.0060449564 -0.24786875 0.55874914 0.44929627 0.036684733 -0.89262933 0.030757274
0.025002193 -0.34270164 0.56784922 0.59709674 0.048719093 -0.80068845 0.0017671559
-0.039776232 -0.34619763 0.55585414 -0.60031748 0.078071438 -0.79594195 0.023196751
0.063844167 -0.39156735 0.60331035 0.71399695 0.030930059 -0.69946527 0.041585155
-0.010641332 -0.35459661 0.54338866 -0.029707357 0.047452256 -0.99843168 0.056698017
-0.0033529948 -0.22666034 0.54923677 0.13563515 -0.0014596791 -0.99075782 0.060100816
-0.0043158769 -0.16623236 0.55172735 0.32949832 0.16412918 -0.92978096 0.046693794
0.063932411 -0.3643418 0.59951061 0.67848921 -0.017871216 -0.73439294 0.0010303069
0.01247853 -0.30564967 0.56033522 0.50031632 0.023622068 -0.86552036 0.016007278
-0.0010140693 -0.37275147 0.54661071 0.2027234 0.030348461 -0.97876561 0.036875561
0.0081022596 -0.24170892 0.56052554 0.46390909 0.017702213 -0.88570589 0.030825129
-0.10319658 -0.132723 0.65967745 -0.42188919 0.84437937 -0.33020145 0.072253861
0.038051289 -0.12503648 0.76444834 0.061531533 0.98804724 0.14133854 0.022962786
-0.033961795 -0.38736263 0.54529446 -0.45176038 0.040448222 -0.89122188 0.023959104
0.00128329 -0.12770893 0.61599737 0.018951243 0.99950576 -0.025081627 0.0034486454
-0.029774778 -0.12933996 0.56963545 -0.32397816 0.8474592 -0.42053664 0.070910797
-0.12285013 -0.39286852 0.64780158 -0.74860066 0.031551745 -0.66226989 0.0016117858
-0.15690005 -0.28954661 0.70335406 -0.98646009 0.041368928 0.15869859 0.062358715
-0.0023213606 -0.13254212 0.82535237 -0.10012196 0.93664396 0.33566904 0.03598509
-0.1266654 -0.13616574 0.66881108 -0.48964313 0.72012025 -0.49160597 0.068829365
-0.15163857 -0.32422265 0.68939966 -0.9741838 -0.0054446538 -0.22569081 0.051153794
-0.025226913 -0.14642674 0.54453731 -0.1087959 0.33273605 -0.93672311 0.10643937
-0.067879423 -0.40955055 0.58082747 -0.75652093 0.043537248 -0.65251869 0.0024557938
-0.085867353 -0.36852887 0.60443127 -0.75708145 0.023837239 -0.65288556 0.0010559411
-0.077784911 -0.30476418 0.59885025 -0.76400369 0.0097862631 -0.64513767 0.0007161363
-0.082935274 -0.34161454 0.60147828 -0.75428319 0.028314162 -0.65593851 0.00072140596
-0.048206095 -0.23964788 0.56667197 -0.67365158 0.044646051 -0.73769933 0.017541407
-0.070054799 -0.25944975 0.59242415 -0.75512278 0.052475993 -0.65347975 0.0010178172
-0.047148384 -0.34902737 0.56318742 -0.65492046 0.066837512 -0.75273627 0.012567048
-0.10119144 -0.18341051 0.63419712 -0.775298 0.0093727903 -0.63152611 0.0021019559
-0.11759774 -0.26597616 0.64330673 -0.77027166 0.068638861 -0.63401121 0.0021679457
-0.11411506 -0.33458287 0.64285046 -0.75750011 0.048938178 -0.65099818 0.00070316088
-0.12256394 -0.32888532 0.65218151 -0.75854445 0.045305043 -0.65004438 0.0010681414
-0.049109075 -0.28667912 0.56513786 -0.66743112 -0.023291053 -0.74430722 0.0092970897
-0.044529032 -0.37329486 0.55946809 -0.65497738 0.060541224 -0.75321937 0.012407126
-0.067975149 -0.35226849 0.5867939 -0.7389639 0.015972216 -0.67355567 0.00065852009
-0.10910518 -0.23017201 0.64274263 -0.7721923 0.087061003 -0.62939608 0.0013095386
-0.057611708 -0.1937356 0.57885319 -0.77270478 -0.014596581 -0.63459766 0.00095071172
-0.093438849 -0.20643149 0.62648392 -0.77160639 -0.010572884 -0.63601238 0.001110739
-0.066469781 -0.15817548 0.5911541 -0.71144366 0.29997545 -0.6355018 0.035103012
-0.054710019 -0.22929539 0.57699108 -0.76488572 0.020564111 -0.64383763 0.0021154534
-0.094530575 -0.15028806 0.6239742 -0.71945399 0.39671206 -0.57009256 0.038603421
-0.032448094 -0.14045444 0.55290431 -0.51996928 0.47578606 -0.70940793 0.091040574
-0.14171876 -0.13402298 0.6875087 -0.59585065 0.75592786 -0.27117345 0.080015048
-0.037860017 -0.14156564 0.55623484 -0.54705203 0.49836916 -0.67257887 0.086859368
-0.087102778 -0.20472147 0.61819041 -0.7822544 -0.037604127 -0.62182307 0.00071010832
-0.086586632 -0.19976737 0.61635005 -0.78180832 -0.035691638 -0.62249643 0.00069239404
-0.039647531 -0.18701521 0.55396914 -0.5411666 -0.034225851 -0.8402186 0.0464595
-0.14527734 -0.15074667 0.68086386 -0.8201037 0.35268119 -0.45060611 0.051534452
-0.058271267 -0.15968034 0.57986218 -0.76028156 0.28253826 -0.58493084 0.031097263
-0.050005592 -0.40893462 0.56029296 -0.63691097 -0.071492612 -0.76761526 0.016346149
-0.04603719 -0.32405204 0.56190211 -0.63711262 -0.0039432859 -0.77076066 0.012875487
-0.15580121 -0.24653807 0.7081663 -0.99747473 -0.019838205 0.068195619 0.061927184
-0.11760868 -0.1665764 0.65247744 -0.73716956 0.18062049 -0.65112001 0.031637885
-0.1283823 -0.21111591 0.66594803 -0.76523358 0.007396366 -0.6437102 0.0013337239
-0.15463938 -0.20741154 0.6987713 -0.95335507 -0.073350996 -0.29280305 0.056689333
-0.11627049 -0.23197676 0.65021801 -0.77549434 0.095059447 -0.62415719 0.0013194036
-0.12149861 -0.22615725 0.65753424 -0.76223344 0.08047495 -0.6422804 0.0016451416
-0.1246095 -0.22130474 0.66166818 -0.75705868 0.052652892 -0.65122181 0.0017569453
-0.064451024 -0.20655669 0.58854294 -0.78660929 -0.024020003 -0.61698377 0.00067152584
-0.038153034 -0.26095924 0.55137616 -0.48682925 0.041695699 -0.87250143 0.046309207
-0.051875766 -0.20117024 0.57189417 -0.72844106 0.0070892517 -0.68507171 0.0060213385
-0.082664542 -0.13050459 0.64017928 -0.42031351 0.86895162 -0.26126537 0.064814448
-0.040629614 -0.37758693 0.55298299 -0.6029346 0.043219369 -0.79661906 0.020497873
-0.069181323 -0.40434495 0.58128715 -0.75583738 0.042066664 -0.65340674 0.0019952038
-0.094651841 -0.29428828 0.61961323 -0.76473778 -0.022009183 -0.64396554 0.00048622952
-0.10154217 -0.38212192 0.62233174 -0.75818044 0.007159004 -0.65200543 0.0008065771
-0.11741447 -0.1559775 0.65215796 -0.67700541 0.3681111 -0.63730526 0.054277521
-0.037765924 -0.23026597 0.55345547 -0.52075309 0.02141154 -0.85343874 0.0499909
-0.12459354 -0.21121503 0.6614899 -0.75242251 0.011272112 -0.6585843 0.00103719
-0.084598504 -0.1728743 0.61016554 -0.7857734 0.10706581 -0.60917747 0.011781765
-0.15073858 -0.19016419 0.6890288 -0.91779518 -0.026319556 -0.39618078 0.048206076
-0.045240302 -0.18261011 0.5615294 -0.63214338 -0.010994757 -0.77477354 0.027472822
-0.076245636 -0.21617891 0.60404795 -0.78401399 -0.030143209 -0.62001073 0.00063919649
-0.13602942 -0.32818612 0.66577822 -0.81424886 0.053351559 -0.57805914 0.0092328424
-0.10310885 -0.32279548 0.63004494 -0.7682336 0.04193094 -0.63879496 0.00054500991
-0.021594647 -0.28711188 0.54311341 0.007715717 0.0062695127 -0.99995059 0.051526818
-0.12928431 -0.15786417 0.66508937 -0.70920616 0.26210383 -0.65446788 0.04242941
-0.10633607 -0.14739312 0.64216119 -0.68853706 0.46117795 -0.55967093 0.055243205
-0.073314801 -0.13492352 0.60858315 -0.55488342 0.63078654 -0.54241377 0.049079314
-0.098866001 -0.41192096 0.6228137 -0.75169176 0.020225763 -0.65920436 0.0023550412
-0.12017791 -0.35251227 0.64788461 -0.75788283 0.045487229 -0.65080297 0.00057890633
-0.10206304 -0.40761262 0.62611401 -0.74798179 0.011465361 -0.66362023 0.0020021505
-0.038917102 -0.24633621 0.55300593 -0.46821168 0.090804294 -0.87893826 0.050497297
-0.14073588 -0.24130169 0.67939836 -0.85659015 0.032512695 -0.51497215 0.016704025
-0.14921567 -0.22199224 0.68771541 -0.91917288 -0.069070384 -0.38775057 0.045917671
-0.1237077 -0.23241977 0.6591565 -0.76670343 0.084883466 -0.63636523 0.0018200224
-0.10188577 -0.33119369 0.62772727 -0.76938337 0.043588225 -0.63729835 0.00045701856
-0.066960372 -0.29390427 0.58445865 -0.75326931 0.01728037 -0.65748519 0.00068179966
-0.071684197 -0.34744871 0.58981097 -0.74222434 0.010048662 -0.67007619 0.00059408654
-0.14852914 -0.36844128 0.67943352 -0.89009249 0.00044039966 -0.45577964 0.012207257
-0.07740055 -0.27503195 0.59748334 -0.75168324 0.031723764 -0.65876091 0.0014999924
0.081964739 -0.12733015 0.65859616 0.079628527 0.97890615 -0.18815406 0.016776156
0.01767732 -0.12633434 0.63048118 0.025750833 0.99902767 -0.035783466 0.0053608869
0.10512697 -0.12342236 0.7047286 0.28357521 0.9312045 0.22900505 0.065724738
-0.13057826 -0.16837281 0.66688311 -0.75149536 0.13466774 -0.64584786 0.022115022
-0.090236112 -0.14534646 0.62159497 -0.71673894 0.40578124 -0.56712162 0.035850946
-0.052081782 -0.19494298 0.57214314 -0.72781283 0.0026435081 -0.68577069 0.0056863171
-0.060266741 -0.34675571 0.57792991 -0.73203176 0.013761096 -0.6811316 0.00093329541
-0.14062199 -0.40207282 0.6668964 -0.83963954 0.021419428 -0.54272151 0.011875814
-0.065414153 -0.17466745 0.58654952 -0.77643085 0.074022777 -0.62584001 0.0076980768
-0.054576952 -0.20957419 0.57586884 -0.76597357 -0.010843658 -0.6427806 0.0027303654
-0.11890172 -0.26741588 0.64489001 -0.7711333 0.06895902 -0.63292825 0.0021634647
-0.071833111 -0.36405858 0.59079915 -0.74626523 0.032394893 -0.66485989 0.00071792607
-0.061324351 -0.16683868 0.58266443 -0.76432949 0.17120817 -0.62168175 0.01698653
-0.092012882 -0.39239514 0.61318457 -0.76655012 0.0085519915 -0.64212751 0.0011436085
-0.14256339 -0.37009779 0.66867292 -0.84405184 0.018093476 -0.53595626 0.01157301
-0.029051233 -0.27508274 0.54553103 -0.28074801 0.03930144 -0.95897645 0.064348824
-0.087665617 -0.16576737 0.6135065 -0.77443856 0.18161553 -0.60602045 0.01669695
-0.080651633 -0.18717356 0.60537994 -0.78324246 -0.012702201 -0.62158662 0.00091388513
0.081853636 -0.12473201 0.72035718 0.1235432 0.98763347 0.096526109 0.033254351
-0.02786628 -0.24377704 0.54490793 -0.29692683 0.081281014 -0.95143467 0.056471441
-0.024636827 -0.3545565 0.54376143 -0.31486359 0.095140144 -0.94435656 0.06544435
-0.11440865 -0.16050594 0.6485669 -0.68995208 0.3773087 -0.61774123 0.055191208
-0.12889494 -0.14889316 0.66496468 -0.61663061 0.45671475 -0.64123183 0.065075785
-0.057892878 -0.20402309 0.57965827 -0.77960378 -0.018392766 -0.62600291 0.00085654174
-0.11419978 -0.35573858 0.64031577 -0.75453264 0.045944866 -0.65465224 0.00062339159
-0.10219741 -0.35780534 0.62347043 -0.76464832 0.030954592 -0.643704 0.0008147842
-0.075684629 -0.19390877 0.60104364 -0.78193456 -0.028519053 -0.62270778 0.00066389277
-0.029819224 -0.28677216 0.5456751 -0.35979989 -0.0043534739 -0.93301928 0.053458292
-0.095381431 -0.33406165 0.61866456 -0.76650029 0.039099179 -0.64105272 0.00051217095
-0.028299181 -0.13661176 0.55295169 -0.41838828 0.57333016 -0.70444566 0.11112943
-0.023369906 -0.24751852 0.54278648 -0.23432963 0.078841969 -0.96895492 0.05603341
-0.099935025 -0.18364683 0.63247979 -0.77398401 0.011662885 -0.63309765 0.0021070279
-0.091653712 -0.2692816 0.61184394 -0.74426812 0.026284529 -0.66736346 0.0011930061
-0.042264778 -0.22764415 0.55911553 -0.58386362 0.044157982 -0.81064999 0.03806261
-0.10351262 -0.16833264 0.63530904 -0.73242724 0.16933419 -0.65945143 0.020806637
-0.12891445 -0.36906195 0.65502596 -0.76458448 0.037368972 -0.64343923 0.0011322576
-0.13634725 -0.27095479 0.66806865 -0.83205104 0.059156228 -0.55153567 0.0034012988
-0.083165862 -0.16642034 0.6082375 -0.78118706 0.17957197 -0.59791374 0.018352691
-0.11812714 -0.30800208 0.64711875 -0.75584751 -0.0065861419 -0.65471452 0.00056625158
-0.15032041 -0.34278005 0.6845358 -0.92780703 0.047691487 -0.36999953 0.03232893
-0.035498846 -0.12781169 0.58326322 -0.3352724 0.89702803 -0.287981 0.050613087
-0.065475255 -0.2141961 0.59147781 -0.78592807 -0.017403446 -0.61807293 0.00081554241
-0.053210467 -0.37486625 0.57044381 -0.69775057 0.067122497 -0.71318913 0.0043946928
-0.094957218 -0.21265176 0.62797844 -0.77218765 0.0056526125 -0.63536936 0.0013406555
-0.15154459 -0.31516805 0.6892916 -0.96843129 0.00028903858 -0.24928035 0.050690327
-0.10607502 -0.1854291 0.64010185 -0.77317154 -0.00095523353 -0.63419622 0.0012786265
-0.044004224 -0.14251731 0.5636903 -0.65887684 0.48030794 -0.57895213 0.067541793
-0.040245958 -0.18669975 0.55486321 -0.56658673 -0.030285666 -0.82344538 0.041730706
0.071315534 -0.125706 0.74705529 0.16174352 0.96363616 0.21270756 0.04473415
0.073890731 -0.12543908 0.71118283 0.0081560723 0.99991167 0.010491397 0.0029972524
0.11897647 -0.12467247 0.68566251 0.26665229 0.96376675 0.0070937769 0.060586762
-0.058693144 -0.15837324 0.58084583 -0.75892931 0.2876572 -0.5841915 0.03253274
-0.14084476 -0.13563591 0.72358352 -0.46073174 0.8177675 0.34493843 0.067281894
-0.10725717 -0.14440912 0.64621818 -0.64971578 0.45540881 -0.60866421 0.057150111
-0.084442362 -0.33998185 0.60358584 -0.75728679 0.029482003 -0.65241671 0.00072607287
-0.10542741 -0.28863958 0.63156122 -0.76261836 -0.022714805 -0.64644974 0.00043522337
-0.12119381 -0.39103395 0.64609522 -0.74841487 0.031936564 -0.6624614 0.0015202279
-0.13298625 -0.34931603 0.66044885 -0.76723862 0.054413639 -0.63904935 0.0012801036
-0.12040815 -0.33446911 0.6502254 -0.75383657 0.054394398 -0.65480661 0.00072863529
-0.14171471 -0.34323224 0.67042178 -0.8336308 0.053624652 -0.54971272 0.010411437
-0.14861245 -0.21550047 0.68697894 -0.91137642 -0.097267851 -0.3999151 0.046209242
-0.065732129 -0.30803356 0.58299577 -0.75340003 0.013739902 -0.65741897 0.00044258911
-0.13298626 -0.20110936 0.67169625 -0.79481906 -0.0076764645 -0.60679793 0.0047148941
-0.097505756 -0.35976163 0.61734301 -0.76082522 0.028660085 -0.64832377 0.00087116944
-0.087682284 -0.17348228 0.61437726 -0.78765798 0.087734126 -0.60983407 0.0094336849
-0.14439511 -0.23774435 0.68450809 -0.88333219 -0.021721466 -0.46824393 0.027290886
-0.060272571 -0.13452592 0.59160602 -0.61048943 0.64500839 -0.45963767 0.05290585
-0.053329211 -0.18699184 0.57371199 -0.74464005 -0.0093720984 -0.66740048 0.0026327984
-0.056266729 -0.17648798 0.57639563 -0.75548095 0.04738339 -0.6534549 0.0042139953
-0.048993461 -0.29600999 0.56496471 -0.66661471 -0.0032017061 -0.7453956 0.0099686747
-0.050819017 -0.33630982 0.56660986 -0.67366421 0.014129606 -0.73890251 0.007001264
-0.020691561 -0.35997289 0.54238462 -0.15839796 0.07915242 -0.98419762 0.054792471
-0.03227118 -0.38869581 0.54396707 -0.41790214 0.026391195 -0.90810859 0.030214148
-0.036954615 -0.29351613 0.55217153 -0.52438116 -0.017322566 -0.85130739 0.038034879
-0.038656443 -0.28498122 0.55331051 -0.53852373 -0.03957605 -0.84168041 0.03945769
0.027622264 -0.12739545 0.59933484 0.17485011 0.89302289 -0.41465351 0.064874038
-0.025880685 -0.2386021 0.54364181 -0.29153427 0.10693341 -0.95056456 0.060176995
-0.11149622 -0.14651828 0.64948976 -0.65913367 0.45284164 -0.60039765 0.061442915
-0.045020096 -0.12791395 0.59671015 -0.34340656 0.9079839 -0.2400772 0.056596424
-0.016114876 -0.12885308 0.68094039 -0.046947557 0.99887121 0.0072272024 0.00019169824
-0.10408761 -0.13408095 0.64970791 -0.54778433 0.70841491 -0.44506243 0.065040946
-0.065976873 -0.17284296 0.58722359 -0.76939505 0.11076402 -0.62909663 0.011828137
-0.063657396 -0.34425223 0.58192247 -0.73974246 0.010997196 -0.67280018 0.00059744815
-0.12524177 -0.3035084 0.65404201 -0.76479971 -0.0074955854 -0.64422446 0.00093726412
-0.1458059 -0.35326794 0.67527843 -0.86188644 0.035193432 -0.50587851 0.012885444
-0.070842989 -0.3077206 0.58963668 -0.75498283 0.01160669 -0.65564185 0.00061009638
-0.1498193 -0.41175625 0.68289083 -0.9056831 0.085121356 -0.41532207 0.023132026
-0.1076293 -0.22630303 0.6412977 -0.76910758 0.085854732 -0.63332647 0.0013487474
-0.10441943 -0.33144161 0.63085097 -0.76716048 0.042709991 -0.6400317 0.00050706795
-0.14743461 -0.32245916 0.68062991 -0.89462906 0.092157446 -0.43720224 0.023203222
-0.035431828 -0.24247214 0.54908603 -0.41180503 0.095615156 -0.90624183 0.048538487
-0.076456666 -0.32564017 0.59559476 -0.756194 0.017091686 -0.65412432 0.00071507203
-0.10136667 -0.21349221 0.63500738 -0.77180433 0.028078454 -0.63523972 0.0014104753
-0.037180047 -0.37230974 0.5494256 -0.56635261 0.064504415 -0.82163483 0.026042571
-0.11686856 -0.23756024 0.65017027 -0.77248079 0.10069408 -0.62700409 0.001288829
-0.071870603 -0.31654277 0.59109819 -0.75887823 0.0056571383 -0.65120792 0.00048845756
-0.037992358 -0.22327733 0.55562586 -0.54853493 0.037679736 -0.83527827 0.048479762
-0.057810668 -0.35449699 0.57555956 -0.7232281 0.023346171 -0.69021451 0.0015951532
-0.05129781 -0.21006957 0.57184273 -0.7286886 0.019282561 -0.68457365 0.0070965067
-0.0200409 -0.12914966 0.66686523 -0.041077208 0.9991039 0.010202882 0.00016082553
-0.026493035 -0.12893653 0.69426769 -0.049086023 0.99859923 0.019751275 0.00027076382
0.055865258 -0.12672412 0.69444597 -0.021676466 0.9995597 -0.02026007 0.00032508984
0.013313698 -0.12935796 0.7537334 -0.066096544 0.99762946 0.019147832 0.00054042536
-0.15628313 -0.13956867 0.70257455 -0.80410504 0.58460224 -0.10795999 0.088981315
-0.1223094 -0.13431442 0.67344129 -0.42652604 0.80804533 -0.40637228 0.063562565
-0.11644943 -0.13224991 0.6768738 -0.3421528 0.87013584 -0.35467601 0.062684603
-0.066081978 -0.13100907 0.69047964 -0.030452667 0.99918455 0.026511189 0.000485197
-0.04258756 -0.13010898 0.66175312 -0.025592376 0.99945074 0.02105435 0.00030622914
-0.14114046 -0.24609165 0.67919838 -0.86887681 0.042212758 -0.49322531 0.016138071
-0.061478306 -0.35153192 0.57957184 -0.73490548 0.020385856 -0.67786306 0.00076212682
-0.13158442 -0.15906599 0.6666978 -0.73666549 0.21467988 -0.64127725 0.035773166
-0.071911126 -0.13886648 0.60275739 -0.60174131 0.57779038 -0.55142146 0.055346984
-0.15552196 -0.19449666 0.69875747 -0.97107363 -0.017197605 -0.23816033 0.059364915
-0.095229864 -0.17770113 0.62687743 -0.77832532 0.072604589 -0.62364918 0.0088824145
-0.12272235 -0.35770833 0.65003449 -0.75904381 0.043767344 -0.64956671 0.00065251224
-0.10469414 -0.37173358 0.62655026 -0.76100397 0.021607265 -0.64838725 0.00098274567
-0.14953083 -0.37071636 0.6809721 -0.92252398 -0.018441852 -0.38549912 0.021841146
-0.15779896 -0.20577197 0.7048986 -0.98764879 -0.054477651 -0.14690849 0.054297626
-0.14773215 -0.32616872 0.68122339 -0.90725672 0.071919024 -0.41438264 0.022592954
-0.11179953 -0.26529697 0.63590926 -0.76880437 0.065980427 -0.63607115 0.0023677612
-0.13991089 -0.2918584 0.67213339 -0.87646693 0.015801901 -0.48120269 0.015726918
-0.15465604 -0.33909538 0.7062068 -0.98258197 -0.015595877 0.18517399 0.054708641
-0.14851348 -0.19885214 0.68656003 -0.89088732 -0.077764794 -0.44751805 0.036460336
0.072343096 -0.12718904 0.67686486 0.023375725 0.99636686 -0.081894383 0.004197258
-0.024614301 -0.12832692 0.64412951 -0.02495883 0.99926847 0.028972706 0.00030510948
-0.018933423 -0.41857857 0.53993368 0.01700836 -0.07102374 -0.99732953 0.064380743
-0.084996387 -0.13418895 0.62619835 -0.53713626 0.72232085 -0.43558824 0.063750274
-0.12596357 -0.18409127 0.66326129 -0.74486852 0.0047868299 -0.66719419 0.0013468404
-0.040044505 -0.12769532 0.6206392 -0.11736995 0.99209803 -0.044337474 0.017612495
-0.090681501 -0.39351931 0.61174488 -0.76496059 0.010314457 -0.64399457 0.0011494338
-0.13337913 -0.24544586 0.66828346 -0.80033565 0.081040144 -0.59404993 0.0036204304
-0.14840916 -0.36204025 0.67897457 -0.89442033 0.015123599 -0.44697145 0.019716987
-0.15049541 -0.24701957 0.69397068 -0.94779932 0.014093831 -0.31855586 0.050702609
-0.14296642 -0.37476555 0.66998529 -0.86034852 0.00088407414 -0.50970531 0.015566418
-0.15614374 -0.2931971 0.697478 -0.99799854 0.019479757 -0.060162168 0.055694766
-0.12693524 -0.40096235 0.65112859 -0.74791771 0.03675314 -0.66277325 0.0020189406
-0.14617255 -0.26493648 0.67959803 -0.88477236 0.072899669 -0.46028635 0.017237354
-0.041976318 -0.40054485 0.55242068 -0.57977456 -0.028549679 -0.81427664 0.020420987
-0.029455278 -0.13641393 0.55433553 -0.41535404 0.5871923 -0.69475621 0.10883591
-0.13950814 -0.21990354 0.67884004 -0.84774321 -0.046972822 -0.52832282 0.018793207
-0.14233042 -0.39251795 0.67118871 -0.86406112 0.0015074225 -0.50338459 0.012068888
-0.13627312 -0.22693186 0.67471552 -0.83720666 0.010796126 -0.54678011 0.01405478
