# .PCD v0.7 - Point Cloud Data file format
VERSION 0.7
FIELDS x y z
SIZE 4 4 4
TYPE F F F
COUNT 1 1 1
WIDTH 1445
HEIGHT 1
VIEWPOINT 0 0 0 1 0 0 0
POINTS 1445
DATA ascii
0.092310578 -0.41978449 1.123684
-0.2511563 -0.7006709 1.021674
-0.27561221 -0.35892519 0.98741788
-0.32910571 -0.47133031 1.004433
-0.34049171 -0.5032413 1.025345
-0.29723951 -0.54290777 0.96809071
-0.1420991 -0.69621497 0.86128849
-0.1201859 -0.68806982 0.89643949
-0.3028371 -0.7000851 1.0096869
-0.35676339 -0.52970302 1.055986
0.50141633 -0.66100168 0.82803088
-0.2987465 -0.70313603 0.99991232
-0.3304154 -0.49430761 1.004662
-0.30331409 -0.4074479 1.014284
0.151816 -0.46407011 0.89076811
-0.2734502 -0.69509602 0.9101578
0.04813784 -0.41857401 1.002115
-0.2515935 -0.7033475 1.000098
-0.018276449 -0.68634641 0.86880052
0.1152916 -0.4367736 1.110664
-0.1469509 -0.68182731 1.081742
-0.088895768 -0.71706939 1.0873441
-0.2500945 -0.33278739 0.9898836
-0.2535435 -0.33202159 1.0071141
-0.15085579 -0.67946869 1.005609
0.1340175 -0.66496909 1.133733
0.096094802 -0.45123899 1.133673
0.105972 -0.60422528 1.105965
0.031578839 -0.43264669 1.106969
-0.1353381 -0.67936277 0.96699828
-0.1110338 -0.67221832 1.124522
0.118103 -0.68985242 1.1096309
-0.136508 -0.63291907 1.042852
-0.27344289 -0.68751222 1.016999
0.1174453 -0.66483289 1.085909
0.038863782 -0.43383151 1.102512
-0.25516301 -0.33774751 1.075137
-0.1390141 -0.61996597 1.062076
-0.45769501 -0.69266921 1.122485
-0.2044712 -0.70263457 0.95578039
-0.1739964 -0.68810648 1.055088
0.1613656 -0.67896807 1.134443
0.1168143 -0.66513193 1.113907
0.1205931 -0.66959423 1.163016
0.1563215 -0.40270251 0.99774659
-0.20268869 -0.36358449 0.99345648
-0.26270741 -0.33630341 1.06494
-0.1265149 -0.68409067 0.9820146
-0.1111535 -0.67626351 1.018617
0.29909769 -0.47245499 0.98050368
-0.1049022 -0.45373061 1.140417
0.32182449 -0.51473087 1.002546
0.2485767 -0.44382921 0.99659872
-0.1231493 -0.71022189 1.0847549
0.1073019 -0.64620101 1.059364
0.55914778 -0.69588828 0.91526538
-0.065291509 -0.72120798 1.073391
-0.042831078 -0.66512978 1.078046
-0.058408011 -0.6921941 1.08631
0.3230215 -0.68141723 0.99858141
0.22201429 -0.65030289 1.1077189
0.1144229 -0.66245681 1.025524
0.093992077 -0.65662152 1.055867
0.1713571 -0.69375187 1.094667
0.182108 -0.4097622 1.1030591
0.56140792 -0.6942811 0.80561471
0.13290121 -0.68242908 1.034642
0.02988383 -0.69345248 1.025649
0.01323916 -0.70008701 1.036908
0.47305611 -0.67575067 0.89748919
0.33093721 -0.69487238 0.97682172
0.078257769 -0.6873349 0.98127252
0.34034321 -0.6506058 1.067102
0.116941 -0.46395591 1.0941581
0.040074691 -0.69635928 1.064357
0.1872945 -0.408755 1.037132
0.2467307 -0.4200868 0.99467063
0.1225754 -0.69258082 1.099701
-0.05450096 -0.66538328 1.072902
-0.040136959 -0.71433699 1.078385
0.4064284 -0.70755869 1.005628
0.61094058 -0.71882731 0.84850669
-0.19775189 -0.53520697 1.026216
-0.056123011 -0.76425618 1.019208
0.1458651 -0.67338377 1.1145689
-0.2474633 -0.3285999 1.02959
-0.25240019 -0.32928959 1.083992
0.25418791 -0.43788189 1.018401
-0.2570723 -0.33107749 1.042998
-0.050568741 -0.52215141 0.92436701
-0.032008719 -0.6217804 0.992652
-0.046498422 -0.67437679 0.97613817
-0.013703 -0.67505789 0.97840673
-0.006488564 -0.52880782 0.93380338
0.1971242 -0.40373111 0.9705894
0.1882091 -0.39609081 0.97769803
-0.02620071 -0.61113769 0.97437698
-0.22547939 -0.48113751 0.98809791
-0.2159494 -0.50773478 1.004342
0.1295839 -0.67778432 0.94698519
-0.2242761 -0.48945189 0.99279898
0.2066589 -0.4150351 0.98079932
-0.062384412 -0.64924037 0.95606989
0.1970043 -0.65021068 0.97836202
-0.05611676 -0.51807177 0.92058587
-0.25372761 -0.3216652 0.9960112
0.1764344 -0.67586023 0.95150989
0.16575199 -0.66484553 0.93896931
0.09434928 -0.59225887 0.91736281
-0.1388981 -0.63469023 0.95434469
0.30766159 -0.65166169 0.96114898
0.128553 -0.3925828 1.026261
-0.2206229 -0.51013839 0.99566507
-0.056653161 -0.66495252 0.97022748
-0.1287252 -0.66626751 0.9248606
-0.1081735 -0.67385149 0.95278662
0.3716647 -0.66087729 0.92075419
-0.01358329 -0.66644168 1.001923
-0.024537779 -0.56874108 0.95202082
0.1159827 -0.66138709 0.90864038
-0.048453301 -0.65518522 0.97663271
0.31155589 -0.65772849 0.96583343
-0.08339335 -0.66456759 0.92979318
-0.13529851 -0.67692709 0.96095312
0.1916994 -0.64723682 0.94725299
0.23766419 -0.42618021 1.016382
0.086399332 -0.58896333 0.9272657
-0.01985359 -0.57022631 0.9446016
-0.037830159 -0.66656309 0.95107448
0.16339929 -0.68222022 0.96128333
-0.05843468 -0.588691 0.92768478
0.1077001 -0.6698311 0.9335891
0.086311713 -0.64156938 0.96375978
0.1075729 -0.67857617 0.95305258
-0.2477514 -0.33804569 1.026473
-0.2471251 -0.33485341 1.07776
0.13141631 -0.38722289 1.010034
-0.054092281 -0.66699529 0.97276151
-0.1275723 -0.66960508 0.92575198
-0.01361319 -0.67167002 1.010329
0.2084031 -0.42312419 0.99086583
0.20382079 -0.64029258 0.978095
-0.051008169 -0.68450481 0.9817149
0.031443778 -0.67758769 0.97019231
0.27187651 -0.48638219 1.021354
0.3177242 -0.67271757 0.96538693
-0.051031802 -0.66094959 0.98872471
0.25251329 -0.45276141 1.036909
0.1908219 -0.40896931 0.98721731
0.1939192 -0.41999671 0.99734902
0.3106508 -0.65381402 0.98011571
0.30734339 -0.61652118 1.021584
0.3330293 -0.67393023 0.96360117
0.29855451 -0.67393887 0.97619772
0.37135351 -0.67455959 0.92859262
0.37195861 -0.66982943 0.9430778
0.1652234 -0.67877269 0.93133342
0.26493651 -0.46434069 1.028463
0.348124 -0.68553102 0.93136942
-0.1821481 -0.49526739 0.98375881
0.19544969 -0.64674991 0.98604292
0.40813789 -0.66474348 0.91796398
0.1680088 -0.66533822 0.93936479
-0.0235615 -0.57995027 0.95721638
-0.05307785 -0.61193949 0.94734591
0.3826789 -0.65308678 0.99392229
0.4386467 -0.68632227 0.87382662
0.40436661 -0.64623648 0.98774987
0.004171561 -0.51470298 0.91500098
0.48453349 -0.64889252 0.89426512
0.065008789 -0.67629212 0.96669012
0.059586748 -0.68467587 0.9539184
0.49367511 -0.67287832 0.87381488
0.1094542 -0.67850381 0.94834828
0.30203781 -0.66763401 0.98168492
0.2332821 -0.4322249 1.03222
0.39318469 -0.68103158 1.028319
0.2444066 -0.68347019 1.021212
0.3473396 -0.67711228 0.97704971
0.33069441 -0.70358938 0.97552401
0.30293849 -0.68523878 1.011106
0.103214 -0.69907957 0.96011519
0.068785988 -0.67295402 0.94967979
-0.033438999 -0.59401977 0.97108012
0.053083789 -0.70664668 0.97098261
-0.26880839 -0.34104091 1.104056
-0.06121349 -0.67842972 1.007303
-0.058352269 -0.69844162 0.99332899
-0.04466686 -0.69286191 0.97688031
-0.064461298 -0.68535042 0.99051172
-0.064816773 -0.53974283 0.93764788
-0.021766391 -0.67191571 1.010902
-0.2329516 -0.3715044 1.031799
-0.057637099 -0.67066997 1.0059969
-0.2627418 -0.3357639 1.085103
-0.099590667 -0.70416337 0.96409601
-0.26943859 -0.3421852 1.016796
-0.0622859 -0.54214519 0.9412356
-0.059391201 -0.62153453 0.95641083
-0.21953949 -0.50435841 0.99910629
-0.2965208 -0.38899171 1.015779
-0.26238441 -0.3375974 1.002118
-0.14056329 -0.60647118 0.96048838
-0.2260249 -0.51480877 1.001899
-0.35631451 -0.50532711 1.0379781
-0.1463896 -0.70276088 0.95311153
-0.26002231 -0.35892969 1.094782
-0.3578251 -0.51123899 1.046869
-0.75693959 -0.70597172 1.2535371
-0.71707678 -0.74104428 1.17547
-0.74581748 -0.71001393 1.251687
-0.63905197 -0.71842599 1.086848
-0.59820431 -0.70452499 1.0415781
-0.72071511 -0.73340029 1.173216
0.1928446 -0.66774303 1.0076441
0.1699608 -0.6734131 0.94361758
0.1637308 -0.68582612 0.95438838
0.2480785 -0.4586055 1.069411
0.2421174 -0.68984139 1.023436
0.20361391 -0.52436018 0.93522543
0.25403091 -0.43977419 1.021993
0.22684351 -0.43528569 1.034817
0.2113134 -0.41598049 0.98087847
-0.25870159 -0.33364299 1.032784
-0.26583791 -0.33179349 1.087957
0.2090264 -0.4176904 1.130355
0.17958941 -0.4085089 1.120384
0.1997931 -0.41519359 1.111064
0.1934616 -0.4170104 1.124094
0.15949769 -0.39190251 1.087734
0.1882268 -0.4109785 1.112174
0.17525201 -0.3948741 1.0723259
0.1902262 -0.38773301 1.091117
0.1889926 -0.40018091 1.0479831
0.26626649 -0.44485569 1.051109
0.25075051 -0.43145779 1.036395
0.12621979 -0.39364961 1.018775
0.057985641 -0.4017739 0.99806857
0.25938621 -0.44804931 1.040621
0.2436451 -0.42424661 1.04722
0.1878034 -0.40556839 0.98221928
-0.21117491 -0.50431889 1.090905
0.2091825 -0.43651631 1.134831
0.1686503 -0.43290091 1.148849
0.2394076 -0.44715381 1.055037
0.24597479 -0.43891659 1.0422339
0.25738809 -0.44172531 1.041423
0.064307272 -0.40150079 1.010371
-0.29413271 -0.70122099 0.42638531
-0.024346471 -0.65751642 1.09155
0.1677798 -0.3796196 1.092041
0.25007451 -0.43719959 1.0529931
-0.04824236 -0.66681921 1.114983
0.1943251 -0.39937651 1.113646
0.2042385 -0.62509948 1.047027
-0.17217989 -0.49599689 1.109602
0.20314419 -0.66919738 1.0213211
0.184552 -0.66864347 1.045458
-0.074673273 -0.386213 1.078557
0.24905831 -0.43412739 1.0672489
0.25562719 -0.42905879 1.060173
0.19802549 -0.66881388 1.02464
-0.033131551 -0.66397047 1.114347
-0.052925549 -0.67436272 1.084924
0.2159541 -0.66751307 1.0039099
0.3465991 -0.61820608 1.030423
0.211376 -0.4277949 1.1371599
-0.037966538 -0.66410989 1.063483
0.195434 -0.66223317 1.002416
0.1939453 -0.66301721 0.97883213
0.30491251 -0.63964939 1.045279
0.26643011 -0.46127501 1.082568
0.02111412 -0.61470628 1.090057
0.25235921 -0.42403889 1.045692
0.23900381 -0.4309997 1.104905
-0.1351105 -0.69982111 0.94807959
-0.13336091 -0.61181891 1.096297
-0.05382904 -0.68367589 1.085198
0.26571801 -0.44368801 1.081583
-0.2295308 -0.3441568 0.9852125
-0.25770879 -0.33750299 1.0286731
-0.1204367 -0.70128942 0.93991047
-0.2394658 -0.319778 1.10037
-0.031989388 -0.65967041 1.117766
0.24629951 -0.43207651 1.048263
0.34874749 -0.60646617 1.075304
0.2229425 -0.42300031 1.138653
-0.43514991 -0.66411787 0.83932459
-0.0046111769 -0.58292228 1.133137
-0.1694251 -0.66358823 1.083449
0.31633541 -0.48048979 1.064483
0.27671021 -0.43725571 1.0350569
0.26291779 -0.43013021 1.021518
0.1740873 -0.67941302 1.113665
0.1238892 -0.64062512 1.084627
0.1302947 -0.61839873 1.1059231
0.326419 -0.4899866 1.064871
0.34512001 -0.63225311 1.068233
0.29688701 -0.65344721 1.056659
0.52855468 -0.64950889 0.86179769
0.49303889 -0.63585907 0.93683279
0.37470031 -0.65623277 1.062367
0.32339889 -0.57452929 1.091386
0.1165642 -0.65038288 1.092364
-0.0092076994 -0.56380939 1.154458
-0.090737589 -0.69069582 1.122879
0.1355695 -0.69223422 1.1074719
-0.233623 -0.3524273 1.0616519
-0.2549834 -0.41858429 0.94687349
-0.28851229 -0.52324349 1.110898
-0.1434226 -0.72254539 1.032505
0.1435405 -0.70316559 1.102445
-0.073450968 -0.68707943 0.99746257
-0.14141379 -0.69114822 1.002167
0.17917509 -0.71576482 1.1346999
-0.091291673 -0.67395401 1.005482
-0.1040239 -0.70391881 0.94481689
0.60480392 -0.68806839 1.099041
0.1687559 -0.70389259 1.05726
-0.02836333 -0.70953751 1.501932
-0.01066899 -0.69838458 1.492047
0.49112591 -0.65737742 1.240416
0.44291231 -0.70021802 1.265166
-0.40176049 -0.71958959 1.1323971
0.4559654 -0.66545212 1.354423
0.4607105 -0.66886169 1.316242
-0.06098989 -0.53916848 1.159276
0.3874307 -0.66210592 1.2682509
-0.1363041 -0.69051528 1.493277
0.1282849 -0.71904361 1.407063
0.16816761 -0.71337283 1.339511
0.13859139 -0.43937591 1.106589
0.05717824 -0.44413939 1.09676
-0.25326839 -0.32768631 0.99924892
-0.11151 -0.69591868 0.97269309
-0.2857323 -0.6704244 1.031693
-0.2477587 -0.71723717 0.99823201
-0.28465959 -0.3350828 1.025913
-0.25159591 -0.41258159 0.95274568
-0.05046669 -0.72209167 1.10217
-0.1271731 -0.63427871 1.082132
-0.1057138 -0.72454578 1.054852
-0.1866457 -0.47133031 1.083001
0.50120592 -0.67571139 1.266578
0.26319751 -0.72355491 1.451645
0.27742741 -0.71412039 1.4518009
-0.2267132 -0.36549771 1.055554
-0.3496232 -0.49501431 1.021453
-0.32588679 -0.56222129 1.012472
-0.44413489 -0.7183615 1.109947
-0.2101696 -0.73386347 1.00299
-0.40536329 -0.72986883 1.13425
-0.1487916 -0.46948889 1.091363
-0.44178501 -0.72061652 1.141961
-0.27429819 -0.71761918 1.000813
0.05985764 -0.3890039 1.001122
-0.1349443 -0.67516518 1.1206
0.1531813 -0.49560821 1.173319
0.47228709 -0.65531951 1.264899
0.12922131 -0.47766349 1.164137
-0.40418851 -0.69008332 1.4341871
-0.35692719 -0.48920581 1.036348
-0.2273324 -0.67109197 1.50459
-0.2530233 -0.68741882 1.496762
0.092410341 -0.44822991 1.1370341
-0.084152892 -0.6243794 1.131
0.093757167 -0.41993251 1.123299
0.40836519 -0.67219353 1.449093
-0.25557399 -0.34222311 1.0889159
-0.34893849 -0.50798893 1.071684
-0.2190471 -0.65036893 1.02132
0.26885051 -0.65687132 1.492851
-0.1114717 -0.67468452 1.12595
-0.1530894 -0.66440868 0.88693202
-0.42552671 -0.67701489 1.1545711
-0.044760451 -0.66535193 1.495331
-0.30798951 -0.41541409 1.045469
-0.42565531 -0.68169552 1.4252501
0.47347111 -0.66675949 1.317304
-0.25573051 -0.67775518 1.0103509
-0.2576108 -0.66850293 1.045149
0.03105046 -0.42905459 1.113297
-0.1439264 -0.70568138 1.11909
-0.29530749 -0.67923093 1.475613
0.094646342 -0.40012261 0.96723372
-0.26080269 -0.34474531 0.99702913
0.057763811 -0.3880223 0.99898899
0.1754005 -0.6428479 0.91941541
0.16552959 -0.67258883 0.92196602
0.092942022 -0.66321951 0.97492248
0.02582434 -0.65970057 0.96499449
0.074645989 -0.67431289 0.94601548
0.093165897 -0.65854341 0.98013419
-0.1076932 -0.67023772 0.93100852
-0.1401653 -0.65264863 0.9970001
-0.15854891 -0.67734438 0.95992279
-0.1370447 -0.66330647 1.101994
-0.13927279 -0.67523187 1.028567
-0.5009886 -0.69417208 0.85870862
-0.50072038 -0.67248613 0.88353938
-0.51409209 -0.70928448 0.87555748
0.075331964 -0.38706601 1.004337
0.02601202 -0.66492069 0.95037347
-0.14871889 -0.61363548 0.98562682
-0.1436954 -0.66236162 1.066765
-0.19738729 -0.50534272 0.99920648
-0.4516702 -0.67443353 0.7733404
-0.46754199 -0.68585259 0.79900402
-0.33313391 -0.4756678 0.99709839
-0.48932949 -0.69391727 0.82561988
0.1064606 -0.66745448 0.93706048
-0.2171125 -0.51356947 1.012448
-0.2476 -0.34015271 1.082376
-0.48417711 -0.69863588 0.80703628
-0.49623901 -0.70372027 0.8279317
-0.1185164 -0.59151822 0.91866261
-0.46957961 -0.69101417 0.77997118
-0.20869359 -0.36043429 0.9932918
-0.066874526 -0.65327352 0.90910918
-0.024688611 -0.65099168 0.9517647
-0.47592619 -0.68772233 0.76841283
-0.46038771 -0.68332207 0.78601432
-0.51743841 -0.67487812 0.89033097
-0.47007161 -0.6923973 0.76161999
-0.51036441 -0.67811882 0.90009981
-0.46529469 -0.68822151 0.76602292
-0.50170499 -0.72849238 0.81011689
-0.48853859 -0.67889577 0.84448552
0.1143539 -0.60519898 0.91252983
0.01357888 -0.66437238 0.95339411
-0.4163442 -0.67677307 0.70155311
-0.42347381 -0.68391412 0.71023917
-0.43677989 -0.69476539 0.71755308
-0.4590216 -0.70292091 0.75320113
-0.48670939 -0.69535208 0.80043453
0.1706472 -0.62222248 0.92240012
0.1808476 -0.62173182 0.91646081
-0.46678409 -0.6884762 0.77204239
-0.51245058 -0.71083832 0.83622682
-0.44628921 -0.69028169 0.72083497
-0.43269709 -0.69240588 0.70457608
-0.124755 -0.57734197 0.90207559
-0.25514269 -0.32291919 1.068826
0.35763341 -0.48589969 1.134734
-0.0096075414 -0.52032048 0.91581762
-0.136692 -0.67351317 0.96028751
-0.1026031 -0.65789789 0.92379129
-0.1474575 -0.61768848 1.0020781
-0.2224483 -0.50795692 0.99076748
-0.41421801 -0.68476659 0.66988069
-0.4461194 -0.68919653 0.75307918
-0.25029099 -0.33776271 1.060879
-0.49929309 -0.72917551 0.81276679
-0.01459784 -0.56310892 0.94311643
-0.50019199 -0.69091147 0.84425348
0.025208719 -0.66208267 0.95299011
0.36802661 -0.66327429 0.9172374
-0.1241657 -0.58488071 0.91455692
-0.30230501 -0.40965009 1.000029
-0.3304356 -0.47970709 1.00836
-0.1209997 -0.62904572 0.92431009
-0.1084598 -0.67644489 0.93994689
-0.136344 -0.67026842 1.0651211
-0.3365553 -0.4863756 0.99745691
0.151005 -0.65266889 0.91693932
0.070796803 -0.39060301 1.013816
0.2082179 -0.46392769 0.91497183
0.064477064 -0.66402429 0.94218957
0.1101943 -0.67076987 0.93047023
0.1620228 -0.62163007 0.91074461
-0.15923589 -0.67261708 0.96361208
-0.35358459 -0.49551901 1.029894
-0.1260989 -0.67379439 1.048207
-0.1525545 -0.666394 1.074823
0.1053194 -0.66858518 0.94118279
0.01313781 -0.66250569 0.94973397
-0.27058941 -0.3310836 1.00337
0.20955171 -0.45856631 0.9091661
0.3975046 -0.64976972 0.90906119
-0.095960803 -0.66810948 0.93122679
0.109654 -0.47330099 0.91045368
-0.02592301 -0.61332721 0.93428588
-0.1384955 -0.67479008 0.93470752
-0.13734379 -0.50290388 0.94002712
-0.1330397 -0.59470057 1.029503
-0.2226904 -0.41825989 0.97281682
-0.2717768 -0.3759788 0.98212612
-0.1553652 -0.69448489 0.96837139
-0.3091163 -0.4093245 1.042317
-0.2224687 -0.38854709 0.97424442
-0.26309621 -0.34576911 1.0012569
0.51441783 -0.67241383 0.8294664
0.54600978 -0.67150128 0.85081971
0.51591802 -0.65595579 0.86390179
0.4237462 -0.66709208 0.85664552
0.41833541 -0.68038583 0.88192219
0.44809729 -0.63063818 0.90367937
0.41936421 -0.6941117 0.88949448
0.38782361 -0.63964611 0.97194773
0.39618969 -0.6234017 0.93556488
0.1964177 -0.58054608 0.9149124
0.20404001 -0.66150838 0.91936088
0.1741789 -0.58007622 0.90277719
0.061063059 -0.65141612 0.95524329
0.099074431 -0.68186402 0.9270525
0.16349301 -0.60135257 0.89154828
-0.14112841 -0.66485548 0.96815968
-0.1374003 -0.66573602 1.109807
-0.21309879 -0.3604559 0.99120182
0.4256635 -0.65873653 0.87657189
0.09410698 -0.399946 0.96488237
0.06296093 -0.39145091 0.98955792
-0.27574211 -0.6703285 1.025376
-0.34860459 -0.49950361 1.066269
-0.087218732 -0.3887558 1.062034
-0.28014269 -0.67287147 1.023198
0.1022308 -0.42096531 1.117933
-0.119734 -0.57563049 0.91367459
0.4735319 -0.64819992 1.258966
0.04199487 -0.43050599 1.107831
-0.02919678 -0.67522597 0.81770611
-0.1324929 -0.67995763 0.87190902
-0.24520899 -0.32254031 1.078158
0.1004721 -0.44751421 1.131103
-0.251203 -0.3418431 1.047815
-0.2485638 -0.33948129 1.080575
0.48587441 -0.67965478 1.308382
-0.24460991 -0.3481316 1.079528
-0.2460444 -0.33985811 0.98702532
-0.24113479 -0.62888658 1.022172
-0.23572271 -0.3485958 1.038748
0.45340779 -0.66322953 1.421999
-0.1444926 -0.63388878 1.023617
-0.3537271 -0.48729369 1.036531
-0.1155192 -0.67435312 1.117516
0.36862159 -0.64873117 1.2606291
-0.2384316 -0.34529191 1.029477
-0.25898609 -0.32365781 0.99371749
-0.1304124 -0.63214052 1.0745341
-0.27666971 -0.33547369 1.0141931
0.1035469 -0.66322869 1.114061
-0.0033690289 -0.53112298 1.126972
0.090682082 -0.58386898 1.106938
0.4858003 -0.6482901 1.228111
-0.25057989 -0.33227319 1.09029
-0.13700511 -0.67394102 0.96117419
0.1352659 -0.66168928 1.122998
-0.094429523 -0.66390872 1.002794
-0.57520032 -0.67542559 1.011386
-0.092569113 -0.67335719 0.99389881
0.098767348 -0.66394371 1.087782
-0.25194219 -0.32919309 1.0100631
-0.27213049 -0.3697466 0.98599237
-0.1573365 -0.58827281 1.091162
-0.1477913 -0.65737963 0.99248499
-0.16374861 -0.56592149 1.0361021
0.095823877 -0.62891698 1.067757
-0.2071588 -0.4956747 1.09068
-0.23826431 -0.3169629 1.0930361
0.22943281 -0.41992971 1.035305
-0.21502221 -0.3079643 1.082376
0.2796391 -0.59939581 1.047156
0.27989119 -0.56953818 1.061551
-0.25738889 -0.32244071 1.09623
-0.25722021 -0.31505421 1.0466861
0.2374168 -0.4188365 1.035447
0.2457252 -0.42372799 1.04941
0.3257542 -0.61280513 1.057351
0.35220581 -0.60878009 1.045601
0.2296219 -0.59335113 1.060962
0.22741599 -0.40928701 1.0249031
0.068646707 -0.38232401 1.009951
0.2252837 -0.44964331 0.9601475
0.2113954 -0.62775189 1.0443161
0.33319211 -0.51551181 1.043438
0.3372232 -0.56294882 1.022481
0.2257169 -0.400574 1.036765
-0.20358171 -0.4914777 1.094854
0.1882235 -0.3921414 1.108041
-0.043692619 -0.64220673 1.078061
-0.25739959 -0.32317239 1.047127
-0.040375061 -0.62694621 0.9957189
0.167356 -0.67004079 0.96378839
0.1041897 -0.66754872 0.94918549
-0.1382885 -0.66757917 0.96399581
0.2331484 -0.41538891 1.0636801
0.2426738 -0.42268929 1.0610451
-0.054400619 -0.59512502 0.94674832
0.100787 -0.66409099 0.94952512
0.1264867 -0.67486429 0.95496541
0.3310495 -0.66372949 0.99768502
0.1499487 -0.66849577 0.94658649
-0.084318221 -0.66870642 0.94215918
0.099531069 -0.64750957 1.010317
0.092160009 -0.3995806 0.98060292
0.2234076 -0.57387888 0.97942108
0.060765449 -0.55907059 0.94477719
0.079854637 -0.59156072 0.99935251
0.094699763 -0.66117889 0.98250657
0.09622433 -0.66331488 0.98068613
0.27432609 -0.63795942 1.0006469
0.1266564 -0.6655708 0.9352963
-0.05433483 -0.5149191 0.91749012
-0.1191176 -0.5876689 0.92549199
-0.12783261 -0.67093259 1.12326
-0.138501 -0.67128849 0.97142571
-0.1278173 -0.65924752 1.055791
-0.22575571 -0.4402104 0.98094672
-0.1286836 -0.64872742 1.013037
-0.2112941 -0.44679621 0.97500092
-0.22657169 -0.46387729 0.98283082
-0.1392993 -0.67178428 0.96068639
-0.1366993 -0.64192891 0.97951412
-0.1626492 -0.67267531 0.96051192
-0.13656829 -0.67261457 1.068414
-0.1683924 -0.68155593 0.96234781
-0.33814859 -0.4756591 1.00036
-0.35330391 -0.48822039 1.004308
-0.27223721 -0.32818341 0.9810645
-0.066725373 -0.61966491 0.91876829
-0.1319859 -0.66937572 1.040089
0.075620569 -0.67099297 0.94316041
-0.29918799 -0.41333631 0.99246567
0.094829626 -0.6634016 0.97302818
0.092066959 -0.65792799 0.97173661
0.098126084 -0.65776932 0.93635857
-0.22408541 -0.5077768 0.99338287
-0.25989181 -0.3126916 1.05909
0.028063679 -0.66150582 0.95029378
0.091660701 -0.62784189 1.003566
-0.027924821 -0.5410462 0.91262889
-0.092126749 -0.6542173 0.91366369
-0.25467721 -0.3200134 1.046591
-0.26647151 -0.33048329 0.9943186
-0.1389807 -0.65995401 1.101627
0.2457685 -0.4235009 1.033538
0.095888034 -0.3997561 0.9693107
-0.1234291 -0.58525193 0.91727757
0.1031511 -0.66379088 0.93852758
0.054423358 -0.5978334 0.93942428
0.062271819 -0.3841252 1.007405
0.072001621 -0.66291881 0.93938589
-0.1359823 -0.63976502 1.044831
-0.2325002 -0.40851131 0.96554852
0.15276401 -0.6493578 0.91297442
0.1273597 -0.38428861 1.015054
0.028888861 -0.66170812 0.95458698
0.25485989 -0.43081811 1.020712
0.071469903 -0.66877019 0.92822188
0.098436333 -0.40295219 0.96565717
0.0108889 -0.65896833 0.95393211
-0.074475951 -0.65731257 0.88900661
-0.1404866 -0.66154402 1.058239
-0.26267591 -0.32370591 0.99499011
0.084458783 -0.66581309 0.96474338
-0.1554085 -0.67858827 0.96496648
0.1479841 -0.41561559 0.92308569
0.068544202 -0.66698498 0.95644289
0.077395789 -0.38943401 1.014125
-0.04218173 -0.67047971 0.81892949
-0.1368334 -0.67738652 0.93055862
0.067550384 -0.40083051 0.99584723
0.1164838 -0.38075581 1.105491
-0.062282111 -0.65903121 0.92283458
0.1153646 -0.40679401 1.129014
-0.118282 -0.67152357 0.90798891
0.3312726 -0.67248088 0.94408578
0.056463439 -0.6709466 0.92552292
-0.108692 -0.63349539 0.91313392
-0.2323008 -0.40757969 0.96031731
-0.3350687 -0.4708482 0.99715787
0.04673871 -0.65780097 0.97742069
0.094899394 -0.64163733 0.96695417
0.077066563 -0.57959062 0.93473649
0.072753213 -0.37790349 1.022339
-0.060509741 -0.65819621 0.90918797
0.0064770048 -0.64567077 0.94289732
-0.1567899 -0.65523672 1.06273
0.2100337 -0.66470438 0.9204337
0.13583431 -0.6338281 0.91627473
-0.1392384 -0.68141782 0.95370322
-0.2479229 -0.3504999 1.026466
0.1294889 -0.38682699 1.016649
-0.25173959 -0.35344839 1.028437
-0.25687721 -0.34734419 1.083022
0.080417633 -0.39377981 1.018452
0.52198517 -0.66559768 1.251012
-0.2675353 -0.35332489 1.058
0.67740637 -0.68892878 0.82670712
0.020755591 -0.4258641 1.113299
0.49065861 -0.65889901 1.2661361
-0.25741401 -0.33275771 1.000654
0.49570039 -0.65457308 1.281752
-0.25817499 -0.3628819 0.98706728
-0.17375191 -0.38216361 1.068233
-0.1121339 -0.6752463 1.129818
-0.2051506 -0.36866891 1.074876
-0.1297864 -0.6778599 1.122082
0.69575042 -0.68763143 0.821666
-0.25573951 -0.3262457 1.0863889
-0.2530762 -0.33293799 1.092931
-0.2160131 -0.35702881 1.074626
0.26611981 -0.43805629 1.0215369
0.1888009 -0.40414229 1.109213
0.087495223 -0.70172697 0.56097162
-0.2366704 -0.34477079 0.99075758
-0.3174133 -0.4412342 1.030578
0.52586162 -0.675493 1.235747
0.27624941 -0.45115519 1.044121
-0.1116782 -0.66928452 1.128654
-0.1256436 -0.6708914 1.116757
-0.136196 -0.67198843 1.122898
-0.17778911 -0.3727583 1.057973
-0.1128411 -0.39213321 1.05861
0.1612379 -0.3868449 1.079179
0.099959113 -0.42491919 1.121911
-0.2334222 -0.34947681 1.011803
-0.086539797 -0.67490762 1.158
-0.2158204 -0.41241509 1.105412
-0.26797941 -0.3605921 1.095878
0.1409325 -0.67519331 1.146208
-0.2081164 -0.38100219 1.084386
-0.25521719 -0.33530349 1.097381
0.047714081 -0.37791309 1.013369
-0.27412719 -0.3346175 1.050192
0.085423097 -0.4099842 1.117391
-0.32132351 -0.40416941 1.042346
-0.30938759 -0.65130109 1.034148
-0.36265409 -0.4901638 1.028093
-0.3235091 -0.27310601 1.0608439
-0.051010478 -0.54590541 1.151462
-0.17989761 -0.64928412 1.094232
-0.25851929 -0.33127061 1.0822901
-0.287783 -0.32194549 1.0635819
-0.1636717 -0.61826009 1.033072
-0.28093559 -0.31269199 1.003545
-0.151877 -0.61619377 1.076808
0.1121031 -0.64561111 1.12763
-0.2402564 -0.354541 1.091745
0.033946808 -0.55036563 1.129199
-0.01183249 -0.40451941 1.116177
0.067354143 -0.6458776 1.122458
0.1680427 -0.60907698 1.148711
-0.27923369 -0.32084221 1.066241
-0.28857741 -0.32714081 1.084196
-0.21990959 -0.53997469 1.12678
-0.1277671 -0.64708388 1.136947
-0.16007981 -0.63576192 1.140035
0.069068253 -0.64353621 1.096343
-0.2012793 -0.61926001 1.011627
-0.29689699 -0.32151631 1.095731
-0.30389819 -0.30035159 1.037119
-0.2139791 -0.57218188 1.102708
-0.1900069 -0.58532071 1.194998
-0.53159928 -0.65116572 0.91739768
-0.54042161 -0.6485613 0.93449438
-0.53211123 -0.65101129 0.95137203
-0.51858991 -0.64502072 0.9048745
-0.56986988 -0.6572898 0.96366918
-0.20523749 -0.63216192 1.035391
-0.30937359 -0.3233856 1.037466
-0.52798522 -0.68267637 0.84981507
-0.50082242 -0.65424472 0.83478749
-0.56206179 -0.65483248 0.97800308
-0.57088101 -0.67231458 0.96450871
-0.33143321 -0.66460139 0.45596379
-0.41540661 -0.67971307 0.58703917
-0.42859799 -0.66365832 0.64340389
-0.37835789 -0.67060077 0.51606202
0.066147029 -0.62996107 1.157981
-0.31467241 -0.64637291 1.041181
-0.3105987 -0.65183848 1.036781
-0.3048262 -0.33805329 1.107305
-0.52718449 -0.66320843 0.88433921
-0.1825119 -0.58138698 1.077942
-0.3735542 -0.70901293 0.4274525
-0.1706481 -0.64725769 1.130258
-0.57280928 -0.66238332 1.001334
-0.1552958 -0.4588916 1.121442
0.044429362 -0.59762561 1.171441
-0.31774491 -0.30796531 1.029832
0.15798891 -0.36719441 1.077071
-0.26493469 -0.319493 0.9989742
-0.15721001 -0.58991778 1.189301
-0.28560191 -0.30351609 1.166657
-0.3231293 -0.3138859 1.088562
0.031818651 -0.63155138 1.137676
0.01622604 -0.56981742 1.115214
-0.035234392 -0.37211791 1.165287
0.032179851 -0.56869978 1.1388021
-0.28606501 -0.317388 1.067456
0.1976777 -0.396819 1.05988
-0.089972667 -0.67717379 1.074401
0.1945117 -0.4282124 1.006884
0.21760421 -0.59677517 1.047238
-0.57386178 -0.65367752 0.89513862
-0.30594581 -0.36217749 1.0457079
0.2920337 -0.60572982 0.99661231
-0.1275747 -0.62907612 1.103042
-0.3913168 -0.66460443 1.481294
-0.34575579 -0.65891439 1.502566
0.14307749 -0.44055569 1.072791
-0.33589119 -0.6579501 1.498859
-0.31738129 -0.65171742 1.503589
-0.1179052 -0.60292429 1.058864
-0.24037629 -0.637622 1.508543
0.2167796 -0.64733899 0.99332839
0.04039374 -0.59371221 1.1329499
0.27981141 -0.60779548 0.9834187
0.20351151 -0.61462212 0.98406398
-0.092835069 -0.60493863 1.0502011
0.29434761 -0.62795258 1.000019
0.2020027 -0.4671891 0.99181062
0.086935133 -0.7405591 0.83566427
0.03755803 -0.59177858 1.139058
-0.19255359 -0.59837359 1.126644
-0.32216659 -0.68487269 1.485965
-0.46520361 -0.76664001 1.458748
-0.44510001 -0.71671528 1.466091
-0.32009059 -0.36648899 0.96905518
-0.30616921 -0.46498531 1.079836
0.20906579 -0.58258492 1.044703
0.22331619 -0.42142671 1.035719
-0.06093828 -0.63823378 1.070695
0.088797733 -0.3554287 1.083089
-0.33411151 -0.30954179 1.073728
0.1514843 -0.59202498 1.085467
-0.35851651 -0.310646 1.010764
0.1716208 -0.41500109 0.99146527
0.165804 -0.64193672 1.006588
0.1669213 -0.38619551 1.096563
-0.26625839 -0.31602809 1.078795
0.23772161 -0.42664751 1.032483
0.27409419 -0.45815849 1.016345
-0.27332371 -0.31132421 1.0805711
0.47404149 -0.65105021 0.90935433
0.49413559 -0.64630991 0.89798498
0.2378381 -0.4204163 1.0062259
-0.2751998 -0.32174209 1.01239
-0.27129859 -0.32541999 1.099663
-0.008741877 -0.65487498 0.95272648
-0.59587967 -0.66279501 1.076546
-0.25807801 -0.3350943 0.99762708
-0.057465669 -0.60477829 0.99439782
-0.282911 -0.33020481 0.96902329
-0.1236451 -0.64683759 0.94292891
-0.060214039 -0.60032022 0.9867155
-0.051488928 -0.56248808 0.96701849
-0.071863987 -0.66014212 0.97583717
-0.079529412 -0.6214723 0.96640313
-0.33792081 -0.44660321 1.021862
-0.69637042 -0.69161278 1.159286
-0.64167267 -0.67745513 1.107095
-0.070825331 -0.4968487 0.91396677
0.151645 -0.66500467 0.96284097
0.1080661 -0.66082293 0.93753213
-0.03738327 -0.62970269 0.97509831
0.085512131 -0.64776188 0.93571287
0.16910189 -0.3787089 0.96236593
0.1083034 -0.36904171 1.008058
0.0083815726 -0.65907937 0.97664273
0.18694501 -0.64034641 0.93533069
-0.0025022989 -0.64288467 0.9473567
0.1873651 -0.39536539 0.97159791
0.053537089 -0.38151661 0.99452227
-0.01875462 -0.63752288 0.92848712
0.1262712 -0.4023954 0.92083049
0.08166194 -0.65448201 0.90682042
0.1284101 -0.40085071 0.9254182
-0.1649666 -0.63153827 0.96320051
-0.1527326 -0.61269182 0.93991381
0.092316747 -0.59769928 0.91902763
-0.071181446 -0.49354029 0.90371758
0.1832393 -0.48847789 0.91068977
0.2038945 -0.40510091 1.009845
-0.063954473 -0.66255158 0.96665841
-0.58900142 -0.66479743 1.021836
-0.080775991 -0.5735032 0.92821151
-0.024312999 -0.50082988 0.91104198
-0.1488438 -0.65665561 0.95187479
0.074863747 -0.38359731 0.95548159
0.2101752 -0.40803179 1.0997601
0.2254903 -0.42269549 0.99768811
0.2114649 -0.40751791 1.01518
0.1765918 -0.62588531 0.95739782
0.23039261 -0.42319819 1.018067
-0.2825214 -0.31078571 1.046147
0.078540057 -0.65987903 0.99321198
0.058325458 -0.62477952 0.99690139
0.075752623 -0.3919225 0.97980112
0.073134832 -0.6541822 0.99463749
0.079084992 -0.65510058 0.95698613
-0.2417756 -0.50061649 1.016555
0.2042782 -0.39657629 1.044196
0.2175114 -0.4134053 1.043156
0.095669381 -0.60287118 0.93203259
-0.1428169 -0.5812676 0.93619472
0.088445969 -0.65991187 0.95529997
-0.24731161 -0.40798149 0.98635173
0.043167889 -0.37659821 1.0212719
0.054152161 -0.38371819 1.028739
0.0067361328 -0.65453821 0.98691303
0.04579524 -0.66154373 0.9430328
-0.1105612 -0.6614725 0.95120358
-0.31763521 -0.41682771 1.027027
-0.18227039 -0.65711391 0.97154462
0.1680983 -0.63595963 0.94297981
-0.1409245 -0.66405559 0.92406309
0.086299367 -0.42915109 1.163794
0.057025399 -0.66356289 0.95695817
-0.26970229 -0.33043459 1.113869
-0.28240409 -0.32916731 1.012171
0.04128113 -0.66948909 0.96122462
0.038768131 -0.38292241 1.023556
0.1388924 -0.65346259 0.9320513
-0.053614039 -0.6600399 0.98341233
-0.1609786 -0.66110039 0.97279471
-0.1447736 -0.66790891 1.134271
-0.1320353 -0.65949088 0.94754559
-0.1669044 -0.66104609 0.96343929
0.0085186958 -0.66440368 1.000008
0.03561601 -0.66181612 1.012584
0.2863822 -0.66148633 0.98355001
0.06628643 -0.66705018 0.98767757
0.03566128 -0.65614831 1.020474
-0.06093882 -0.56591427 0.95745063
-0.0093722828 -0.65857732 0.97713459
0.060494341 -0.66681969 1.024896
-0.050126959 -0.54314739 0.95279419
0.07064189 -0.59944218 0.96270192
-0.16119321 -0.62187421 1.050812
-0.1565022 -0.66282308 1.094933
-0.1299271 -0.63787001 0.9338367
0.064947508 -0.3890858 0.97205752
0.2321246 -0.4248175 1.035902
0.3951245 -0.66739827 0.88012302
0.3773101 -0.63690132 0.87695211
-0.17994881 -0.65235168 0.96514332
-0.3169311 -0.40118551 0.99960881
-0.34820321 -0.47024009 1.0135061
-0.1614677 -0.64938289 0.97067457
-0.30339631 -0.3840723 0.99734968
-0.27613559 -0.32095379 1.089406
0.49701369 -0.64229739 0.86369461
0.40188071 -0.65678072 0.86040932
0.35768169 -0.62489498 0.90582907
0.48740271 -0.65907413 0.83068049
0.42248809 -0.61622959 0.90455163
-0.16165189 -0.66240019 0.9580304
-0.27632859 -0.32717049 1.086975
0.067749918 -0.3871083 0.96899343
-0.134198 -0.65834671 0.91603261
-0.19758651 -0.65296012 0.97102052
-0.25049189 -0.65381521 0.98675418
-0.28382349 -0.64632958 1.0072711
0.65213001 -0.66426063 0.83235991
0.4787848 -0.63725293 0.86830091
0.40766209 -0.66130668 0.85286278
-0.29957059 -0.65724558 1.02639
-0.18808471 -0.66319418 0.96750689
-0.36862841 -0.4764204 1.03218
0.42379591 -0.62117982 0.9042505
-0.28081909 -0.31398311 1.000536
-0.32758579 -0.40108621 1.043471
-0.2781373 -0.333076 1.082798
-0.17361359 -0.64700621 0.88602042
-0.1117034 -0.58942682 0.9170174
-0.1714762 -0.64767897 0.88559312
-0.1136268 -0.37520719 1.070737
-0.27949011 -0.33098149 0.98563391
-0.27831489 -0.65054101 1.021274
-0.32885671 -0.6510914 1.0049829
-0.2725383 -0.33201471 1.027246
-0.27966669 -0.30971101 1.07762
0.3893764 -0.6277706 0.86664778
0.64513719 -0.6701259 0.83491772
-0.069493636 -0.64497137 0.87530673
-0.1057179 -0.62643868 0.92289972
-0.29252371 -0.64750439 0.93037152
0.04151202 -0.37634739 1.0208991
0.13647079 -0.4441424 1.164858
-0.27819741 -0.32376939 1.052363
0.055660121 -0.39657721 1.12166
-0.25550491 -0.3385798 1.0181299
0.2831552 -0.63041812 1.471231
-0.25483099 -0.3314589 1.026539
0.49190781 -0.65913582 1.2655129
0.46951559 -0.67095047 1.31408
-0.2715269 -0.32826269 1.085848
-0.25787961 -0.34422821 1.0815459
-0.26452681 -0.31749919 1.082255
-0.26224399 -0.65494227 0.99361521
-0.284327 -0.67935908 1.0230089
0.073232867 -0.38427711 1.010653
0.016216289 -0.41977701 1.110654
0.065241776 -0.38498431 1.01122
0.45608491 -0.66501057 1.31199
-0.26398379 -0.33818731 1.0443881
-0.1459776 -0.66620368 1.118009
-0.26335531 -0.32360151 0.99740559
-0.04241829 -0.67555618 0.81928951
-0.26407161 -0.3197481 1.080403
-0.31437999 -0.41030061 1.040499
0.4646619 -0.64887279 1.262295
0.32525241 -0.65450943 1.4803261
-0.38279039 -0.67730898 0.97192413
-0.27662489 -0.3306824 0.99377769
0.096034624 -0.3918612 0.96392131
0.091981173 -0.41543961 1.11655
0.41986999 -0.64656472 1.415146
-0.1417309 -0.67099673 0.96764559
-0.1099448 -0.67507797 0.93588191
-0.095762387 -0.67477781 1.0509599
0.064840034 -0.67674029 0.92634052
-0.1390781 -0.67667347 1.070098
-0.056370068 -0.66557151 0.92579639
-0.1291226 -0.67534691 1.04416
-0.1290437 -0.67618477 1.045876
-0.1059501 -0.6771546 1.06673
-0.1436916 -0.494542 0.93414122
-0.1212824 -0.63155848 0.92455709
-0.1533106 -0.67309308 1.051281
-0.28189021 -0.37071019 0.98159808
-0.34342971 -0.47700649 0.99800652
-0.35534441 -0.48292851 1.0160511
-0.3436417 -0.47547039 1.002037
-0.3529115 -0.4891389 1.00509
0.096052252 -0.66737068 0.97514778
-0.2331451 -0.410597 0.96733731
-0.26296461 -0.3204205 0.98776257
-0.1568588 -0.67846811 0.96235287
-0.2317571 -0.41193601 0.96957731
-0.3350752 -0.47654271 1.0070029
-0.2307127 -0.41239551 0.9681682
-0.1474956 -0.67523098 1.081007
-0.50438088 -0.68514282 0.87276947
-0.50955218 -0.68026799 0.89076102
-0.30136141 -0.41036639 0.99476337
-0.2701965 -0.3355765 0.99511808
-0.04776191 -0.6627503 0.9272123
-0.1058979 -0.66070378 0.92881483
-0.1069293 -0.66130012 1.042681
-0.1632237 -0.5165177 0.95956743
-0.1403088 -0.66544962 1.060322
-0.05944651 -0.65982783 0.92426252
0.055660289 -0.6629591 0.92040253
0.074754938 -0.66718638 0.95698458
-0.22525319 -0.41529399 0.97197402
0.1094381 -0.66465533 0.93918961
0.091870479 -0.3857663 1.017563
0.073078819 -0.66794771 0.92990559
0.033729792 -0.66901958 0.98172361
0.085829817 -0.66772097 0.94555157
0.096540913 -0.39182839 0.96469522
0.081867851 -0.66742069 0.97247648
-0.104944 -0.66856372 0.93467611
-0.25382891 -0.33258879 1.0914381
-0.25639051 -0.32290909 1.08549
0.17315529 -0.38506669 1.086221
0.064140134 -0.3920123 0.99435902
0.079209797 -0.56945592 0.93239802
-0.3460902 -0.499504 1.033509
-0.2486248 -0.34452319 1.084332
-0.26154891 -0.33899921 1.029523
-0.256506 -0.324835 0.99389899
-0.2065154 -0.34595069 1.074146
-0.2491563 -0.32869229 1.07243
-0.26493001 -0.32877699 1.064657
-0.21443871 -0.5164271 1.004923
0.088740207 -0.66450042 1.065865
0.00031900729 -0.5252797 0.9341141
0.1319807 -0.38490221 1.025265
0.1036463 -0.4031429 0.9851101
0.1158457 -0.64782357 1.03518
-0.2453821 -0.33706981 1.053775
0.069179617 -0.6729635 1.023217
-0.2215139 -0.41856071 0.98572862
-0.138933 -0.67835522 0.96448362
-0.08030086 -0.67953819 0.95152628
-0.01074901 -0.67107368 0.97382271
-0.050459459 -0.51528507 0.91884488
-0.115281 -0.5963909 0.93517071
-0.33127129 -0.48099631 1.0158989
-0.02014097 -0.64038539 0.97309601
0.097543217 -0.67202908 1.100474
-0.1528046 -0.67847371 0.97467178
-0.082741544 -0.68850368 0.96544081
0.066336207 -0.3933396 1.02291
-0.2318902 -0.49217421 1.003726
-0.1475457 -0.61719513 0.97565287
0.026867921 -0.67219239 1.0341721
0.096364439 -0.66755128 0.88295013
-0.1334084 -0.64212543 1.048776
-0.26116121 -0.34141451 0.99615133
-0.19794869 -0.49971059 0.99382287
0.1091415 -0.66705531 0.94138843
0.097011127 -0.65995008 0.97506452
-0.1162221 -0.59442449 0.9235363
0.041383319 -0.6784547 0.96903902
-0.2938765 -0.41643909 0.99634153
-0.44919181 -0.69025362 0.7872774
-0.42256469 -0.6963954 0.71513301
-0.48569021 -0.7000196 0.82984799
-0.4633666 -0.69644892 0.77763271
-0.49842429 -0.70591402 0.85916471
-0.18998709 -0.49265191 0.98392832
-0.4430638 -0.69342053 0.75631309
-0.26119319 -0.33357069 0.99892861
-0.40833199 -0.69085991 0.6898399
-0.485742 -0.68405938 0.87913162
-0.44966611 -0.69006127 0.80273652
-0.074302942 -0.57336903 0.90984172
-0.41087499 -0.70329219 0.68342149
-0.4598313 -0.69038659 0.79162401
-0.47058281 -0.68018502 0.83488691
-0.3737618 -0.70584339 0.58295542
-0.5359118 -0.69075418 0.9327966
-0.1561325 -0.67491072 0.96475619
-0.2188171 -0.37941411 0.9860605
-0.54267383 -0.67991912 0.98184818
-0.1293761 -0.66780162 1.0267659
-0.2233987 -0.4139294 0.96742219
-0.32998729 -0.4793416 1.007215
-0.48564711 -0.6852476 0.85437691
-0.48462361 -0.70386899 0.8108241
-0.49910429 -0.68229282 0.89390302
-0.55543298 -0.69504488 0.98195022
-0.56167299 -0.69296908 0.99806237
-0.34054279 -0.4891232 1.015981
-0.466975 -0.69472557 0.78613561
-0.019588711 -0.6422677 0.9559086
-0.38796639 -0.69618642 0.60938269
-0.53101343 -0.7363441 0.89464432
0.03059027 -0.66494203 0.97919452
-0.1327249 -0.68370092 0.93870872
-0.34059969 -0.70216501 0.52174538
-0.4110404 -0.67808938 0.70650482
-0.46106479 -0.69238842 0.77395451
-0.47869939 -0.72343642 0.76671982
-0.49529871 -0.68397528 0.87442708
-0.4993805 -0.70054001 0.86595672
-0.55037409 -0.68117708 1.011928
-0.38985139 -0.69650048 0.6215151
-0.50110722 -0.69000041 0.87984812
-0.42072919 -0.70481348 0.68830281
-0.4389523 -0.67457759 1.410215
0.035652772 -0.66885448 0.98054129
-0.1155801 -0.59535629 0.92458391
-0.1550144 -0.66633612 0.95568919
-0.2202134 -0.374717 0.98130667
-0.2199062 -0.50645763 0.98381972
-0.3383553 -0.48545909 1.0172811
-0.2652922 -0.40726721 0.98226899
-0.1027241 -0.66174608 0.93127829
-0.055315811 -0.62361062 0.94792151
-0.26092929 -0.3999967 0.97113103
-0.18494681 -0.49746659 0.99559993
-0.03325548 -0.64663517 0.96434742
-0.073463023 -0.65845102 0.90197659
-0.024915989 -0.6685248 0.96856111
-0.1280621 -0.67914587 0.93857992
-0.34491381 -0.49765781 1.029153
-0.0131604 -0.6515308 0.96696472
-0.1419944 -0.67902201 0.92854792
0.065245822 -0.65698123 0.93381453
-0.066022702 -0.67330772 0.90325242
-0.1360203 -0.47445241 0.9748593
0.072530292 -0.668033 0.93060911
0.068871349 -0.39834559 1.004776
0.071658142 -0.3911531 1.015726
0.01664459 -0.67949748 0.95880651
0.2168895 -0.60805422 0.94934762
0.14308649 -0.38774329 1.023891
0.103792 -0.40617201 0.97271812
-0.0001791832 -0.66263843 0.97366887
-0.2243768 -0.67318022 1.512991
-0.22385401 -0.41528121 0.97140038
0.074581072 -0.40390339 1.02732
0.167593 -0.39117929 1.089155
0.058377139 -0.69379443 0.9827776
0.1959005 -0.393962 0.97885621
0.083644882 -0.3979519 1.025828
-0.055675849 -0.68471467 0.93743598
0.1859791 -0.39733371 1.093004
0.1405412 -0.3903265 1.024615
0.095544919 -0.38359091 1.016638
0.1223483 -0.67104578 0.92694843
-0.2673201 -0.33858389 1.039171
-0.2559801 -0.32294729 1.08557
-0.035014529 -0.60372859 0.94561678
-0.098932981 -0.66933179 0.92529088
-0.048732068 -0.53830302 0.92965353
-0.2349288 -0.33398369 1.084003
-0.27644119 -0.32601219 1.089278
-0.2593959 -0.3264184 1.006969
0.1055507 -0.39965019 0.97408658
-0.276723 -0.32964921 1.0079319
-0.2801072 -0.3217589 1.091578
0.22410379 -0.42835861 1.037316
0.095035687 -0.6723485 0.89906502
0.178817 -0.3838436 1.082291
-0.34712961 -0.71162349 0.4079625
0.17938679 -0.66208941 0.9583745
0.1595553 -0.66836822 0.94157672
0.1367092 -0.68385679 0.92313361
-0.3233296 -0.70328993 0.4268322
0.4068085 -0.6586237 0.88615412
0.229908 -0.4266434 1.031577
-0.27126539 -0.31851929 1.013361
0.043682531 -0.3873584 1.016453
0.21869931 -0.42127171 1.041523
0.1631826 -0.37956351 1.084721
0.187775 -0.39739579 1.109982
0.1711728 -0.3952364 1.1175981
-0.26784679 -0.32241061 1.014896
-0.26026279 -0.31786811 1.102917
-0.74746162 -0.6913749 1.260012
-0.27303749 -0.47729859 1.1207761
-0.2084734 -0.45933819 1.109267
0.17694721 -0.38084209 1.050595
0.1741726 -0.386839 0.98496473
0.19633371 -0.40002519 0.98182708
-0.25756869 -0.33814219 1.016988
-0.2105632 -0.45402449 1.10901
-0.2132742 -0.48891219 1.102537
0.2053161 -0.4139885 1.119766
0.1559194 -0.41977251 1.1494811
0.2058021 -0.4473848 1.131632
0.2188229 -0.43164799 1.057924
0.2453115 -0.43407649 1.04787
0.0153728 -0.40779069 1.11921
0.23907401 -0.44794199 1.066017
0.1962292 -0.41619861 1.133418
0.1398356 -0.37918651 1.085078
-0.2674931 -0.34078681 1.01617
0.080537617 -0.39993471 1.116109
-0.2497406 -0.35937941 1.1011291
0.25974959 -0.44853139 1.043077
-0.2774775 -0.3327283 1.0811141
-0.256161 -0.5343082 1.049414
0.23435821 -0.47152871 0.96511942
0.24369051 -0.4652316 0.98331541
0.27685541 -0.63199788 1.033175
0.26591641 -0.61215329 1.033566
0.25531811 -0.5901863 1.035732
0.078510262 -0.66134328 1.089911
0.077643573 -0.66768891 1.080976
-0.072610088 -0.68054378 1.062313
-0.046252739 -0.67342001 1.043031
-0.1246702 -0.45222241 1.13463
0.2200954 -0.41666791 1.1306781
0.18535399 -0.68495739 1.006431
-0.23055831 -0.32105339 1.016732
0.19241311 -0.3930701 1.106733
0.25787121 -0.4387646 1.0353841
0.17348319 -0.39196479 1.077566
0.23270141 -0.4214001 1.033443
0.18409079 -0.66436237 1.115278
0.16918071 -0.4334344 1.146135
0.094213814 -0.42217669 1.125001
0.31656781 -0.56252551 1.007987
-0.26708591 -0.67366397 0.47715831
0.218648 -0.59024358 1.055464
0.3526516 -0.64110309 1.0548199
0.1704178 -0.66948777 1.115306
0.24896391 -0.41677731 1.043648
0.24207491 -0.4007639 1.054891
0.1949908 -0.3727887 1.1082439
0.1647442 -0.38981369 1.072065
0.332634 -0.64616501 0.93699592
0.25616789 -0.4226445 1.050002
0.2581051 -0.4433178 1.062904
0.30518249 -0.62699598 1.079259
-0.26937079 -0.3224946 1.0992351
-0.2587378 -0.3302789 1.092407
0.20416109 -0.40206599 0.97806507
0.1817683 -0.39423251 0.98482847
-0.27334231 -0.3221533 1.0169131
0.28682429 -0.66660058 0.9676469
0.064450383 -0.38389501 1.020082
0.18640409 -0.66913062 0.97865748
-0.27083459 -0.32912141 1.016844
0.238389 -0.43463001 1.016179
0.23282801 -0.66727138 0.97710228
0.1906953 -0.3969062 0.97678709
0.1563693 -0.66571021 0.94447309
0.2425525 -0.42676219 1.026744
0.2656388 -0.46636289 1.0121239
0.1630687 -0.67032719 0.96624768
-0.27979261 -0.31806669 1.06116
0.036995169 -0.85826713 0.56076151
0.1624559 -0.85715878 0.60576528
0.4409 -0.66638631 0.970842
0.50400633 -0.64319688 0.89032441
0.26435211 -0.70281148 0.64991748
0.1574571 -0.66845542 0.92885119
0.19171961 -0.55135351 0.88693488
0.47026941 -0.67471027 0.81624627
0.17590789 -0.84784561 0.59421182
0.22101679 -0.84427881 0.63814771
0.5198971 -0.65091401 0.9028855
0.47797361 -0.64005601 0.90003431
0.52333438 -0.64469743 0.88748157
0.32530019 -0.70868462 0.67470038
-0.26311371 -0.34999049 1.078042
0.038026251 -0.68336868 0.56525213
0.1994507 -0.65921712 0.9995814
0.1443257 -0.74223822 0.6216749
0.1951199 -0.61492431 0.97799218
0.32558179 -0.74971801 0.67946881
0.53469712 -0.66753107 0.90697318
0.52632099 -0.6521678 0.88372278
0.408694 -0.67334282 0.87335902
0.066535793 -0.6925391 0.5657894
0.1696405 -0.80927241 0.60475159
0.075452313 -0.68446672 0.57525611
0.37056071 -0.65518481 0.9936496
0.53398663 -0.6511544 0.85759598
-0.1347241 -0.66178602 0.9373917
0.22378241 -0.668562 1.011385
0.5158323 -0.66800278 0.8426913
0.26474509 -0.78358382 0.63372391
0.41520169 -0.67424202 0.87322921
0.27222541 -0.7073226 0.65546101
0.48064271 -0.67221773 0.83268309
0.1619859 -0.72034132 0.60101128
0.20886581 -0.78785908 0.61640233
0.28712139 -0.81251192 0.65345228
0.51063639 -0.67058092 0.83685899
0.26405889 -0.73818159 0.65420377
0.2981849 -0.61397618 1.0031199
0.1715554 -0.84252173 0.57201141
0.25803921 -0.43401739 1.040432
0.27425179 -0.54873812 0.99630767
0.24770629 -0.43390039 1.058156
0.30026239 -0.57155079 1.000331
0.4323079 -0.67285442 0.85478753
0.1332632 -0.79159558 0.58063978
0.152688 -0.74007279 0.59467542
0.1546298 -0.78757137 0.59556818
0.19549841 -0.66531599 1.018796
0.2646693 -0.81503272 0.64028251
0.2564919 -0.71638668 0.64695138
0.2062296 -0.80631918 0.61961049
0.33080709 -0.62219721 0.98336083
0.3970733 -0.65587699 0.99856281
0.3599838 -0.71349949 0.68576008
0.54000962 -0.66949332 0.93245453
0.399535 -0.65591252 0.90688848
-0.61120021 -0.69578451 1.104808
0.02471615 -0.8405273 0.56394392
0.1154449 -0.7865386 0.57089078
0.1658287 -0.81509447 0.5912894
0.030929931 -0.72394031 0.55221838
0.35143471 -0.63726491 0.99682778
0.15644661 -0.70876122 0.60120082
0.54590142 -0.6689027 0.89413249
0.47565451 -0.64336771 0.88685417
0.29499641 -0.73169321 0.65871161
0.1794368 -0.76866442 0.60273379
0.53577387 -0.66410607 0.95028162
0.26682311 -0.68024403 0.65083307
-0.080147289 -0.64608783 0.96046633
0.5533067 -0.67304212 0.8852371
0.60432988 -0.66437447 1.018487
0.34430391 -0.66821659 0.91167867
0.22345831 -0.4693667 0.99324077
0.1773278 -0.38864729 1.091554
0.37303379 -0.6400606 0.99087751
0.30588409 -0.52211362 1.0361381
0.5407396 -0.66832858 0.93063742
0.33671951 -0.63206643 0.98825109
-0.034155808 -0.85302711 0.52343559
0.1310439 -0.84513849 0.57103848
-0.056072131 -0.66973841 0.98175472
-0.05696284 -0.83037472 0.50640023
-0.038258199 -0.8013103 0.53054237
-0.098447479 -0.66785789 0.95023519
-0.020668 -0.7823149 0.52916539
0.074462108 -0.6771158 0.58008927
0.2480111 -0.75647467 0.63704443
-0.072346792 -0.72490209 0.5138157
0.23290171 -0.80925351 0.63298351
0.19131079 -0.69573581 0.61844391
0.47168031 -0.69742149 0.72587681
0.33101171 -0.63484418 0.97343308
-0.059284601 -0.62119251 0.95337611
0.28267619 -0.74768329 0.65486169
0.50695229 -0.67105532 0.82759088
-0.02578596 -0.52472472 0.93574768
0.1249024 -0.69441372 0.597278
0.2557559 -0.75983638 0.62918222
0.099249497 -0.6555866 0.93187559
0.2557888 -0.50785881 1.001899
0.1632672 -0.84431958 0.57715058
0.26081681 -0.84573972 0.63107717
0.1569466 -0.82740128 0.58164918
-0.09208262 -0.71754807 0.4976908
0.3802563 -0.77161801 0.68376678
0.18324371 -0.39539361 1.075498
0.2500726 -0.4797374 0.99074972
-0.13647459 -0.5426662 0.94331408
0.18546779 -0.69366258 0.63302618
0.32381049 -0.66287577 0.93329328
0.2767702 -0.5104534 1.003386
0.445344 -0.63894272 0.88058013
0.35322511 -0.68224502 0.68913978
-0.0023377221 -0.51201499 0.92003101
0.140664 -0.41076469 0.93235278
0.1522574 -0.68834072 1.074429
-0.068394728 -0.78964561 0.50851768
-0.1215693 -0.62272263 0.94192261
0.3597039 -0.65317988 0.93424928
0.40200359 -0.70080757 0.69965351
0.38916191 -0.69710308 0.69706762
0.1823235 -0.69204372 0.62415463
0.36305061 -0.72479641 0.68290758
-0.05226317 -0.73912948 0.5111565
0.38800731 -0.72657537 0.68922693
0.3042427 -0.81907147 0.65219438
0.21615399 -0.77307677 0.61535662
0.33664501 -0.64676291 0.95529509
0.1279844 -0.73811841 0.57791829
-0.2355759 -0.50204909 1.012973
0.085140496 -0.66366172 0.99049038
0.073811673 -0.63898122 1.010877
-0.2336321 -0.51493227 1.015939
0.2108627 -0.60204172 0.95165253
-0.1195512 -0.65362781 0.93544072
-0.4609108 -0.68870032 0.73685551
-0.47727591 -0.67835599 0.79716229
-0.23850191 -0.41096291 0.98154682
-0.26289901 -0.33462861 1.065388
0.2055189 -0.40893981 1.025962
0.086297303 -0.6274398 1.02992
-0.50013387 -0.68946552 0.81636578
-0.50774181 -0.73718488 0.81110162
-0.49919549 -0.67462492 0.89127803
-0.50257909 -0.67687559 0.86231828
-0.48878241 -0.69388813 0.79192042
-0.17235111 -0.59687132 1.102597
-0.51244831 -0.69560522 0.83604991
-0.43868989 -0.68508798 0.72534299
0.086103119 -0.64102352 1.0323189
-0.50283819 -0.75821418 0.81206417
