# .PCD v0.7 - Point Cloud Data file format
VERSION 0.7
FIELDS x y z normal_x normal_y normal_z curvature
SIZE 4 4 4 4 4 4 4
TYPE F F F F F F F
COUNT 1 1 1 1 1 1 1
WIDTH 685
HEIGHT 1
VIEWPOINT 0 0 0 1 0 0 0
POINTS 685
DATA ascii
0.036978252 -0.13701396 0.81354523 -0.0037383426 0.99981463 0.01888608 0
-0.052827109 -0.13758455 0.78652531 0.035157003 0.99932462 0.010697336 0.0017355529
-0.073880836 -0.13751675 0.7765671 nan nan nan nan
-0.17327884 -0.14729746 0.7453658 -0.20157956 0.97810084 0.051812172 0.00078287185
-0.0049002366 -0.13814525 0.82002765 -0.039905865 0.99917597 0.00740259 2.9959459e-05
-0.0012403338 -0.13754974 0.7905879 -0.021768155 0.99976099 -0.0020481381 0.0010285758
-0.1563668 -0.14300738 0.59562981 0.12763602 0.9914847 0.025825383 8.6649059e-05
-0.13551913 -0.14136967 0.70568722 -0.15455262 0.98729646 -0.036868528 0.00020738959
-0.16077419 -0.14239675 0.59323007 0.12763602 0.9914847 0.025825383 8.6649059e-05
-0.11613628 -0.13899763 0.60839427 -0.77928835 -0.50182545 -0.37534103 0.00026840568
-0.16605359 -0.14431737 0.61773622 -0.14839157 0.97762769 0.149077 0.015305616
-0.064454623 -0.13861175 0.65120882 -0.014834232 0.99980479 -0.013048766 0.00034172926
0.0031302767 -0.13993059 0.64334869 0.033289287 0.99943435 -0.0047796732 0.0001160757
-0.14056116 -0.14275202 0.5873614 -0.093750201 0.97027618 -0.22310343 0.00040219998
-0.061430976 -0.13943818 0.61803311 0.0050193081 0.99989402 -0.013666839 0
-0.092636749 -0.13902283 0.59976608 0.0089769 0.99746394 -0.070605598 0.0002128812
0.0078496439 -0.1397742 0.66440308 0.010449966 0.99988699 -0.010801105 5.3124455e-05
-0.08949662 -0.13905895 0.59917259 0.0092255734 0.99660116 -0.081859797 2.2735378e-05
0.053445749 -0.140276 0.65001398 nan nan nan nan
-0.12373128 -0.14378364 0.57483906 -0.13421491 0.96416748 -0.22883973 0.00013406282
0.048682991 -0.14334586 0.87388295 nan nan nan nan
-0.04853287 -0.13944708 0.62775415 0.0018283151 0.99936712 -0.035525631 8.7903813e-05
0.12489679 -0.13960992 0.73031086 0.075420484 0.98781383 -0.13614504 0.00044229277
0.20309201 -0.309257 0.71613342 -0.096360326 -0.99148613 -0.087578148 0.0027615218
0.045445237 -0.36899725 0.93291736 -0.013046861 0.15108797 0.98843426 0
0.10114945 -0.33155677 0.91567791 0.1130604 0.40269661 0.90832418 0
0.15470159 -0.15799345 0.88328236 0.4668225 -0.13450922 0.87406176 0.035276063
0.044652782 -0.13800187 0.75790232 -0.012935239 0.9998402 0.012339198 0.00078876922
0.20180336 -0.30860478 0.69388491 -0.055971716 -0.99111295 -0.12067433 0.0055843079
0.26566187 -0.47408959 0.79200709 0.93499756 0.23978618 0.26130858 0.00042919652
0.24591592 -0.40798098 0.72408336 0.99359322 0.082423158 -0.077323347 0.00011301679
0.22876872 -0.31093633 0.87649828 0.46988219 0.48189452 0.73958659 0.017185133
0.0010164074 -0.38588437 0.93736207 0.04325065 0.15365247 0.98717797 0.0099161267
0.12194008 -0.13915363 0.70626813 -0.065328673 0.97379649 -0.21783608 0.01800734
0.23942319 -0.39765635 0.90304661 nan nan nan nan
-0.013132191 -0.137977 0.78919375 0.013039218 0.99974084 0.01865897 0.0014771944
0.093858615 -0.44669679 0.94629765 -0.105328 -0.5336619 0.83911324 0
0.042020433 -0.35989264 0.93150276 0.069385752 0.18153001 0.98093456 0
0.19116302 -0.16333826 0.86547375 0.27994958 0.1882689 0.94137293 0.00081949157
0.20352526 -0.2882157 0.5151602 0.96634877 0.24535951 -0.077257656 0.00063374406
0.047877479 -0.13950561 0.83857185 0.0097772507 0.99476457 0.10172513 6.3322259e-05
0.21158656 -0.30536398 0.54895943 0.93628275 0.29235849 -0.19468251 0
0.14269535 -0.35320723 0.92240423 nan nan nan nan
0.22851041 -0.32880691 0.79794657 0.84035784 0.49426275 -0.22249258 0
0.20653151 -0.15502785 0.78964746 0.50786155 0.73847252 0.44354832 0.00034357075
-0.1663187 -0.14829278 0.57698596 -0.10504716 0.98132956 0.16111287 0.0053554229
0.13495259 -0.14494076 0.55989385 nan nan nan nan
0.22331887 -0.32206571 0.68603396 0.5585534 0.76030803 -0.33158669 0
0.24746235 -0.37191805 0.80864632 0.9808231 0.18814304 -0.050873104 0.0024402114
-0.025034921 -0.13804069 0.72433007 -0.0018094198 0.99984705 0.017393151 0.00027513417
0.22564223 -0.32860082 0.77455097 0.85699606 0.51425171 0.033210434 0.0013770326
0.20212591 -0.30898434 0.7070539 -0.11005285 -0.99179465 0.065051772 0.0040418124
0.25516272 -0.45699346 0.74156916 0.96506214 0.2553995 -0.058533195 0
0.21513475 -0.3973442 0.91454756 nan nan nan nan
0.24090919 -0.42914534 0.59390962 nan nan nan nan
0.16668861 -0.14692998 0.59241265 0.51404113 0.85770601 -0.010107427 5.2405052e-05
0.18425247 -0.18033974 0.53481615 0.98137635 -0.18876223 -0.035627376 0.005379763
0.21857105 -0.30561137 0.8167671 nan nan nan nan
0.2035252 -0.28785104 0.51894176 0.96361172 0.25802857 -0.069812045 0.00032084502
0.15768376 -0.30177426 0.6674487 nan nan nan nan
0.20650959 -0.15690996 0.79277778 0.50786155 0.73847252 0.44354832 0.00034357075
0.22890258 -0.32649797 0.80481344 0.8727079 0.45547327 -0.17585489 0.0015780808
0.19835804 -0.2477206 0.55313355 nan nan nan nan
0.26326057 -0.4711206 0.79763764 0.84730572 0.5239206 0.087064549 0.00038427999
0.26366135 -0.45926332 0.84162849 0.95368201 0.29730809 -0.045811217 0.011628983
0.22868018 -0.31269133 0.8796407 0.46988219 0.48189452 0.73958659 0.017185133
0.2380738 -0.36896136 0.76063102 nan nan nan nan
0.023083746 -0.46562371 0.95222837 0.05803683 0.22054426 0.97364873 0.00055642438
0.15381593 -0.15767264 0.88702744 0.43833885 -0.1919076 0.87808347 0.046861485
0.093775235 -0.33732188 0.91978478 nan nan nan nan
0.22521161 -0.28177366 0.87988734 0.01039994 -0.23765388 0.97129416 0.00028191949
0.18576364 -0.16407536 0.557392 0.88473296 0.42182872 -0.1982628 0.016714491
0.19416478 -0.28181264 0.79952675 nan nan nan nan
0.24053091 -0.42486656 0.58184773 nan nan nan nan
0.2487237 -0.37933949 0.81154281 0.979976 0.1845406 -0.074777901 0.0012388056
0.22796303 -0.34253418 0.73695236 nan nan nan nan
0.27192655 -0.49012277 0.77403009 0.86534607 0.49116486 -0.099665962 0.0026033798
0.25354111 -0.44617581 0.7537744 0.9838317 0.17508461 -0.037693046 0.00026213325
0.2218069 -0.34597531 0.52562463 nan nan nan nan
0.26809856 -0.48414454 0.77346873 0.86534607 0.49116486 -0.099665962 0.0026033798
0.24485067 -0.43955651 0.62392265 0.97563905 0.21442884 -0.046353959 3.922959e-06
0.23297571 -0.48611662 0.47217003 0.66701806 0.13231392 -0.73319834 0.00010539879
0.24495821 -0.48293757 0.51708525 nan nan nan nan
0.2264113 -0.34038693 0.61355317 0.92979872 0.36805895 0.0026330575 0.0022272347
0.070331052 -0.31326512 0.90258849 nan nan nan nan
0.18721244 -0.18732184 0.56557459 nan nan nan nan
0.24856058 -0.41503435 0.74701977 nan nan nan nan
0.20762627 -0.16346878 0.64709115 nan nan nan nan
-0.13225783 -0.14200166 0.58789295 -0.10490177 0.97428936 -0.19938888 0.00081661093
0.081111275 -0.36189777 0.93163484 0.37352023 0.90651906 0.19673795 0
0.19326192 -0.30876198 0.68972105 -0.043811761 -0.99415475 0.098675393 0.0002764769
0.16958313 -0.1440801 0.82839495 nan nan nan nan
0.18814591 -0.18903682 0.55312771 nan nan nan nan
0.21608716 -0.22402136 0.8855477 0.98652387 0.027882786 0.16122442 0.00027633528
0.1396835 -0.15972044 0.88935423 0.2728067 0.405013 0.87266314 0.0022745486
0.098415911 -0.15014295 0.90413207 0.16029301 0.95884317 0.23436275 0.00022555016
0.098684818 -0.14790007 0.89171278 0.10746258 0.97178978 0.2099438 0.0029973635
0.10453648 -0.14986502 0.8988378 0.10709892 0.97189981 0.20962034 0.0019191657
0.096630685 -0.14828604 0.89779228 0.15015842 0.97243232 0.17840375 0.0010623854
0.012483557 -0.21852277 0.79259574 nan nan nan nan
0.068934284 -0.14927313 0.89735967 nan nan nan nan
0.10686576 -0.14880744 0.89354819 0.035468902 0.9651469 0.2592943 0.0013069654
0.015249558 -0.20952433 0.78657323 nan nan nan nan
0.076436833 -0.28092524 0.82522684 nan nan nan nan
0.11171458 -0.24232751 0.84575695 0.88319397 0.032671377 -0.4678686 0
0.10299482 -0.20776537 0.83076078 nan nan nan nan
0.11222053 -0.23024075 0.8463437 nan nan nan nan
0.10982618 -0.24081612 0.84226036 0.88319397 0.032671377 -0.4678686 0
-0.10833652 -0.15878786 0.89241546 0.01472747 -0.76074213 0.64888722 0.010957253
0.0099067381 -0.14604743 0.89827013 -0.042342782 0.97114819 0.23468748 0.0018025648
0.13604063 -0.29777667 0.87452352 nan nan nan nan
-0.018322922 -0.14582126 0.89844412 -0.068988368 0.98098606 0.18140285 0.00010233431
-0.06937813 -0.14372748 0.89244658 -0.56866676 0.57023507 0.59283221 0
-0.098569401 -0.23297517 0.87763751 0.69272351 0.04860973 0.71956307 0.018043485
-0.09216737 -0.18929511 0.85299301 nan nan nan nan
-0.050293077 -0.27005979 0.8188228 nan nan nan nan
-0.10034464 -0.20522222 0.87800002 0.68753785 -0.090140209 0.72053212 0
0.11294898 -0.29903841 0.88954103 nan nan nan nan
0.013308195 -0.28651923 0.81062019 nan nan nan nan
-0.10615642 -0.23427592 0.88223058 0.48960477 -0.6965133 0.5245536 0.0028204913
-0.067649111 -0.21905826 0.85018039 nan nan nan nan
-0.10271639 -0.21803558 0.87921137 0.73244941 -0.08813265 0.67509294 0
-0.080587968 -0.21831201 0.84681928 nan nan nan nan
0.023306323 -0.32032791 0.92183006 nan nan nan nan
-0.0035078209 -0.34760559 0.92275327 0.15043664 0.78312564 0.6033929 0
0.10340209 -0.32952371 0.91458797 0.1133284 0.37654826 0.91943896 0.0076229563
-0.076061949 -0.33254647 0.92134976 0.1304332 0.61250693 0.77962965 0.00092340494
-0.058885518 -0.33941483 0.92350584 0.35055682 0.34639704 0.87012589 0.0080461521
0.12457057 -0.38134477 0.93432444 nan nan nan nan
0.14805727 -0.41343829 0.94059676 nan nan nan nan
-0.096763588 -0.34924683 0.93638611 -0.034551937 0.23820418 0.97060031 0.013888147
0.060592797 -0.36428073 0.93236494 -0.030404897 0.16598459 0.98565948 4.3127209e-05
-0.1015868 -0.34959415 0.93562335 -0.034551937 0.23820418 0.97060031 0.013888147
0.00070113747 -0.38280526 0.9370144 0.04325065 0.15365247 0.98717797 0.0099161267
0.083271094 -0.36267483 0.93182391 -0.23619418 -0.89269137 0.38381556 0
-0.15247923 -0.33204529 0.92991161 -0.14918834 0.26942515 0.95139527 0
-0.049850926 -0.43250588 0.94997996 0.11858366 0.2211239 0.96800941 0.0014613166
0.0056124078 -0.4124614 0.9419567 0.046304237 0.17809959 0.98292243 0.0013695775
-0.082123488 -0.38238505 0.94275242 nan nan nan nan
0.084431529 -0.45623443 0.94863528 0.96482456 -0.037302479 -0.26023492 0.0023640504
0.14635272 -0.46382394 0.94429266 nan nan nan nan
-0.067678921 -0.40106627 0.94486195 0.060902484 0.18582986 0.98069268 0
-0.0520362 -0.42841119 0.94921416 0.10152139 0.22654489 0.9686954 0
0.013373805 -0.45644709 0.95053446 -0.087315209 0.36186421 0.92813271 0.0010058657
0.11855935 -0.36249676 0.9289757 0.3984867 -0.89694214 0.19158053 0
0.10066438 -0.34468967 0.92268717 nan nan nan nan
-0.1401998 -0.34357208 0.93529898 -0.17112799 0.19958222 0.96482235 0.0077210162
-0.12258807 -0.35488653 0.93799782 -0.046333376 0.21010062 0.97658128 0
0.090796389 -0.44502267 0.94680661 0.092888571 0.083764285 0.99214679 0.0031428349
0.096377291 -0.44659948 0.94650155 -0.105328 -0.5336619 0.83911324 0
-0.07885918 -0.39886382 0.94494492 0.047533199 0.1486765 0.98774278 0
0.16242553 -0.41573206 0.93909532 nan nan nan nan
-0.12149213 -0.35982132 0.93924022 -0.026938558 0.23493604 0.97163743 0
0.067443177 -0.44607633 0.9468376 nan nan nan nan
0.15635444 -0.4013004 0.93623191 nan nan nan nan
0.024542274 -0.45467249 0.9495545 0.019332247 0.19502935 0.98060691 0.0020165807
-0.043911554 -0.34158447 0.92311281 -0.058189724 -0.18685237 0.98066306 0.012924375
0.040456805 -0.36018708 0.93153232 -0.0081092697 -0.060027406 0.99816376 0
0.17357852 -0.4131985 0.9388392 0.18806101 0.17801885 0.96588939 0.00090726727
0.17174141 -0.41000187 0.93813354 0.1976392 0.33753297 0.9203316 0.0058981674
0.1699173 -0.43067122 0.94268787 -0.34795275 0.20146047 0.91561049 0
0.054430839 -0.39687887 0.93809819 nan nan nan nan
-0.010501338 -0.40126655 0.94067252 nan nan nan nan
-0.088296242 -0.19953535 0.87217188 nan nan nan nan
-0.021000247 -0.34152815 0.92234683 -0.39162397 -0.18806434 0.90070111 0.02096343
-0.086746365 -0.23588149 0.86517829 nan nan nan nan
-0.063871071 -0.324132 0.91143525 nan nan nan nan
-0.041062493 -0.34494138 0.92182356 -0.058189724 -0.18685237 0.98066306 0.012924375
0.13097179 -0.30358309 0.8948642 nan nan nan nan
-0.11580277 -0.41434756 0.94960713 0.041545779 0.192395 0.9804377 0.007927021
0.011707892 -0.2978934 0.84695649 nan nan nan nan
0.11617342 -0.20147124 0.84694386 nan nan nan nan
-0.011071897 -0.3505719 0.92855221 0.021714948 0.73359126 0.67924392 0.0082593709
0.051477045 -0.40681741 0.93980199 -0.029057499 0.14249414 0.98936903 0.0028924118
0.062256284 -0.39628649 0.93760872 nan nan nan nan
-0.0002028833 -0.27343622 0.80205494 0.35131678 -0.1708748 0.92053151 0.0047233114
0.060628373 -0.40824017 0.94027042 -0.029057499 0.14249414 0.98936903 0.0028924118
-0.15568319 -0.2355043 0.89936632 0.018766718 0.077014744 0.99685335 0.024189724
-0.1429908 -0.32850751 0.93143433 -0.17652002 0.19727412 0.96432549 0.0071234098
-0.1587182 -0.38348421 0.9394995 nan nan nan nan
-0.12198285 -0.34096971 0.93537802 0.011996573 0.14644483 0.98914605 0
-0.14168286 -0.34249681 0.93552458 -0.23253597 0.21187764 0.94922864 0.0055135842
0.13228169 -0.3890267 0.93574369 nan nan nan nan
-0.14015199 -0.23177607 0.89972419 -0.86592573 0.49607894 0.063860968 0.00037482852
0.13051985 -0.22028381 0.85184568 nan nan nan nan
-0.16037796 -0.17525144 0.88824314 -0.52787471 0.028476823 0.84884471 0.029317129
-0.082861178 -0.23659293 0.8721199 nan nan nan nan
-0.19961381 -0.35362753 0.91209507 nan nan nan nan
-0.12167345 -0.17859393 0.89200228 nan nan nan nan
0.11172387 -0.2473792 0.84539258 0.88319397 0.032671377 -0.4678686 0
0.12135591 -0.36143985 0.92851281 0.3984867 -0.89694214 0.19158053 0
0.0026873788 -0.14995687 0.90724629 nan nan nan nan
0.057555158 -0.14233989 0.86520547 0.020468459 0.99490374 0.098729767 1.4582528e-05
0.10534839 -0.34429413 0.92241967 nan nan nan nan
0.16879946 -0.42646924 0.94135576 -0.3432543 0.20160374 0.91735071 0
-0.070962399 -0.40145323 0.94475883 0.05085858 0.15429996 0.9867143 2.2232447e-05
-0.17566539 -0.26200229 0.90214825 -0.50245291 0.24486874 0.82920468 0
-0.00030626662 -0.29469734 0.83040309 nan nan nan nan
-0.18454345 -0.29568732 0.90775442 -0.61226499 0.28399727 0.73788691 0
0.033286318 -0.13987093 0.84640694 0.034205243 0.99493659 0.094504207 2.0969659e-05
-0.13582183 -0.43892288 0.95702469 -0.44419539 0.14252594 0.88452065 0.0054999748
0.080209687 -0.36201975 0.93166435 0.37352023 0.90651906 0.19673795 0
0.017015189 -0.44368148 0.94746017 0.023887856 0.19374819 0.98076046 0.0023164663
-0.11171117 -0.41349339 0.94923985 0.049274001 0.18526301 0.98145282 0
-0.16901989 -0.25360218 0.90544552 -0.17831683 0.13377121 0.9748376 0.0092701055
-0.056790605 -0.30722952 0.89704621 nan nan nan nan
0.047966089 -0.37242728 0.93365848 -0.012400603 0.18329202 0.98298025 0.0045162588
0.083892316 -0.45184875 0.94795072 0.013952904 0.1519933 0.98828304 0
-0.13739488 -0.15750881 0.89815414 -0.060179979 0.85513663 0.51489776 0.044932306
0.1338855 -0.34227499 0.91838497 nan nan nan nan
-0.11279365 -0.22548558 0.88655615 nan nan nan nan
0.082551718 -0.31428078 0.90697354 nan nan nan nan
-0.070543095 -0.27670577 0.8699618 nan nan nan nan
-0.12888518 -0.15882242 0.89880246 -0.0046640453 0.99006826 0.14051013 0.10057428
-0.15555014 -0.17169787 0.89253509 -0.43563399 0.12750362 0.89104766 0.057333242
-0.055550911 -0.29411617 0.87905461 0.72123724 0.36284944 0.59004831 0.0018211833
0.1421963 -0.15443613 0.88613874 0.2728067 0.405013 0.87266314 0.0022745486
0.053595215 -0.37114698 0.93331009 -0.015748536 0.16180949 0.98669636 0
-0.078934118 -0.14695925 0.8759973 -0.48406419 0.84637004 0.22212519 0
-0.12636843 -0.34113199 0.93543017 0.0041084234 0.15371203 0.98810714 0
0.014191624 -0.28848648 0.81325257 nan nan nan nan
0.090053566 -0.34080523 0.92368746 nan nan nan nan
-0.17469791 -0.15387532 0.55895501 0.022691397 0.99319702 0.11421352 0.0060949591
0.00034228701 -0.13979025 0.64890575 0.036837824 0.99928892 -0.0080378996 0.00010885292
-0.17609341 -0.30323318 0.91982776 -0.58792335 0.45546284 0.66850555 0.077728473
-0.036157236 -0.38890421 0.94015312 nan nan nan nan
-0.15632577 -0.14768587 0.57053399 -0.32897684 0.92698622 -0.18019636 0.003015134
-0.054047406 -0.13855235 0.8160944 -0.01108891 0.99793518 0.063265152 4.1738462e-05
0.078636065 -0.14728707 0.88855141 nan nan nan nan
0.22333772 -0.43682799 0.92142963 nan nan nan nan
0.19123669 -0.24874993 0.87373483 nan nan nan nan
0.0012859718 -0.13780938 0.78266925 nan nan nan nan
-0.016859258 -0.1380716 0.80955297 0.01204206 0.99881214 0.047215205 0.00034271399
0.23134677 -0.30747825 0.87417454 0.94912779 -0.1813135 0.25745255 0.0061979345
-0.032110102 -0.13765764 0.79654741 -0.0055345842 0.9990834 0.042446472 0.0018349253
-0.090391465 -0.13768092 0.71617991 -9.3124137e-05 0.99990052 0.014103746 7.069789e-05
0.02180367 -0.14010003 0.64279896 0.0097429166 0.99993777 -0.005423035 0.00016890962
-0.13287307 -0.14469215 0.57574332 -0.11450677 0.97839141 -0.17215821 0
0.16156387 -0.14512317 0.85028923 0.18901986 0.86409187 -0.46649408 0.00131726
0.050212596 -0.1413381 0.59777391 0.042858195 0.99884385 -0.021775667 0.00016365475
0.078800924 -0.13994256 0.63461083 -0.027208984 0.99944746 -0.019091049 0.0014490756
-0.11317967 -0.14373276 0.56792223 nan nan nan nan
-0.031066259 -0.13766415 0.80911613 -0.038608614 0.99912518 -0.016072037 0.0022090098
0.16540429 -0.14345977 0.78079933 0.19961983 0.96683717 0.15930404 0.0046394998
0.16862394 -0.14276057 0.76651669 0.089195952 0.99463987 -0.052302606 0
0.16763505 -0.14229454 0.77288097 0.58504927 -0.80452305 0.10227469 0.0018527607
0.037847742 -0.13752371 0.77594137 -0.0038125999 0.99947166 0.032277092 0.0018871517
-0.039598882 -0.13980106 0.6185813 0.013512738 0.99974495 -0.018091386 0.00055123033
0.0034197413 -0.14151089 0.58567864 0.081088372 0.99382943 -0.075682282 0
0.090197034 -0.13859613 0.72487283 nan nan nan nan
-0.080365919 -0.13929629 0.59787875 nan nan nan nan
-0.069831572 -0.13987191 0.58528417 nan nan nan nan
-0.14271909 -0.32912928 0.93081391 -0.17652002 0.19727412 0.96432549 0.0071234098
-0.008972696 -0.14451981 0.89200866 -0.016778667 0.99093121 0.13331889 0.00075578451
-0.0024740261 -0.13801028 0.81271714 0.091736317 0.99570864 0.012196628 0.0019498098
0.15940785 -0.14844598 0.56264365 0.14363672 0.96069455 -0.23755923 0.012897028
-0.015225622 -0.13886711 0.68268681 0.034924831 0.99928415 -0.014540632 0.00015444688
0.0065838285 -0.14133684 0.59564912 nan nan nan nan
0.20185599 -0.15872025 0.84702289 0.59866768 -0.59626973 0.53484517 0
-0.051837854 -0.13786794 0.72827584 nan nan nan nan
-0.1506995 -0.14256988 0.61369252 nan nan nan nan
-0.11416896 -0.13809794 0.70006502 nan nan nan nan
-0.040608738 -0.14497337 0.88248938 -0.10120551 0.98771018 0.11910494 0.012180761
-0.032134883 -0.14425264 0.87273818 nan nan nan nan
0.22567286 -0.26684248 0.88919961 nan nan nan nan
0.21591547 -0.34895211 0.90528363 -0.15627144 -0.11794844 0.98064643 4.5011166e-05
0.12429231 -0.14159918 0.59526801 0.35489815 0.88904464 0.28921783 0
0.045540024 -0.13819987 0.82571363 0.026631361 0.99453223 0.1009776 0.00034074034
0.16586399 -0.14651021 0.58277076 0.51640666 0.85631692 -0.0067519667 0
0.15405898 -0.14426938 0.5834952 0.10683729 0.99135596 -0.076152481 0.0037193601
-0.046974216 -0.14562841 0.88169575 -0.11538885 0.99331909 0.0015937918 0.0099945003
0.083238341 -0.14022784 0.83125633 -0.0374192 0.99921209 0.013226032 0
-0.017600099 -0.13739671 0.78363675 0.022807511 0.99900043 0.038443387 0.001105731
-0.011879291 -0.13891372 0.67775476 0.054302637 0.99829257 -0.021518815 0.00027566118
0.037952859 -0.13756348 0.77675641 -0.0038125999 0.99947166 0.032277092 0.0018871517
0.061855037 -0.13743818 0.75215042 0.018197846 0.99979579 0.008781191 0.00057750981
0.065948859 -0.13797228 0.7771889 0.26876083 0.92306709 -0.27516332 0.00084977079
-0.017270351 -0.30599445 0.86482644 0.22007447 0.88411409 0.41220078 0.01819724
0.15174919 -0.14699328 0.56303889 0.13238247 0.96387547 -0.23112544 0.012365221
0.13575815 -0.13956405 0.72329199 nan nan nan nan
0.060657885 -0.14167412 0.59700429 0.5056532 0.80809474 0.30215529 0
0.09063369 -0.14011158 0.63687485 -0.0018118774 0.99931848 0.036868848 0.0013313754
-0.012888473 -0.14841598 0.53098857 0.12035023 0.98635119 -0.11237068 0.0021403299
0.04910196 -0.14160931 0.6110782 -0.038659431 0.99922776 -0.0070204707 0.0005990637
-0.0056131664 -0.14783564 0.53930777 nan nan nan nan
0.0909198 -0.1403418 0.62345237 nan nan nan nan
0.11273806 -0.14018121 0.61900508 nan nan nan nan
0.12366244 -0.13867597 0.75817722 -0.084570922 0.99566191 -0.038796518 0.0016988802
0.21968938 -0.23552957 0.87687337 0.99825478 0.05627602 0.017897816 0.005272652
0.19982013 -0.19614741 0.874749 -0.13535777 0.96905339 0.20643112 0
0.20179898 -0.1829031 0.86325854 nan nan nan nan
0.10890498 -0.13920735 0.66580367 nan nan nan nan
-0.027172728 -0.13992152 0.62098271 0.017634878 0.99984199 0.0022373239 3.138394e-06
-0.062920213 -0.13954769 0.60005516 nan nan nan nan
0.016970547 -0.14244041 0.58390045 nan nan nan nan
0.16086797 -0.16077259 0.51605439 0.59620374 0.78895968 0.14860623 0.12137794
0.047144331 -0.13760071 0.74915212 -0.010125628 0.99981678 0.016248185 0.00036836803
0.15507953 -0.14057223 0.77146369 nan nan nan nan
0.0339217 -0.14420667 0.57175153 nan nan nan nan
-0.020415634 -0.14318086 0.56823081 -0.002501816 0.92098171 -0.38959768 0.0020737753
-0.029088655 -0.13834587 0.69632012 0.012990281 0.99908149 -0.040835444 0.00038497176
0.042388767 -0.13782863 0.75247389 -0.0053634699 0.99980515 0.018999558 0.00046159502
0.038095687 -0.14045234 0.63959807 nan nan nan nan
-0.08457081 -0.1397866 0.58449769 -0.03903595 0.99847186 -0.0391187 0
0.19751939 -0.16294587 0.86377734 0.061206307 0.8932417 0.445391 0.00031372876
-0.060580928 -0.13856369 0.65559924 -0.003372988 0.99998015 -0.0053170179 0.0001262805
-0.015968908 -0.14341709 0.88107383 -0.032008596 0.98996389 0.13764764 0
0.0023850843 -0.13844199 0.82933247 -0.012681761 0.99979901 0.015525619 0.0002755165
0.1205805 -0.13888916 0.66469878 nan nan nan nan
-0.13560942 -0.14167301 0.80644882 -0.1527928 0.98306531 0.10117822 6.9216396e-05
-0.077741727 -0.13816945 0.71652561 nan nan nan nan
0.17420892 -0.14672728 0.64712632 0.22492619 0.96913904 -0.10088485 8.1350532e-05
0.22492063 -0.34909123 0.90667617 nan nan nan nan
0.1748385 -0.14330991 0.73758072 nan nan nan nan
0.18128085 -0.15194799 0.58854538 0.56185347 0.81735152 -0.12750387 0.012668576
-0.089913815 -0.13977124 0.81293869 -0.083454221 0.99427879 -0.066671178 0.0014433445
-0.11345138 -0.14032035 0.58636349 -0.19610469 0.30122575 -0.93316984 0.11305672
-0.089922473 -0.14043339 0.80220729 -0.49490899 -0.1182795 0.86085719 0.0038071158
0.0064813979 -0.13922349 0.68711883 0.025831548 0.9996593 0.0037426578 3.6360827e-05
-0.08226946 -0.13803005 0.73926604 0.076636337 0.99594986 -0.047020424 0
0.03824313 -0.14016092 0.84739214 0.035599846 0.99457723 0.097717986 3.3376902e-05
-0.1220772 -0.13919847 0.71800596 -0.093596242 0.99549699 -0.015019267 0.0021191612
-0.00337414 -0.13965154 0.66705686 -0.10045419 0.98950005 -0.10391609 0.00017010915
-0.0016425095 -0.13903609 0.68724251 0.010163283 0.99923962 -0.037639625 0
0.07857272 -0.13820387 0.78066128 -0.044283342 0.99455893 -0.094294578 0.0055335783
9.1296817e-05 -0.13772666 0.79978466 -0.019483069 0.99945509 -0.026644282 0.0011125039
0.026119171 -0.13926347 0.69401813 -0.0068520969 0.99691522 -0.078186557 0.00045655583
-0.034789208 -0.14384688 0.56000841 -0.061516043 0.97940332 -0.1923148 0.00098141958
0.013870071 -0.13836196 0.70808125 0.018338613 0.99896967 -0.041512154 0.00026050265
0.028602177 -0.13735838 0.80220813 0.025021452 0.99883848 -0.041179404 0
0.057468306 -0.1388866 0.83107412 nan nan nan nan
-0.051626671 -0.30438563 0.88965994 0.48072514 0.76663738 0.42564118 0.0073753097
-0.0554871 -0.3451651 0.92358243 0.28503066 0.45221138 0.8451404 0.0082751522
0.1463494 -0.15840764 0.88667536 0.19308978 0.55686611 0.80784684 0.025078041
-0.14981484 -0.37849578 0.94073486 nan nan nan nan
-0.13554297 -0.35697669 0.93823856 0.37407026 0.6369468 0.67406988 0.0044515058
0.16251837 -0.14460549 0.69953185 0.095210291 0.99521238 -0.022075908 0.00013634129
0.16761416 -0.14490741 0.70674068 0.09154886 0.99573654 -0.011297553 8.9287001e-05
0.18022102 -0.41132733 0.93678832 0.1976392 0.33753297 0.9203316 0.0058981674
0.22624034 -0.39104089 0.90947306 nan nan nan nan
0.19556046 -0.19762571 0.87887686 -0.13535777 0.96905339 0.20643112 0
0.026052937 -0.13895658 0.8330614 nan nan nan nan
0.074984826 -0.14257246 0.86484855 nan nan nan nan
-0.047778428 -0.29018313 0.86629021 0.65272808 0.44024163 0.61654949 0.0071983272
0.13306209 -0.29190382 0.86829263 nan nan nan nan
0.034482047 -0.14013822 0.66075695 0.025368189 0.99966842 -0.0044182478 0.00017216685
0.07832931 -0.43674135 0.94541234 nan nan nan nan
0.099130392 -0.13806447 0.80698812 -0.048083037 0.99814832 0.037255351 0.0038040653
-0.15151851 -0.14266506 0.67748576 nan nan nan nan
-0.14746779 -0.35702562 0.93704343 -0.091708094 0.24169102 0.96600986 0.00047007951
-0.031754199 -0.14485072 0.55163169 0.037556868 0.99316466 -0.11051472 0.0010713809
0.098199151 -0.13741829 0.79869205 -0.013698142 0.99960572 0.024508426 0.0022768388
-0.049343031 -0.1382426 0.67902911 -0.048575155 0.99457711 -0.091960944 0.00017012717
0.1700089 -0.30339697 0.89108819 nan nan nan nan
0.1839384 -0.14889865 0.64790416 0.26417658 0.96246582 -0.062211301 0.0006302736
0.0032470652 -0.13822216 0.71603268 0.0044175275 0.99987948 0.014880887 0.00023264917
-0.11313875 -0.41878083 0.95028776 0.05053398 0.17672199 0.98296267 0
0.16328049 -0.14505307 0.62329996 -0.0045862999 0.99847984 -0.054927275 0.0041683526
-0.03619837 -0.39923945 0.94164747 0.11792716 0.14094149 0.98296934 0
-0.13300689 -0.14094041 0.80178857 -0.14736237 0.98631698 0.073913082 0.00015324894
-0.033713952 -0.49166933 0.96524078 nan nan nan nan
0.1791503 -0.14408305 0.74993491 nan nan nan nan
0.18709876 -0.14509057 0.7378813 nan nan nan nan
0.038125556 -0.1373577 0.76850885 -0.14674261 0.98916632 0.0040696356 0.0003982292
0.063326053 -0.49277151 0.96112806 nan nan nan nan
-0.021758227 -0.14417008 0.88550782 -0.037874207 0.98955208 0.1391121 3.5947483e-06
-0.15887031 -0.1446754 0.75622052 nan nan nan nan
0.060415614 -0.14163008 0.8574639 nan nan nan nan
0.20575568 -0.35926974 0.90970671 nan nan nan nan
-0.16545653 -0.14470172 0.77185315 -0.20546043 0.97827929 0.027488474 0.00065695622
-0.12740538 -0.13924278 0.64374971 -0.19841689 0.97872806 0.052174877 0.0071577453
-0.11563381 -0.49522671 0.97232372 nan nan nan nan
-0.052384119 -0.13807082 0.68108517 -0.039732009 0.99831426 -0.042307884 0.00074842572
0.061498545 -0.14314991 0.87253904 -0.058376487 0.98714232 0.14880207 2.620243e-05
-0.045777366 -0.13879327 0.82149851 -0.0066660922 0.99423277 0.10703658 0.0014105454
0.0028536187 -0.49036887 0.96058941 nan nan nan nan
-0.092538163 -0.13805085 0.67939293 nan nan nan nan
-0.17272004 -0.16401531 0.53942835 nan nan nan nan
0.20125724 -0.30217579 0.89020693 nan nan nan nan
-0.09883415 -0.29465705 0.90473974 nan nan nan nan
0.1866554 -0.15585276 0.86561632 0.80635971 0.47865307 0.3473835 0.00046640215
0.20724313 -0.34540665 0.90430057 nan nan nan nan
-0.068317398 -0.40632334 0.94555801 0.08183293 0.1578321 0.98406929 0.0025938398
-0.1453255 -0.15169539 0.87637323 -0.083500661 0.94550925 0.31470606 0.0023766824
-0.10168573 -0.15706667 0.89588445 0.060757622 -0.49608019 0.86614835 0.081972025
-0.016902564 -0.14167432 0.57959658 0.10309958 0.99401289 0.036176261 0.00041828651
-0.085517168 -0.14026724 0.80449945 -0.046833247 0.99675959 -0.065398566 0.0030000375
-0.1020226 -0.1437043 0.85294074 0.079588667 0.98409325 0.15882728 0.00017196039
0.02784895 -0.13863182 0.70725679 nan nan nan nan
-0.12578461 -0.14254533 0.83240342 0.030361021 0.99950665 0.0080508105 0.010213025
-0.1347535 -0.1458828 0.5641703 nan nan nan nan
-0.15491223 -0.15158972 0.86799008 nan nan nan nan
0.044937022 -0.13773243 0.73625392 -0.031879939 0.99940932 -0.01283635 0.00033480037
-0.13839118 -0.15494898 0.8903057 0.052400064 0.87439388 0.48237902 0.08801692
0.056784939 -0.36055663 0.93164027 nan nan nan nan
0.15298891 -0.34481931 0.9159596 nan nan nan nan
0.10616638 -0.3317154 0.91513479 0.1130604 0.40269661 0.90832418 0
0.13565706 -0.29162902 0.8909232 nan nan nan nan
0.014193419 -0.40727606 0.94034374 nan nan nan nan
0.11121737 -0.35234693 0.9255017 nan nan nan nan
0.12505518 -0.3599411 0.92744929 0.41482702 -0.83436632 0.36297563 0
-0.13285939 -0.3584587 0.93860567 0.37407026 0.6369468 0.67406988 0.0044515058
0.15049274 -0.37592387 0.93157816 nan nan nan nan
-0.010725252 -0.15217459 0.52076679 0.013561273 0.91482359 -0.40362599 0
0.14564902 -0.13929215 0.77819353 nan nan nan nan
0.11063956 -0.13797294 0.76903921 0.55366898 0.81159657 0.18644506 0
0.20512488 -0.19603434 0.87767094 -0.13535777 0.96905339 0.20643112 0
0.15786083 -0.30158862 0.89155477 nan nan nan nan
0.17572476 -0.35686079 0.9201557 nan nan nan nan
-0.041565865 -0.13862978 0.81996161 0.019869484 0.99201959 0.12450828 0.0021985567
0.15575181 -0.15222666 0.88370186 0.70277548 -0.1423258 0.69702941 0.037918378
-0.15756425 -0.1953152 0.89524674 -0.45684379 0.29093313 0.84062576 0.02211743
0.17752831 -0.15828353 0.53542805 0.52732062 0.8320502 -0.17212036 0.074708365
0.024756821 -0.42562532 0.94365489 0.029447934 0.18791953 0.9817428 0
-0.042084843 -0.14636622 0.89128923 -0.015700741 0.98705143 0.15963405 0.0031303077
0.16017669 -0.15268861 0.88111222 0.47577021 -0.13650797 0.8689121 9.3426548e-05
-0.12055023 -0.30554137 0.91903424 nan nan nan nan
0.036490683 -0.35821813 0.93157631 -0.0039119916 -0.047741275 0.99885213 0
0.083899781 -0.46353585 0.94935328 nan nan nan nan
0.017524075 -0.13964227 0.66011643 0.012502008 0.99988198 -0.0089248037 0.00021005036
-0.13682395 -0.23975064 0.89409494 0.12887178 0.087781794 0.98776841 0.022169441
0.1607983 -0.14484395 0.62373 -0.0045862999 0.99847984 -0.054927275 0.0041683526
0.079024926 -0.13871758 0.70813888 nan nan nan nan
-0.18817855 -0.50095171 0.96578866 nan nan nan nan
0.014068566 -0.1374294 0.8108573 -0.034199402 0.99847806 0.043266539 7.5661548e-05
-0.1254728 -0.15726404 0.89272141 -0.49542168 0.86864883 -0.0025615408 0.0051675234
-0.097865693 -0.14220564 0.57161516 -0.55809081 0.8206023 -0.12307148 0
-0.16242819 -0.28534231 0.9145385 nan nan nan nan
-0.14223802 -0.23465882 0.89358723 -0.37915963 -0.56748527 0.73088884 0.071472973
0.10016006 -0.14486456 0.88218576 nan nan nan nan
-0.032412633 -0.30916259 0.88275301 nan nan nan nan
-0.044392705 -0.13833752 0.70261043 nan nan nan nan
-0.11078034 -0.1395352 0.77459097 0.026781818 0.99771416 0.062041268 0
-0.092195392 -0.13792346 0.74246579 -0.08621607 0.99598968 0.023903556 0.00062190252
0.024930602 -0.14009224 0.64837539 0.010916267 0.99992138 -0.0061741713 8.8241868e-05
-0.16898212 -0.14654455 0.75481743 -0.16595875 0.98490471 -0.049198441 0.0017873645
-0.013941803 -0.13818645 0.71549308 0.04307225 0.99899524 0.012379125 0
-0.032826625 -0.13759595 0.78404003 -0.007128431 0.99974269 0.021531578 0
-0.036263257 -0.13738203 0.75443161 -0.0072093676 0.9999668 -0.0038028881 0.00027324772
0.029236687 -0.13700436 0.81137693 -0.027858607 0.9995442 -0.011628397 0.00014615356
-0.15196279 -0.14534649 0.57773679 -0.3728008 0.91650921 -0.14501894 0.001363086
0.007743862 -0.14489889 0.89512545 -0.042342782 0.97114819 0.23468748 0.0018025648
0.081670448 -0.28186023 0.85956436 nan nan nan nan
0.072688378 -0.35831761 0.93125254 0.36055145 0.84246463 0.40031981 0
0.019810729 -0.45021918 0.94868672 0.056039784 0.22137129 0.97357804 0.0014761307
0.10429326 -0.14758708 0.89091009 0.035468902 0.9651469 0.2592943 0.0013069654
0.11386309 -0.28954831 0.88413507 nan nan nan nan
-0.043015964 -0.29521176 0.86550111 0.63203263 0.46141478 0.62260038 0.0040181675
0.12253044 -0.29837963 0.88769317 nan nan nan nan
-0.047952194 -0.42965168 0.9490568 0.11858366 0.2211239 0.96800941 0.0014613166
0.016303694 -0.46692514 0.95289946 0.05803683 0.22054426 0.97364873 0.00055642438
0.15042467 -0.14402832 0.57498807 0.14443479 0.98027229 -0.13492493 0.0059228861
0.12452663 -0.14230882 0.57686645 0.13741998 0.97529966 0.17293426 0
0.1705121 -0.14258455 0.8040238 nan nan nan nan
0.17844678 -0.14645119 0.7027244 0.16251355 0.98611635 -0.034116682 6.1747909e-05
0.17187278 -0.15971889 0.51574296 0.81960535 -0.32527092 -0.47164172 0.1232019
0.16995746 -0.42095137 0.94056034 -0.030901859 0.21317729 0.97652465 0
0.14673753 -0.36195567 0.92494524 nan nan nan nan
0.16016416 -0.37676749 0.93148494 nan nan nan nan
0.21181127 -0.21022336 0.88873172 nan nan nan nan
0.1262321 -0.13893127 0.70849651 -0.065328673 0.97379649 -0.21783608 0.01800734
0.084488794 -0.13993518 0.67523974 nan nan nan nan
-0.018420527 -0.13731767 0.76524454 -0.020021623 0.99704635 -0.074146718 0.00032610065
-0.082980797 -0.15549341 0.87990779 -0.37924576 0.091188535 0.92079163 0
-0.02932298 -0.13806793 0.71821988 0.0040765712 0.99986243 -0.016075226 0
-0.0085026613 -0.13798249 0.73243845 0.011512971 0.99981934 -0.015126789 3.8167862e-05
-0.15178306 -0.1549193 0.88324887 -0.19223918 0.92541528 0.32657406 0.0059017506
0.16722742 -0.14265448 0.72985047 nan nan nan nan
-0.012073545 -0.13856651 0.82944268 0.0089942571 0.99982488 0.016407112 3.0053739e-05
-0.065008581 -0.13722557 0.77010459 nan nan nan nan
-0.15058887 -0.16868326 0.89209908 -0.71864963 -0.17616934 0.67268652 0.069225676
0.22910051 -0.34173876 0.89902049 nan nan nan nan
-0.14858375 -0.15081525 0.54878217 -0.3030059 0.95029253 -0.071635418 0.00033585253
-0.015670132 -0.14446697 0.55290806 0.33746463 0.86035961 0.38196719 0
-0.10397596 -0.14502922 0.86210752 -0.00083542307 0.97778541 0.20960689 0.0017365024
0.09125983 -0.35107008 0.92740667 nan nan nan nan
0.089797623 -0.43389273 0.94434404 nan nan nan nan
-0.1392138 -0.15512113 0.89024323 -0.30282599 0.91540056 0.26521358 0.040904548
-0.041386835 -0.1431753 0.87376553 -0.12294406 0.99099189 0.053102151 0.028000975
-0.1404864 -0.3883884 0.94390899 nan nan nan nan
-0.060081918 -0.14724717 0.88736588 nan nan nan nan
-0.14725929 -0.18812837 0.89337736 nan nan nan nan
0.069974609 -0.14115365 0.61887866 -0.0093933111 0.99768925 -0.067289822 0
0.11162927 -0.13843587 0.73898417 -0.054102443 0.99525636 -0.080855526 0.0045711133
0.10367593 -0.13836576 0.74877554 0.0013949107 0.99998182 0.0058695576 0
0.17551322 -0.14478768 0.78182626 nan nan nan nan
0.19306929 -0.2548334 0.88216597 nan nan nan nan
0.23216547 -0.29877886 0.87567157 nan nan nan nan
0.15936618 -0.3002947 0.87880456 nan nan nan nan
0.22426489 -0.28935057 0.84138 nan nan nan nan
0.1195562 -0.28564075 0.88058549 nan nan nan nan
-0.1158385 -0.14386773 0.84030336 nan nan nan nan
0.077631287 -0.32664588 0.91242588 nan nan nan nan
-0.021747299 -0.33476099 0.91118157 nan nan nan nan
-0.096227944 -0.30774277 0.90997905 nan nan nan nan
0.17221069 -0.30964267 0.89765787 nan nan nan nan
0.21973808 -0.36944741 0.90134627 nan nan nan nan
-0.099603705 -0.14015424 0.82541531 -0.10846888 0.98477435 -0.13584512 0.010024522
0.19153698 -0.1730561 0.86757928 nan nan nan nan
-0.070848018 -0.29631138 0.89167702 nan nan nan nan
0.0053923451 -0.42322943 0.94370461 nan nan nan nan
0.16331764 -0.1452131 0.60297769 0.22790134 0.97286987 -0.039814662 0
-0.037926055 -0.13762614 0.73134482 0.056902636 0.99677891 -0.056514349 0.00096951774
0.22247341 -0.483527 0.95060843 nan nan nan nan
-0.071492016 -0.13825002 0.73571682 -0.058996968 0.99825072 0.0038451764 2.9742798e-05
0.18645355 -0.14891998 0.68700087 nan nan nan nan
0.17999314 -0.14711107 0.66180539 0.21175522 0.96724021 -0.14002138 0
-0.15985018 -0.14382449 0.80502224 nan nan nan nan
-0.083706088 -0.13782944 0.69456738 -0.12113906 0.99250931 0.015832914 0
-0.065657109 -0.13839224 0.6855123 0.013803155 0.99925661 0.035996139 0
0.018753625 -0.13732213 0.7774443 0.045566346 0.99870157 -0.022775592 0.000823738
-0.037719246 -0.13954367 0.61355805 -0.0040247198 0.99999124 -0.0011061636 0.0007630504
-0.098359883 -0.137602 0.70217198 0.016648451 0.99981368 -0.0097683547 0
-0.13182989 -0.14247051 0.83513105 -0.048047472 0.99883509 0.0044537508 0.0069578611
-0.12614404 -0.14761955 0.55199331 nan nan nan nan
-0.025282834 -0.13992715 0.61477923 0.10612098 0.99390256 0.02993517 0
-0.016242862 -0.13847783 0.70008647 0.0049695624 0.99923867 -0.03869798 0
0.055941615 -0.41033977 0.94040322 -0.029057499 0.14249414 0.98936903 0.0028924118
0.076996215 -0.29159546 0.89340276 nan nan nan nan
0.051808484 -0.13861519 0.83027124 0.018817773 0.99596357 0.087763324 0.00012306226
-0.10673991 -0.17181362 0.87604344 nan nan nan nan
0.084511384 -0.13960366 0.63421232 -0.0083660427 0.99985653 0.014730421 0.0010950238
0.20153488 -0.23647264 0.55500495 nan nan nan nan
0.16764554 -0.15282111 0.53559262 0.29905945 0.86968535 -0.39269707 0.034931723
0.15370499 -0.15675223 0.53100896 nan nan nan nan
0.0802572 -0.1377973 0.77070564 nan nan nan nan
0.17170225 -0.14487511 0.83829075 nan nan nan nan
0.2192847 -0.22880682 0.87362039 0.99576366 0.090505533 0.016230183 0.0034665484
0.13821501 -0.29471102 0.89338672 nan nan nan nan
-0.12733169 -0.14019549 0.70045298 -0.15544516 0.98600924 -0.060188975 0.00056529243
-0.073849142 -0.14532773 0.88090938 -0.48406419 0.84637004 0.22212519 0
-0.11149677 -0.22265342 0.88294452 nan nan nan nan
-0.1582474 -0.50394231 0.97627282 nan nan nan nan
0.035694085 -0.15286513 0.5215745 nan nan nan nan
0.079277366 -0.13945188 0.67879522 0.0091405883 0.99707109 -0.07593222 3.6150512e-05
0.11058149 -0.14038229 0.60153013 0.077912614 0.9961198 0.04092573 0.0032935778
-0.072496951 -0.14776103 0.53628349 0.19008422 0.97870481 -0.077490978 0.00015364727
-0.15478405 -0.25535813 0.90411544 0.20550101 0.018783554 0.97847658 0.021772685
-0.14534301 -0.1414059 0.67636383 nan nan nan nan
0.062926628 -0.13965955 0.65970451 nan nan nan nan
0.22424062 -0.48526317 0.94985008 nan nan nan nan
-0.15990096 -0.14825612 0.57890373 -0.24122767 0.95630127 -0.16521798 0.006171816
0.25368103 -0.48303503 0.6001184 nan nan nan nan
-0.16528711 -0.14974415 0.56197757 -0.022634819 0.93089575 -0.36458305 0.0088054398
0.0054093064 -0.38172004 0.93657953 0.045556918 0.15615764 0.98668098 0.0053854673
0.21796398 -0.38073847 0.90946949 nan nan nan nan
-0.16907124 -0.15368333 0.55364156 -0.18735789 0.93588495 -0.29835609 0.0083975829
-0.15373644 -0.14429161 0.58530819 -0.20326063 0.95680666 -0.20786107 0.0075347316
-0.044694453 -0.14674787 0.87604684 -0.2201242 0.96849865 0.11642905 0.031520043
-0.19464411 -0.15331721 0.73515892 nan nan nan nan
-0.1547451 -0.19727564 0.85788721 nan nan nan nan
-0.13092989 -0.14150573 0.69640642 -0.24221949 0.96712685 -0.077429675 0.00074574555
-0.11609302 -0.14513214 0.58831137 -0.05516671 0.99395156 -0.094956651 0.089949928
-0.10151049 -0.14459498 0.57219565 -0.55809081 0.8206023 -0.12307148 0
-0.057592396 -0.14779782 0.53760803 nan nan nan nan
-0.082289554 -0.14291923 0.56871152 nan nan nan nan
-0.028535526 -0.13843913 0.72885257 0.01025621 0.99968964 -0.022701962 0.0005585053
-0.074088655 -0.15134406 0.52388984 -0.045071721 0.89004624 -0.45363665 0.0069155321
-0.013592493 -0.14138623 0.65313148 0.35699043 0.61106336 -0.70651227 0.00093636988
-0.024502207 -0.13759534 0.78420359 0.014940178 0.9995898 0.024434451 0.0015724675
-0.09451355 -0.15059696 0.53693855 nan nan nan nan
0.12843792 -0.14327627 0.57926065 0.13741998 0.97529966 0.17293426 0
0.16920751 -0.14851141 0.58481413 0.32746941 0.94482839 -0.0079412358 0.003108331
0.16810781 -0.14503087 0.70555907 0.09533263 0.99520195 -0.022016846 0.00012377444
0.18644859 -0.16941759 0.56650382 nan nan nan nan
0.096032023 -0.14034113 0.68977928 nan nan nan nan
0.15992323 -0.16110194 0.88000929 0.67010933 -0.14460699 0.72804004 0.02137606
-0.15859625 -0.18367405 0.88982123 -0.26839545 0.34622869 0.898938 0.027991774
-0.10074288 -0.16082321 0.89238143 0.060757622 -0.49608019 0.86614835 0.081972025
-0.16440418 -0.23636286 0.89726138 -0.19956115 -0.20467575 0.95827091 0.00037498158
-0.044314306 -0.29715306 0.86677933 0.63203263 0.46141478 0.62260038 0.0040181675
-0.13876033 -0.35329831 0.93694139 -0.10386763 0.19244604 0.97579503 0
-0.11626393 -0.36034486 0.93952805 -0.015757656 0.25522721 0.96675271 0.0026873748
-0.1424959 -0.33825457 0.93279034 -0.16687544 0.26325488 0.95018393 0.0039507491
-0.19546348 -0.36645123 0.92449439 -0.27914247 0.078497365 0.9570359 0
-0.12633333 -0.34920502 0.93666017 -0.040523961 0.17487746 0.98375589 0.0015852278
-0.14415598 -0.35162088 0.93603706 -0.061097335 0.14033075 0.98821777 0.0033534875
-0.17053454 -0.2809276 0.90948933 0.76143223 0.043960456 0.64675218 0.016769195
-0.053883933 -0.16575903 0.87909615 0.55887276 0.055298992 0.82740754 0.0300611
-0.17115283 -0.14723912 0.7538023 -0.20414798 0.97890389 -0.0084121274 0.002025662
-0.013754137 -0.30509996 0.85981184 0.22007447 0.88411409 0.41220078 0.01819724
0.028984264 -0.27467087 0.78741598 0.23886493 0.8837415 0.40242338 0
-0.19361036 -0.31135279 0.61416751 nan nan nan nan
-0.013107984 -0.14464192 0.89367104 -0.051321272 0.98510998 0.16408628 0.0004861819
-0.058579881 -0.2997846 0.88586634 0.12305449 0.73535204 0.66641951 0
-0.069984779 -0.13913055 0.80463493 nan nan nan nan
-0.017136773 -0.13816632 0.72209197 0.010614861 0.99982011 -0.015721217 8.0665217e-05
-0.15382856 -0.16456971 0.88666415 -0.28965208 0.40103248 0.86906534 0.058087844
-0.1907565 -0.30988109 0.61488026 nan nan nan nan
-0.1834667 -0.31619278 0.91434622 -0.30586553 -0.12426715 0.94393009 0.011280396
-0.1620678 -0.19748197 0.89358711 -0.28401834 0.50070333 0.81769788 0.029995546
-0.10388757 -0.13950177 0.79997569 nan nan nan nan
-0.099126108 -0.1377231 0.69256282 nan nan nan nan
-0.19865687 -0.37526658 0.92427003 -0.21814315 0.069204293 0.97345996 0.00042272423
-0.22922726 -0.37390608 0.76078582 -0.97089392 0.23131908 0.062100317 0.0035503099
-0.24315751 -0.49825716 0.48529661 -0.68480575 0.29076034 -0.66820621 0
-0.18757172 -0.30408239 0.90273643 nan nan nan nan
-0.22852413 -0.37534434 0.77225012 -0.97239989 0.22531769 0.060584314 0.0013775959
-0.18836589 -0.31203252 0.82571942 -0.71361101 0.4975616 -0.49314481 0.0058290889
-0.17230323 -0.30993325 0.64353824 -0.49958539 0.84468758 0.19213879 0.0003729914
-0.17468992 -0.33080271 0.9239648 nan nan nan nan
-0.18853292 -0.25277817 0.52498692 nan nan nan nan
-0.21077962 -0.3510305 0.70110589 nan nan nan nan
-0.1783205 -0.30512002 0.58041453 nan nan nan nan
-0.23933263 -0.439201 0.81684798 nan nan nan nan
-0.18474174 -0.30958548 0.82170177 -0.71361101 0.4975616 -0.49314481 0.0058290889
-0.16190584 -0.30774969 0.64369601 nan nan nan nan
-0.041632708 -0.29926816 0.86689538 0.65231895 0.47215912 0.59291291 0.0074832723
0.0006267908 -0.39017266 0.93814003 0.04325065 0.15365247 0.98717797 0.0099161267
-0.13524064 -0.44708964 0.95834374 0.3535369 0.17456459 0.91898793 0.0019413166
-0.050902586 -0.34330508 0.92218673 0.11489682 0.34698808 0.93080503 0.013017067
0.02205096 -0.43213731 0.94496161 0.029447934 0.18791953 0.9817428 0
-0.020790676 -0.3459208 0.92107803 -0.39162397 -0.18806434 0.90070111 0.02096343
-0.0157369 -0.34684661 0.92282653 -0.072848938 0.59787965 0.79826874 0.037387099
-0.11138834 -0.4268457 0.9516384 0.059472382 0.1727158 0.98317456 0
-0.12064494 -0.42089665 0.95102364 0.039788168 0.19756901 0.97948122 0.011789924
-0.047576312 -0.43784714 0.95081472 0.12169843 0.21200575 0.9696613 0
0.0028449318 -0.41756412 0.9430064 0.08493524 0.16005486 0.98344725 0.0031321673
-0.0027046623 -0.35132587 0.92725158 0.15043664 0.78312564 0.6033929 0
-0.090026513 -0.4634687 0.95977974 nan nan nan nan
-0.073919758 -0.41949081 0.94819397 0.13661686 0.33879444 0.93088889 0
0.045216043 -0.37146509 0.93316013 -0.012400603 0.18329202 0.98298025 0.0045162588
0.017921666 -0.45090613 0.9488734 0.056039784 0.22137129 0.97357804 0.0014761307
-0.075921409 -0.49747944 0.96847957 nan nan nan nan
-0.046612848 -0.4962548 0.9678933 nan nan nan nan
-0.13019322 -0.4567658 0.96068978 nan nan nan nan
-0.1696915 -0.50088352 0.97207719 nan nan nan nan
-0.19823542 -0.50201577 0.96675837 nan nan nan nan
-0.15280007 -0.50007421 0.97222692 nan nan nan nan
-0.029329345 -0.49383593 0.9655776 nan nan nan nan
-0.12786146 -0.45906112 0.96182722 nan nan nan nan
-0.035194203 -0.46837896 0.95766473 nan nan nan nan
-0.2274096 -0.36919156 0.76723522 -0.95555902 0.27035752 0.11753194 0.0021680288
-0.22746021 -0.36940855 0.76701784 -0.95555902 0.27035752 0.11753194 0.0021680288
-0.22801882 -0.36668473 0.75906771 -0.9733007 0.21683818 0.075279094 0.0032701658
-0.22746716 -0.36941162 0.7668258 -0.95555902 0.27035752 0.11753194 0.0021680288
-0.22801939 -0.36667937 0.75901794 -0.9733007 0.21683818 0.075279094 0.0032701658
-0.20315352 -0.3423385 0.90192932 -0.78708494 0.29966018 0.53916705 0.0089456188
-0.19057646 -0.32206351 0.91196561 0.11694471 -0.49319294 0.86202359 0.0026527513
-0.18777744 -0.31715742 0.91472137 -0.24473494 -0.1012427 0.96428978 0.013770986
-0.20064245 -0.33692163 0.90396786 -0.9519397 0.21573445 0.21741559 0.022234747
-0.18890485 -0.33244067 0.92154437 -0.80170703 -0.38022587 0.46118784 0.0090799993
-0.18657182 -0.33546096 0.92245758 -0.80170703 -0.38022587 0.46118784 0.0090799993
-0.17531185 -0.26197436 0.90295762 -0.50245291 0.24486874 0.82920468 0
-0.1789445 -0.22354642 0.88031447 -0.88823992 0.3092134 0.33973062 0.012317006
-0.17230976 -0.2795051 0.91128093 0.76143223 0.043960456 0.64675218 0.016769195
-0.16238813 -0.25626472 0.90603697 0.093923837 0.087308548 0.99174368 0.027406536
-0.13240626 -0.29700175 0.72879601 nan nan nan nan
-0.20206401 -0.24159685 0.55905175 -0.898224 -0.24787037 0.3629792 0.068927236
-0.19472781 -0.27369881 0.55076128 nan nan nan nan
-0.20983198 -0.29437512 0.54236752 -0.47790489 -0.80697662 0.34698072 0.062655777
-0.19935787 -0.30295971 0.58153605 nan nan nan nan
-0.20134248 -0.30438855 0.56901038 nan nan nan nan
-0.17036858 -0.3116889 0.65333027 -0.37380484 0.87783289 0.29946503 0.0012364417
-0.22777267 -0.34273455 0.53293818 -0.95748693 0.26055548 -0.12381332 0.028253146
-0.18017432 -0.30179679 0.59114134 nan nan nan nan
-0.13194317 -0.30048713 0.69835794 nan nan nan nan
-0.24185967 -0.37934396 0.59267175 nan nan nan nan
-0.19112746 -0.28995886 0.56088293 nan nan nan nan
-0.19148706 -0.15454966 0.76950961 -0.59736931 0.79982656 -0.058542624 0.00011555384
-0.11562519 -0.16010563 0.89265424 -0.026983306 0.071334787 0.99708742 0
-0.16354387 -0.30325741 0.60385734 -0.15032327 0.7206943 -0.67675894 0.0011416053
-0.26700497 -0.51122195 0.60735041 nan nan nan nan
-0.19354077 -0.15566827 0.68925822 -0.60483128 0.79635066 0.0022032291 0.00051944243
-0.21415843 -0.29373872 0.53690523 -0.49282417 -0.8146984 0.30559933 0.043735106
-0.118783 -0.18378647 0.88643247 nan nan nan nan
-0.19788712 -0.30285656 0.5978657 nan nan nan nan
-0.098871313 -0.21022719 0.87596714 0.70312852 -0.062812172 0.70828301 0.0012969769
-0.20414189 -0.30403808 0.53400719 -0.74858057 -0.64146012 0.16779751 0.050118167
-0.27038178 -0.50754488 0.86340654 -0.81186765 0.58027393 0.064444013 0.014880668
-0.15788467 -0.16468057 0.88761687 -0.67336756 0.046308111 0.73785609 0.085466206
-0.16157296 -0.19778152 0.8945151 -0.28401834 0.50070333 0.81769788 0.029995546
-0.016290301 -0.3051036 0.86013871 0.22007447 0.88411409 0.41220078 0.01819724
-0.16054645 -0.17720659 0.88849217 -0.51414776 0.0036112431 0.85769397 0.03079544
-0.049738839 -0.2962124 0.87212932 0.69591391 0.41693485 0.58469576 0.003306804
-0.07452739 -0.15897283 0.88373399 0.48608145 0.80695993 -0.33547044 0
-0.10107408 -0.35539705 0.93682146 -0.0096512213 0.26303765 0.96473724 0.010062264
-0.14650115 -0.33497301 0.93155187 -0.18071249 0.26145139 0.94814879 0.00029154975
-0.078844115 -0.3919003 0.94358468 nan nan nan nan
-0.16086566 -0.39374927 0.93988466 -0.45192194 0.26424363 0.85202229 0
-0.18035074 -0.42767188 0.94234002 nan nan nan nan
-0.092294261 -0.46098936 0.9592818 nan nan nan nan
-0.083540253 -0.41580969 0.94809413 nan nan nan nan
-0.051260654 -0.43472087 0.95059496 0.11858366 0.2211239 0.96800941 0.0014613166
-0.14447714 -0.34925699 0.93538511 -0.061097335 0.14033075 0.98821777 0.0033534875
