# .PCD v0.7 - Point Cloud Data file format
VERSION 0.7
FIELDS x y z normal_x normal_y normal_z curvature
SIZE 4 4 4 4 4 4 4
TYPE F F F F F F F
COUNT 1 1 1 1 1 1 1
WIDTH 598
HEIGHT 1
VIEWPOINT 0 0 0 1 0 0 0
POINTS 598
DATA ascii
0.03788333 -0.36743081 1.3662069 -0.21537288 0.15796341 0.96367115 0.0030108918
0.047140047 -0.36903799 1.369122 -0.19806148 0.13964714 0.97019088 0.0027680665
0.012564944 -0.10351621 1.3180128 -0.18784301 -0.27180153 0.94384259 0.0071951486
0.031596743 -0.16691011 1.3318652 -0.070859954 0.039733108 0.99669456 0.011853935
-0.097729959 -0.36451367 1.3436219 -0.14288686 0.20738623 0.96776772 0.0034545367
-0.059717052 -0.35633102 1.3492287 -0.028433589 -0.26371369 0.96418184 0.016705945
-0.012501606 -0.39854926 1.3649807 -0.15843627 0.17466575 0.97179717 0
-0.1816664 -0.40500733 1.3406073 -0.055484656 0.32145017 0.94529957 0.0026319455
-0.050637729 -0.20789063 1.2302552 -0.7675634 0.12432132 0.62880087 0.018117599
0.088993534 -0.37149578 1.3660461 0.43469456 0.15070798 0.88787818 0.021784445
0.061958108 -0.14103585 1.3257904 0.53228039 0.17576112 0.82812178 0.024582481
0.05627596 -0.086155072 1.3186252 0.340332 0.28583315 0.89580882 0.11008133
0.058815934 -0.22206855 1.3432543 0.67036366 0.23909901 0.70245588 0.033343099
0.06170563 -0.24419101 1.3513238 0.45265695 0.33761212 0.8252998 0.018040122
0.088231176 -0.36588353 1.3657846 0.40680343 0.14594436 0.90178221 0.034155019
0.097686887 -0.40799618 1.3674304 0.67843938 0.17849085 0.71264374 0.011391073
0.084050387 -0.2993848 1.355136 0.86185396 0.14599045 0.48568973 0.0042971708
0.08257331 -0.30916205 1.3581928 0.85554713 0.097618707 0.50843853 0.0062288353
0.092081852 -0.38570333 1.3667785 0.44742161 0.1254967 0.88547415 0.012684495
0.12594588 -0.27803716 1.1406722 0.99520969 0.036913026 0.090526186 0.018381044
0.1354624 -0.41336232 1.2206035 0.21199937 -0.70567882 0.67607224 0.00090049056
0.093684174 -0.2896274 1.3360986 0.92354286 0.060401469 0.37870857 0.0034239823
0.081175037 -0.18002874 1.0148528 0.5811376 -0.0029518011 0.81379998 0.0036448687
0.072424807 -0.24307118 1.2241091 0.20656079 0.97760659 -0.040223598 0.031816728
0.11178841 -0.24347155 1.1056314 0.62778127 0.67472696 0.38811606 0.028476756
0.13886912 -0.28343979 1.037565 0.99618453 0.075754747 0.043331947 0.010559463
0.072975263 -0.085491918 1.2873297 0.075583912 0.95713788 -0.27959633 0.031581007
0.12340491 -0.39297304 1.2928202 0.62045616 0.78281689 0.047243167 0.016795091
0.12492736 -0.27794889 1.1485696 0.99073821 0.042590626 0.12893377 0.016800318
0.10583533 -0.34047642 1.3392878 0.84404832 0.21805204 -0.48993447 0.021224581
0.15252873 -0.39500561 1.0642363 0.99446547 0.049297519 0.092780508 0.0074059069
0.098366499 -0.2677381 1.2914007 0.96661961 0.21977702 0.13169888 0.011648078
0.10131165 -0.2923376 1.2959917 0.98992276 0.092140138 0.10753199 0.0008144328
0.15561211 -0.32977787 0.99191964 0.98044658 0.17864998 0.082515769 0.0032145737
0.13082872 -0.33311379 1.1521127 0.97436351 0.0018857729 0.22497153 0.0054713581
0.10701275 -0.25732619 1.247836 0.9517678 0.25062031 0.17699587 0.036512982
0.12788504 -0.2956129 1.1319299 0.99656945 0.075860724 0.033083145 0.0036726433
0.11087807 -0.27328819 1.2286513 0.99027801 0.063589461 0.12371598 0.014593734
0.13961057 -0.3950375 1.1447936 0.97435284 0.15938058 0.15885308 0.00035526301
0.081072591 -0.089487746 1.184433 0.80077428 0.58543873 0.12657805 0.010496148
0.10553273 -0.28487441 1.2665175 0.98439747 0.076877624 0.1582762 0.00073566247
0.067259371 -0.23991351 1.1977464 -0.017956024 0.99509323 0.097298786 0.019139113
0.10266502 -0.093662038 1.0738294 0.73979783 0.67168862 0.039158482 0.0081539778
0.071486212 -0.086337402 1.2844486 0.032330446 0.95315361 -0.30075395 0.036183808
0.040933158 -0.2177957 1.0456429 0.31492123 -0.55793959 -0.76780736 0.045754816
0.12709945 -0.39377171 1.2921321 0.62045616 0.78281689 0.047243167 0.016795091
0.11545353 -0.28189456 1.1905389 0.94185966 0.23979582 0.23536855 0.002274117
0.13890737 -0.3036322 1.076563 0.93494976 0.22030661 0.27808964 0.021830706
0.12662731 -0.34319383 1.1742921 0.98844022 0.02870214 0.14886919 0.00095396256
0.085095666 -0.10737996 1.2060922 0.88628358 0.43889821 0.14788446 0.0060739503
0.13659893 -0.39353716 1.1648167 0.97335231 0.17451175 0.14876461 0.0002469754
0.040118538 -0.16601601 1.0473942 0.61818403 -0.085262559 0.78139538 0.014117905
0.044579275 -0.16530764 1.0439888 0.55572599 -0.01161002 0.83128446 0.061627783
0.029934313 -0.18550012 1.0539727 0.58783096 0.042043213 0.80789053 0.0017387714
0.070428431 -0.095545039 1.2599453 0.98485661 -0.07852833 -0.15456598 0.033755738
0.026395855 -0.18603896 1.0570921 0.57731736 0.073625632 0.81319368 0.0021652412
0.0722574 -0.22072236 1.3271458 0.87003523 0.18185893 0.45822048 0.021939827
0.14322935 -0.41106403 1.1397012 0.97245008 0.18843329 0.13723567 0.0011724121
0.13434157 -0.30280954 1.0943292 0.9591766 0.038812805 0.28013185 0.018696785
0.10129812 -0.30274823 1.3030473 0.99195677 0.085846208 0.093017511 0.00074602722
0.12037563 -0.27514893 1.1709321 0.95297348 0.20933557 0.21913512 0.0030804824
0.045259099 -0.21674764 1.0473714 0.28846821 -0.59096229 -0.75335884 0.032845251
0.048693694 -0.14162906 1.0416719 0.69086581 -0.012447516 0.72287577 0.066910557
0.081273735 -0.22521769 1.3026537 0.97118384 0.17136937 0.16563395 0.022756619
0.075006165 -0.2388759 1.2656972 0.861817 0.39128017 -0.32275575 0.062873833
0.15264586 -0.42084181 1.0984832 0.99521941 0.091310114 0.034653354 0.00096964161
-0.23654969 -0.12045063 1.2764709 -0.14952973 0.80874008 -0.56884122 0.072242133
0.11942548 -0.32251588 1.245786 0.97796267 0.18793356 -0.090938807 0.041948214
0.079421803 -0.22480413 1.3134104 0.94037938 0.17116867 0.29391816 0.011037899
-0.0022431035 -0.16993997 1.0813454 0.73453206 0.036318574 0.67760134 0.0058359895
0.089360505 -0.10201789 1.1668694 0.86163133 0.50032771 0.085226759 0.014940214
0.12910543 -0.32675928 1.1605865 0.98125929 -0.046253312 0.18705842 0.0062074168
0.12353808 -0.34527868 1.2027768 0.99147499 0.10051426 0.082910411 0.00052517845
0.015964044 -0.20464225 1.0673126 0.62868631 0.10360892 0.77072608 0.0059108506
0.10274924 -0.31710178 1.303672 0.99388784 0.070763059 0.084732108 0.0093273995
0.00036131064 -0.18901677 1.0786148 0.69738615 0.069941416 0.71327478 0.0031345822
0.0098992428 -0.16962831 1.0678778 0.6599316 0.077935927 0.74727255 0.0027044152
0.083327882 -0.17847314 1.0136567 0.57370478 0.00014437527 0.81906211 0.003013826
0.12950519 -0.22040467 0.9873594 0.90467554 -0.37500301 0.20232393 0.025345083
-0.00252029 -0.21733038 1.0856534 0.71109152 0.14372618 0.68825275 0.030638622
0.15754452 -0.38173637 1.0252861 0.98814726 0.087090522 0.12641345 0.0025331066
0.017083842 -0.20909756 1.0668473 0.63701981 0.09748517 0.76465839 0.0072310749
0.12190249 -0.35202524 1.2400396 0.98815191 0.10364928 0.11319309 0.0016927478
0.10434692 -0.098150887 1.0639489 0.86161351 0.50752157 -0.0066340291 0.035127908
0.10738073 -0.27803361 1.2500795 0.98847449 0.018584764 0.15024258 0.00090067484
0.12367995 -0.37364957 1.2246506 0.99199933 0.042293321 0.11894756 0.0010241804
0.10416857 -0.10477483 1.0785596 0.9084807 0.41664839 0.032665182 0.025631713
0.1478644 -0.32427397 1.0528232 0.98447406 0.15408087 0.084082201 0.0089761699
0.13819085 -0.27233455 1.0375365 0.95348549 0.26609966 0.14162083 0.047289573
0.053670786 -0.2353064 1.0668968 0.17011423 0.88868552 0.42579243 0.053177357
0.11627945 -0.28640434 1.1955043 0.95564377 0.21739066 0.19871141 0.0028851298
0.1353935 -0.29763004 1.0837598 0.94430488 0.1926374 0.26679394 0.020350439
0.10760065 -0.26014021 1.2458295 0.98502427 0.081010744 0.15219867 0.012103658
0.1531053 -0.42530125 1.0940479 0.99521476 0.0915161 0.034240808 0.0010228434
0.10882231 -0.24804042 1.1870663 0.42075142 0.87757325 0.22985502 0.05323052
0.075986743 -0.17551376 1.3080941 0.98051322 0.19574672 -0.016644675 0.022956699
0.1457558 -0.358904 1.0769861 0.979783 0.11040955 0.16683817 0.00098988588
0.13015968 -0.3738381 1.1836894 0.97505009 0.17395614 0.13790068 0.0003708858
0.10401798 -0.36186448 1.3343406 0.97575706 0.064883158 0.20901769 0.020536516
0.11322969 -0.38461092 1.316835 0.91140473 0.36249298 0.19478261 0.015367256
0.15783197 -0.34105182 0.99667442 0.98885888 0.10901579 0.10135911 0.0021610397
0.12817788 -0.29154333 1.1369573 0.99650645 0.0671691 0.049630623 0.0047168918
0.005636483 -0.089496516 1.3200194 -0.18172969 -0.25686821 0.94920647 0.0049466663
0.025045441 -0.23468843 1.3357579 -0.44574299 0.27804038 0.85088581 0.017153896
-0.11942411 -0.4138135 1.3518317 0.058889918 0.17073865 0.9835549 0.025582388
-0.020982414 -0.2191312 1.1450628 0.77792954 0.62441343 0.070238143 0.052804518
-0.013507413 -0.22888185 1.1083717 0.9679603 0.12007008 0.22053598 0.055859845
0.087622605 -0.14807884 1.0075009 0.60267752 0.071107872 0.7948103 0.0026678119
0.12947245 -0.22337103 0.97695792 0.96209174 -0.27169076 0.023739662 0.021418491
0.13887094 -0.28353402 1.0386539 0.99618453 0.075754747 0.043331947 0.010559463
0.11935775 -0.36227629 1.277405 0.96111894 0.11714485 0.25005475 0.060558841
-0.017012466 -0.22718094 1.1330366 0.7991479 0.60045743 0.02852398 0.050622247
0.079179145 -0.24325165 1.2197336 0.13025525 0.99145114 0.0076300763 0.030285025
0.059964031 -0.21455982 1.341385 0.70574385 0.19135752 0.68213475 0.032445122
0.15237613 -0.39874864 1.0694599 0.99829489 0.05009494 0.029962411 0.0064083035
0.049673833 -0.075619601 0.99751604 0.018432952 0.99982828 -0.0019075329 0.0012878884
0.13872404 -0.37200084 1.1319662 0.97341752 0.14129518 0.18026096 0.00024166491
0.14087509 -0.2828013 1.0516465 0.99381936 0.10018542 0.047811083 0.0044623222
-0.0024664276 -0.19018254 1.0814295 0.69460386 0.059134476 0.71695787 0.0027825416
-0.11192971 -0.073959671 1.0793822 -0.1251772 0.9880501 0.089931414 0.00058221369
0.12628418 -0.22831188 0.98448986 0.90366465 -0.38007575 0.1973135 0.014748971
0.065506876 -0.23866102 1.1963007 -0.055252124 0.99167573 0.11630368 0.020380273
0.1474084 -0.32020158 1.0536598 0.97258312 0.21101965 0.097738206 0.0070349388
0.012636059 -0.23463923 1.1341182 0.23369439 0.96783626 -0.09316624 0.0053159264
0.11673293 -0.17738719 0.99236381 0.67230773 0.15326497 0.72423214 0.022730231
0.14029798 -0.26775783 1.0239275 0.93599951 0.29534441 0.19151145 0.057371385
0.15588969 -0.38043424 1.0308063 0.98819828 0.091833733 0.12259995 0.0018223643
0.030795492 -0.15152758 1.2187561 0.84969509 -0.080322608 -0.52112055 0.013280818
0.1512955 -0.36292675 1.0523374 0.97839928 0.13124532 0.1597169 0.00073018303
0.086113431 -0.14669836 1.0090817 0.60132539 0.073268645 0.79563779 0.0021094179
0.14569597 -0.41993752 1.1331071 0.97149223 0.19265422 0.13815643 0.0024802426
0.13291043 -0.35387886 1.1477854 0.97505099 0.068726458 0.21107422 0.0031115415
0.13375662 -0.21035379 0.98101419 0.9471733 -0.31884012 -0.034694485 0.010207934
0.155654 -0.39134958 1.0414166 0.98794794 0.028694784 0.15210317 0.0039287545
0.12710102 -0.27663112 1.1213515 0.99684572 0.076025598 0.022775225 0.0039243884
0.1502654 -0.28530988 0.97664768 0.99124676 0.042992368 -0.12482609 0.0041109556
0.07959456 -0.21723253 1.3029344 0.95494395 0.2500098 0.15992846 0.019970551
0.1400326 -0.28629747 1.0339172 0.98955184 0.11682323 0.084495306 0.0096166339
0.13000788 -0.37336525 1.1842699 0.97602725 0.17082278 0.13487171 0.00042360931
0.10729265 -0.38355416 1.331954 0.94457173 0.19379334 0.26500636 0.011116648
0.091030158 -0.27297181 1.3377013 0.8972578 0.14241956 0.41790548 0.013988679
0.072744764 -0.1733744 1.2859477 0.97724783 -0.0053117112 -0.21203408 0.010012828
-0.012087013 -0.22394647 1.1033512 0.95930123 0.053759232 0.27722004 0.062664926
0.13842934 -0.30594665 1.0851125 0.93266892 0.22594792 0.28120518 0.025422556
0.072767012 -0.21900749 1.3271567 0.87003523 0.18185893 0.45822048 0.021939827
0.13639577 -0.33966368 1.1080956 0.92503577 0.27760482 0.25931513 0.011946519
0.10454514 -0.33250728 1.2974045 0.99113917 0.032411039 0.12881261 0.020380856
0.14037976 -0.37114152 1.1226616 0.97581232 0.13149431 0.1746411 0.00048427325
0.13669463 -0.3567563 1.1337824 0.97530377 0.1203815 0.18517771 0.0011451097
0.071841955 -0.22428763 1.3317271 0.81475455 0.20185168 0.54353565 0.028304463
0.10184152 -0.31519657 1.3182136 0.98428875 0.087114573 0.15357967 0.0044813547
0.10578502 -0.33728129 1.3404377 0.79328436 0.19860826 -0.57554728 0.02172748
0.12391602 -0.31157574 1.1919311 0.9713583 0.19971648 0.12874953 0.0087155625
0.10578922 -0.36430994 1.3268735 0.97910857 0.17441121 0.10453272 0.015928004
0.13899235 -0.40166408 1.1634661 0.97365081 0.17401849 0.14738268 0.00025022429
0.13651738 -0.36473742 1.1379465 0.97023487 0.14836051 0.19139846 0.00022448761
0.12147567 -0.34342754 1.2329257 0.99031591 0.10813228 0.087073989 0.0044495212
0.11071818 -0.27810603 1.2290174 0.98867244 -0.0054671741 0.14998984 0.0012389404
0.12725811 -0.32890788 1.1694939 0.98122859 -0.045732941 0.18734708 0.0045286324
0.047007758 -0.16169897 1.2441872 0.76330978 0.076873347 -0.64144266 0.022411609
0.13842534 -0.36003324 1.123817 0.97208625 0.15678522 0.17454679 0.00064912415
0.14802542 -0.42543176 1.1431216 0.9698987 0.20264931 0.13501799 0.0032035247
0.13076498 -0.35729691 1.1586199 0.97508568 0.11217836 0.19137399 0.00093656685
0.13421986 -0.37428471 1.1574893 0.97143334 0.16491742 0.17064443 0.00038824155
0.11014957 -0.25335512 1.1847533 0.88744146 0.42072907 0.18824115 0.048412535
0.13403817 -0.3757537 1.159698 0.97145844 0.16683865 0.16862227 0.00031129643
0.13900945 -0.32306001 1.0882318 0.93956006 0.17947316 0.29157552 0.0079166181
0.0058446201 -0.075462312 1.2550551 0.086887993 0.99547184 0.0385505 0.00044927388
0.02357219 -0.17157999 1.216656 0.68840843 0.048726462 -0.72368473 0.027247284
0.07516329 -0.18168125 1.2956053 0.97651917 -0.015828734 -0.21484794 0.008869458
0.034607437 -0.23396119 1.0817282 0.43062857 0.86151701 0.26897487 0.028985895
0.098377503 -0.26820856 1.2930441 0.96834278 0.21652487 0.12421427 0.011400231
0.10428109 -0.36447731 1.3347102 0.96628082 0.062529512 0.2497829 0.018830657
-0.0066651981 -0.31733963 1.3543613 -0.015979538 -0.039069761 0.99910873 0
0.098396868 -0.27137667 1.3120369 0.98309505 0.10186404 0.15214436 0.002289129
0.094390661 -0.26359618 1.3251854 0.91546267 0.24703759 0.31764832 0.020871764
0.12484998 -0.3625614 1.2164403 0.99228525 0.09514723 0.079479463 0.0013341453
0.12404908 -0.35547265 1.2216396 0.99337256 0.085602053 0.076702304 0.0012968298
0.09959203 -0.29817337 1.3177986 0.98379606 0.08491648 0.15790652 0.0015198246
0.073465556 -0.19460383 1.2899975 0.94202614 0.0095403707 -0.33540386 0.011281956
-0.33061001 -0.3946166 1.3159863 -0.26708314 0.024346676 0.96336591 0.01150357
0.11008022 -0.37959123 1.316934 0.95543617 0.27517939 0.10685585 0.01682952
0.085805021 -0.37362966 1.3699486 0.25520837 0.1138007 0.96016562 0.024945538
0.10020871 -0.27710465 1.296795 0.98836583 0.088557199 0.1236547 0.0014687894
0.094013974 -0.26462817 1.3279406 0.90278804 0.25161192 0.3488054 0.021148873
0.11324437 -0.38460037 1.3167616 0.91140473 0.36249298 0.19478261 0.015367256
0.10534027 -0.363527 1.3264546 0.9821521 0.16508947 0.090125792 0.016939035
0.10776661 -0.33972293 1.3414888 0.82133514 0.20918272 -0.53070819 0.021942947
0.086884104 -0.3739793 1.3674496 0.25520837 0.1138007 0.96016562 0.024945538
0.11010072 -0.33801493 1.2928523 0.49068534 -0.30656561 0.81562573 0.014080521
0.081503138 -0.22530515 1.3023796 0.97118384 0.17136937 0.16563395 0.022756619
0.098508045 -0.27201426 1.3109356 0.98299426 0.10235117 0.15246823 0.0022014957
-0.0023319579 -0.21294387 1.0841726 0.71466273 0.088574246 0.69383848 0.029659532
0.038115997 -0.21047002 1.0496566 0.58818096 0.10383452 0.80203593 0.036088828
-0.024042305 -0.21489452 1.1543131 0.65307599 0.72894889 -0.20524414 0.047729794
0.089683406 -0.10219035 1.1630106 0.86738473 0.49608031 0.039345171 0.017777577
0.033445064 -0.18329446 1.0503238 0.59715283 0.0045571923 0.80211455 0.002159406
0.10240772 -0.093698725 1.0764198 0.73979783 0.67168862 0.039158482 0.0081539778
0.02156038 -0.21606551 1.0695837 0.55696905 0.53145075 0.63823622 0.063483179
-0.011912653 -0.2232168 1.1028987 0.9585439 0.050802592 0.28037941 0.067324258
-0.016278543 -0.22638234 1.1334299 0.79919165 0.60040081 0.02848745 0.05074117
0.028808659 -0.1852268 1.0545539 0.58572936 0.048117597 0.80907714 0.0017509653
0.01668185 -0.20490415 1.0666884 0.63202292 0.098178014 0.76870561 0.006312768
-0.0039954116 -0.18676201 1.0831536 0.72081035 0.06168652 0.69038194 0.0031488738
-0.012978527 -0.22564529 1.1058415 0.96538317 0.071803071 0.25075799 0.058019787
-0.0029176068 -0.18553221 1.0819377 0.71735346 0.067029253 0.69347751 0.0034914708
0.010859026 -0.16138653 1.0669296 0.70780867 0.12975106 0.69438577 0.0032861233
0.042834185 -0.16566668 1.0445093 0.55633092 -0.011340253 0.83088338 0.059356637
0.10292213 -0.24606803 1.1897053 0.42097235 0.87701303 0.23158266 0.053195003
0.076787099 -0.17270608 1.018335 0.62811702 0.02215662 0.77780336 0.0042155329
0.12566507 -0.27235898 1.1331447 0.98968631 0.13284807 -0.053594809 0.038187608
0.10858717 -0.26253372 1.2421023 0.98773175 0.066463098 0.14131093 0.012025797
0.12617728 -0.3145797 1.1907204 0.97826177 0.16278237 0.12847476 0.013976838
0.11741117 -0.32389623 1.2479113 0.99256849 0.11939672 0.023497256 0.025189104
0.12359896 -0.34508413 1.2024117 0.99157906 0.099967703 0.082324959 0.00058058841
0.13873868 -0.39281875 1.1466664 0.97408193 0.15827093 0.16160011 0.00031447184
0.13529769 -0.39583403 1.169842 0.97326195 0.17781259 0.14540929 0.00031106971
0.14327201 -0.4141233 1.141802 0.97255027 0.18867867 0.13618521 0.0012709005
0.13896984 -0.37195256 1.1312435 0.97334856 0.14111163 0.18077619 0.00023017383
0.11103777 -0.26949394 1.2282039 0.99046874 0.065888986 0.12095562 0.015127662
0.13237122 -0.32705703 1.148771 0.97132522 -0.010031179 0.23754314 0.010387848
0.13418853 -0.30178979 1.0966173 0.9591766 0.038812805 0.28013185 0.018696785
-0.001123038 -0.16883402 1.0796441 0.73453206 0.036318574 0.67760134 0.0058359895
0.10716859 -0.27780315 1.2512195 0.9886263 0.018794479 0.14921379 0.0010091343
0.10583664 -0.359689 1.3334361 0.97584021 0.059123721 0.2103335 0.017942352
0.10405176 -0.094399571 1.0685376 0.73463249 0.67769551 0.032309312 0.010083853
0.13059567 -0.37408966 1.1822374 0.97413766 0.17264707 0.14576983 0.000236878
0.14567593 -0.41997659 1.1332818 0.97149223 0.19265422 0.13815643 0.0024802426
0.08865118 -0.095599972 1.1637868 0.79098701 0.61087608 0.034204721 0.017543035
0.079517752 -0.18626006 1.0152669 0.57730949 -0.017070085 0.816347 0.0037544544
0.13162617 -0.37296417 1.1706805 0.97285968 0.16941689 0.15761332 0.00018575414
0.12375093 -0.3534314 1.2217122 0.99404496 0.080431491 0.07352151 0.0012592612
0.048517622 -0.23096752 1.2356594 0.29944339 0.95411396 -0.00047866727 0.014366578
0.12802804 -0.28920871 1.1395856 0.9972747 0.016841151 0.071829595 0.019071337
-0.011026995 -0.18896651 1.0987258 0.90648544 0.026028274 0.42143419 0.0017701879
0.10443441 -0.2808263 1.2694389 0.98046511 0.10709608 0.16498065 0.00082722213
0.091447823 -0.27355206 1.3369857 0.8972578 0.14241956 0.41790548 0.013988679
0.12598193 -0.35406342 1.1862652 0.98445654 0.13066624 0.11735238 0.00065394572
0.08364962 -0.16158178 1.0119925 0.58610678 0.043612719 0.8090592 0.0024528822
0.010900675 -0.16805618 1.0665877 0.66071218 0.081490546 0.74620283 0.0026237878
0.064523064 -0.23383304 1.3443806 0.66372347 0.27896231 0.69401091 0.023266215
0.070877396 -0.093300998 1.2611556 0.87321877 0.43448204 -0.22071309 0.099923134
0.071809605 -0.16784853 1.2820817 0.98014855 0.013579188 -0.19779874 0.012037805
0.12596461 -0.36042488 1.2797949 0.00058103784 -0.59152806 0.80628425 0.0088682678
0.13889526 -0.40263239 1.1625882 0.97367984 0.17394218 0.14728101 0.00026245805
0.15251876 -0.41966021 1.0989193 0.99521941 0.091310114 0.034653354 0.00096964161
0.10473616 -0.27402967 1.2652309 0.98043746 0.055017386 0.18898514 0.0010581267
0.055470712 -0.23284011 1.0673927 0.12430933 0.86578417 0.48473173 0.054506689
0.080024414 -0.22367799 1.3125342 0.94062841 0.16994335 0.29383233 0.011544942
0.072967201 -0.22398351 1.3302165 0.85851794 0.17227398 0.48297882 0.022988858
0.10724434 -0.38125601 1.3308759 0.94480759 0.19437344 0.26373759 0.01126196
0.083704852 -0.09381821 1.1905755 0.84009004 0.52283329 0.14454797 0.0072072474
0.10712444 -0.25810364 1.2476518 0.9517678 0.25062031 0.17699587 0.036512982
0.13291502 -0.35361177 1.1469215 0.9747296 0.065987021 0.2134195 0.0031421818
0.13305572 -0.37310046 1.1625391 0.97175235 0.1679759 0.16577554 0.00034097367
0.1269991 -0.27687544 1.1197581 0.99668872 0.080953166 0.0076291864 0.0036577217
0.14063422 -0.41271618 1.1586527 0.97115815 0.19166006 0.14183871 0.0010401985
0.074079283 -0.17150263 1.2893676 0.97991532 0.014682321 -0.19887255 0.010306727
0.11930534 -0.36167601 1.2764422 0.94743878 0.024822805 0.31897277 0.065992892
0.11124484 -0.26833442 1.2261467 0.99046874 0.065888986 0.12095562 0.015127662
0.11459854 -0.24535942 1.1074123 0.65259922 0.63288796 0.41661391 0.01579864
0.098240592 -0.26756281 1.2929463 0.96834278 0.21652487 0.12421427 0.011400231
0.079440862 -0.21606408 1.3030525 0.93280447 0.32831827 0.14860348 0.021801721
0.13994199 -0.36997625 1.1238968 0.97354877 0.13770181 0.18232138 0.00038674791
0.10515679 -0.10126738 1.0916861 0.78640592 0.61727029 0.023306519 0.016461242
0.044427384 -0.23986714 1.1316983 0.1104387 0.98369265 0.14195822 0.031984925
0.073973812 -0.24281731 1.2201998 0.1327721 0.99003857 0.046851259 0.031525899
0.12480617 -0.36215147 1.2162038 0.99228525 0.09514723 0.079479463 0.0013341453
0.13029628 -0.35481879 1.1590309 0.9745695 0.089771718 0.20531777 0.0010103842
0.085507952 -0.10508228 1.2100199 0.88314623 0.44860622 0.1371323 0.007954414
0.12574717 -0.26408678 1.1166654 0.83949822 0.5004124 0.21173123 0.0094632143
0.044892874 -0.16649389 1.0421124 0.52189213 0.040425804 0.85205311 0.058337595
0.10445489 -0.24334234 1.0411569 0.36233035 0.93092573 -0.045759238 0.021746038
0.085675202 -0.14661971 1.0081552 0.60251659 0.074098773 0.7946592 0.0022934198
0.14217056 -0.40748346 1.1437615 0.97191793 0.18839344 0.14100899 0.0010916436
0.12451738 -0.26730233 1.1281596 0.98496628 0.16284092 -0.057657067 0.032450546
0.14143045 -0.30892223 1.0863211 0.93259448 0.22634755 0.28113058 0.025465108
0.13454536 -0.29615152 1.0855985 0.94382119 0.19303364 0.2682156 0.01821043
0.11751778 -0.24744461 1.1043603 0.65214425 0.63294512 0.41723895 0.015770134
0.075348556 -0.23872946 1.2663399 0.861817 0.39128017 -0.32275575 0.062873833
0.13293678 -0.27353746 1.0685251 0.97779298 0.14903137 0.14734504 0.0048627011
0.13987277 -0.39399567 1.1431898 0.97412264 0.15706468 0.16252914 0.00035789923
0.1513626 -0.39220876 1.0727 0.99648005 0.08253891 0.01465843 0.0065374356
0.13915563 -0.30115145 1.0743185 0.9344641 0.25110036 0.25243914 0.014273634
0.14557251 -0.35784349 1.0772077 0.97981369 0.11079183 0.16640389 0.0010168136
0.14101952 -0.28243831 1.0518675 0.99377257 0.10041126 0.048308633 0.0047476552
0.14790434 -0.36062345 1.0630103 0.98157233 0.11409969 0.15328734 0.0008231019
0.14591861 -0.3514545 1.0716769 0.97972006 0.11052921 0.1671285 0.00093828596
0.12782709 -0.29411647 1.1304775 0.99627954 0.082722217 0.024167543 0.0035888522
0.12102854 -0.27626634 1.1702528 0.95297348 0.20933557 0.21913512 0.0030804824
0.11015996 -0.24901524 1.1881222 0.53528732 0.80897522 0.24295381 0.047825661
0.063293621 -0.23827185 1.1452422 0.13625726 -0.98938662 -0.050478444 0.051422928
0.1429812 -0.37222084 1.1074847 0.97363335 0.15089698 0.1710799 0.00065838156
0.072055615 -0.19837114 1.2841752 0.91523576 0.039394815 -0.40098807 0.011938198
0.14939755 -0.37229323 1.069059 0.97661209 0.12822558 0.17258923 0.00033784629
0.092435315 -0.18460684 1.0077455 0.56147605 -0.0078853928 0.82745546 0.0016870556
0.061569057 -0.23918854 1.1930789 0.14787656 -0.97303528 -0.1770169 0.034959286
0.031174717 -0.17481801 1.2217594 0.75763839 0.1220679 -0.64115798 0.017785762
0.12449366 -0.28784677 1.1482471 0.98771673 -0.034174487 0.15247175 0.015044925
0.086512826 -0.092908219 1.1656297 0.76911956 0.6389578 0.013711078 0.017958749
0.12703948 -0.27822241 1.1218942 0.99684572 0.076025598 0.022775225 0.0039243884
0.10654265 -0.10361779 1.0943258 0.88131225 0.47251913 0.0037866661 0.023598628
0.094269693 -0.27046505 1.3304577 0.92379481 0.14476635 0.35446566 0.019000672
0.095312744 -0.27521217 1.3309336 0.9317649 0.11084323 0.34572807 0.015693268
0.038274698 -0.15051858 1.2351763 0.80846655 0.016819224 -0.58830166 0.017079538
0.15222915 -0.4102045 1.0751153 0.99897528 0.044232715 -0.0095843086 0.003184967
0.016651904 -0.23472823 1.1347451 0.21874318 0.97452712 -0.049479503 0.0024720891
0.056928433 -0.23639517 1.2381058 0.22161011 0.97095174 -0.090231307 0.0076844688
0.039368805 -0.1498853 1.2371552 0.80709958 0.012893606 -0.59027451 0.01826732
0.10369893 -0.098388806 1.0866108 0.76133901 0.64790243 0.024196373 0.012223184
0.080867693 -0.088438503 1.1831551 0.79888439 0.58927613 0.12057118 0.011653363
0.14802133 -0.37051672 1.0779335 0.97986037 0.1172189 0.1616587 0.00069460808
0.095646098 -0.27405679 1.3283793 0.93368196 0.11634717 0.33867607 0.017446322
0.086473793 -0.17563982 1.0119237 0.59179378 0.030396208 0.80551606 0.0031052178
0.098314226 -0.1549283 1.0011543 0.62887591 0.091759734 0.77207208 0.0023156418
0.12014001 -0.16344827 0.98130703 0.89731777 0.18084873 0.40263453 0.032987136
0.1170283 -0.17781295 0.99126542 0.68904757 0.13984211 0.71109599 0.023997491
0.097622305 -0.088373289 1.0603493 0.65855932 0.75227338 -0.019602787 0.012985067
0.12190927 -0.12420233 0.97725111 0.99537766 -0.054188039 -0.079290621 0.015325743
0.086623885 -0.14733498 1.0070201 0.60416746 0.075242005 0.79329717 0.0026072317
0.05259496 -0.16137607 1.2457488 0.67789334 0.088358723 -0.72983104 0.020400899
0.10439687 -0.098911136 1.0633308 0.86161351 0.50752157 -0.0066340291 0.035127908
0.14277083 -0.27404726 1.0465798 0.99612892 0.06645523 0.057539899 0.012239926
0.12549488 -0.32046691 1.248915 0.95433503 0.24796718 -0.16660394 0.053878337
0.14194749 -0.33911726 1.0869417 0.97161573 0.10428766 0.2123367 0.0090669626
0.13972555 -0.26795354 1.0246686 0.93599951 0.29534441 0.19151145 0.057371385
0.12999424 -0.32239088 1.1609267 0.97994483 -0.074526183 0.18480787 0.0058917799
0.15945421 -0.3853716 1.02153 0.98958176 0.081814736 0.11846674 0.0026976764
0.15195084 -0.39785007 1.0726629 0.9978587 0.065292209 0.0038556471 0.0041222307
0.076366551 -0.24257185 1.2161654 0.13443252 0.98961806 0.050832715 0.029675825
0.1558854 -0.37965798 1.0320743 0.9873516 0.093527704 0.12802088 0.0019417519
0.15202963 -0.35357437 1.0406104 0.9845497 0.12011052 0.12741831 0.0013950818
0.13592531 -0.38715535 1.1601298 0.97344995 0.17259705 0.15035114 0.00026959236
0.15624242 -0.39433661 1.0387218 0.98617893 0.031880733 0.16258776 0.0036751681
0.1499581 -0.3984094 1.0964063 0.98461086 0.14159884 0.10242657 0.0015682832
0.10118219 -0.28815022 1.2976954 0.98932344 0.094112851 0.11127385 0.00088278303
0.01714069 -0.23113954 1.1721138 0.00020610055 0.97824496 0.20745261 0.0018771464
0.1336409 -0.36738846 1.1527348 0.970061 0.15801743 0.1844238 0.00028918017
0.15228076 -0.27679837 0.98445457 0.99055529 0.00050161447 -0.13711284 0.0079067638
0.13674116 -0.27065095 1.0412087 0.95412147 0.26499856 0.1393844 0.042889357
0.024165282 -0.17165692 1.2171367 0.68840843 0.048726462 -0.72368473 0.027247284
0.1442098 -0.42172071 1.1459657 0.97211874 0.19333082 0.13269672 0.0016125364
0.14833036 -0.32557258 1.0511138 0.98883146 0.13794561 0.056421928 0.010177096
0.14011934 -0.35316327 1.1120795 0.97177446 0.15224119 0.18021369 0.00069815794
0.15342198 -0.31673256 0.98351395 0.97144425 0.18702352 0.1460079 0.0017870287
0.13914023 -0.28188235 1.0395198 0.99618453 0.075754747 0.043331947 0.010559463
0.11808891 -0.10573855 0.99181712 0.96011353 0.26842642 0.078290068 0.011268169
0.13454564 -0.20940778 0.98412561 0.93667328 -0.34908766 -0.02794636 0.0088619646
0.14214508 -0.37252113 1.1148371 0.97698843 0.12833245 0.17036562 0.00044409919
0.12164105 -0.15587765 0.97567958 0.97444808 0.016685322 0.22399236 0.0092933839
0.14747325 -0.32081464 1.0537466 0.97310728 0.21001121 0.094643585 0.0071071433
0.16044717 -0.40431249 1.0044861 0.99367124 0.05446016 0.098242521 0.0050220494
0.1520762 -0.33391452 1.0224181 0.9847818 0.12157471 0.12419467 0.0042005661
0.14926258 -0.32668841 1.040823 0.99300456 0.10921325 0.044880703 0.0066106794
0.027830627 -0.1460176 1.2118194 0.87675995 -0.13312055 -0.46213719 0.013796516
0.10393601 -0.37286946 1.3355536 0.93259984 0.17052887 0.31808406 0.0097365128
0.12640993 -0.22939155 0.98306 0.92195636 -0.21011944 0.32534024 0.037426241
0.10899255 -0.28242964 1.2379417 0.98998761 0.0055502756 0.14104503 0.00099522632
0.089343414 -0.10807973 1.1673393 0.90575236 0.40336099 0.13004845 0.007737759
0.071490087 -0.18556029 1.0213879 0.61004037 -0.030334545 0.79178941 0.0049821069
0.099407896 -0.292252 1.3141503 0.98348796 0.0853974 0.15955789 0.0013711661
0.12709866 -0.39478114 1.2876618 0.74482709 0.64480245 0.17164657 0.044412035
0.1024426 -0.31207642 1.303968 0.98817831 0.10124888 0.11511814 0.0044233594
0.10125931 -0.30052656 1.3042022 0.98875588 0.089593865 0.11972754 0.0010183858
0.089376576 -0.083123051 0.94280261 0.40916094 0.68807834 -0.59927917 0.054994211
0.095470056 -0.079998083 0.94822079 0.53312433 0.75521189 -0.38135743 0.036922291
0.069344603 -0.074417815 0.97140372 0.06918218 0.99758863 0.0055373269 0.0012051009
-0.28153136 -0.081088237 1.2621968 -0.22115813 0.75230652 0.62058371 0.016178736
0.069636174 -0.085867397 1.2863748 0.072883919 0.96216357 -0.2625438 0.027317552
0.073683009 -0.086804241 1.2834854 0.077558078 0.94165945 -0.32750899 0.043794204
0.070536114 -0.09539444 1.2643158 0.98291558 0.078003272 -0.16671067 0.077844262
0.07363715 -0.17197011 1.289667 0.97991532 0.014682321 -0.19887255 0.010306727
0.081188023 -0.22447485 1.3036007 0.97240037 0.14846441 0.17998861 0.023637615
0.10677581 -0.25793251 1.2491645 0.95076823 0.25239316 0.17982623 0.037821919
-0.019124649 -0.20921148 1.1189339 0.94495273 0.25209591 0.20859519 0.025067039
-0.0048488318 -0.16681589 1.0835905 0.75127953 0.018116074 0.65973544 0.0052805408
0.081174828 -0.24136302 1.2150795 0.048859872 0.9900775 0.13175441 0.023919582
-0.017005865 -0.22545393 1.1360513 0.87598515 0.48100722 0.035806008 0.044003095
0.089601055 -0.10115159 1.1634111 0.83736145 0.54644293 0.015026407 0.019574087
0.10125709 -0.30868182 1.3092251 0.98144269 0.11329972 0.15470429 0.0031625121
0.13090217 -0.21773061 0.98221821 0.96209174 -0.27169076 0.023739662 0.021418491
0.040917754 -0.21393099 1.0496256 0.49998099 0.48669872 0.71634018 0.089070424
0.11476315 -0.24314004 1.0117122 0.37856027 0.89320952 0.24262896 0.015338672
0.014754908 -0.20496853 1.0683435 0.63164461 0.10322075 0.76835579 0.0067920797
0.026823467 -0.1840881 1.0569595 0.57507318 0.063630402 0.8156237 0.0022081602
0.11266404 -0.099198066 1.0145823 0.58045906 0.79916555 0.15621044 0.01236637
0.10402691 -0.096352786 1.0647613 0.74728084 0.6639564 0.027078504 0.011884358
0.040262554 -0.13778311 1.2299926 0.82851171 -0.045278106 -0.55813825 0.015373384
0.053340781 -0.17099939 1.0371393 0.61183339 -0.077542603 0.78717673 0.053035151
0.055920057 -0.075078622 1.005313 0.067201592 0.997495 -0.022084523 0.0051767807
0.086194441 -0.10661077 1.2068954 0.88595808 0.44016626 0.14605439 0.0066478876
0.038299922 -0.15017439 1.2385751 0.80709958 0.012893606 -0.59027451 0.01826732
0.080575362 -0.088969395 1.1848944 0.80090934 0.58539498 0.12592401 0.010727436
-0.17235459 -0.07417006 1.2253594 -0.0018127259 0.9989602 0.04555374 0.0009558422
-0.22626692 -0.073526502 1.1894599 0.024378035 0.99966699 0.0084595541 0.00041937246
0.021846391 -0.078477569 1.287038 0.074473284 0.9943518 0.075618565 9.933221e-05
0.1356965 -0.36457264 1.1392726 0.96965879 0.15026453 0.19282742 0.00018462197
0.087988235 -0.094980329 1.1676135 0.78732562 0.6155929 0.03411587 0.016549863
-0.0513741 -0.07281141 1.2227502 0.024419697 0.99757171 -0.065226085 0.00075216894
-0.20587997 -0.073323242 1.0307387 -0.0076764533 0.99995089 0.0062743947 0.00024917771
-0.0022400909 -0.21418323 1.084751 0.71783549 0.1204254 0.68571854 0.029882383
0.11572858 -0.28247556 1.1951584 0.95894474 0.20039174 0.20066908 0.0033155729
0.12264808 -0.31160113 1.1938502 0.96837705 0.20146772 0.14716199 0.0084337443
0.1247175 -0.39318433 1.2928538 0.62045616 0.78281689 0.047243167 0.016795091
0.10032521 -0.24393922 1.1857268 0.42097235 0.87701303 0.23158266 0.053195003
0.075372152 -0.23932259 1.2667197 0.861817 0.39128017 -0.32275575 0.062873833
0.11457112 -0.28428754 1.1997228 0.96974754 0.18924214 0.15419829 0.0047645424
-0.019681172 -0.20515965 1.118535 0.95678276 0.20709299 0.20415507 0.017602371
0.11782847 -0.32186118 1.2462665 0.97796267 0.18793356 -0.090938807 0.041948214
0.10759346 -0.26044011 1.2461627 0.98502427 0.081010744 0.15219867 0.012103658
0.12876087 -0.32719889 1.1620655 0.98125929 -0.046253312 0.18705842 0.0062074168
-0.0076079508 -0.22945444 1.1238215 0.61960012 0.78491735 0.00066763628 0.076463491
0.1229092 -0.36126584 1.2427508 0.99179226 0.025034606 0.12538405 0.0018510107
0.047952347 -0.16172974 1.2453578 0.76330978 0.076873347 -0.64144266 0.022411609
0.12391409 -0.34185222 1.2033176 0.99509084 0.062097389 0.077059031 0.00098153064
0.1383037 -0.3997629 1.162481 0.97309935 0.17588526 0.14880191 0.00023553097
0.13596891 -0.3939814 1.1670258 0.97311139 0.17776479 0.14647116 0.00030442313
0.12332934 -0.34400699 1.2030621 0.99190456 0.096956804 0.082003854 0.00050113932
0.072470531 -0.21992847 1.3270372 0.87003523 0.18185893 0.45822048 0.021939827
0.11162925 -0.090918981 0.9863236 0.69524384 0.70363998 0.14672005 0.023223601
0.080414526 -0.17876261 1.0157051 0.612019 -0.0092465384 0.79078895 0.005565851
0.12306758 -0.15738469 0.96666592 0.99638462 0.040323131 0.074778415 0.02494368
0.13038836 -0.21856715 0.97796035 0.96209174 -0.27169076 0.023739662 0.021418491
0.12351263 -0.12221069 0.98140681 0.99910772 0.03524407 -0.023274291 0.016527323
0.11406194 -0.1777925 0.99257118 0.68099833 0.12499382 0.72153842 0.018352071
0.12908398 -0.22044998 0.98849517 0.90439129 -0.37524474 0.20314483 0.020723188
0.11937901 -0.16199505 0.98376453 0.84942174 0.24357767 0.46813738 0.033806514
0.09517239 -0.079616621 0.95189482 0.37282732 0.88973254 -0.26339298 0.033312533
0.11746811 -0.24769481 1.1048453 0.65214425 0.63294512 0.41723895 0.015770134
0.045333903 -0.21771884 1.0480114 0.28846821 -0.59096229 -0.75335884 0.032845251
0.1351956 -0.2944887 1.086725 0.95347929 0.16356316 0.25322771 0.015985994
0.13573968 -0.30400744 1.0873555 0.93602139 0.22774421 0.26832175 0.017335113
0.14006798 -0.27716526 1.0419205 0.98096108 0.16880061 0.096029527 0.027903058
0.13957179 -0.27953202 1.0428265 0.99430043 0.082421176 0.067627154 0.011808394
0.13895595 -0.26616216 1.0262065 0.93905407 0.29409435 0.17800565 0.05631854
0.056621324 -0.23252584 1.067968 0.095952958 0.87737048 0.47012138 0.057025831
0.09898109 -0.24327666 1.0460554 0.36750799 0.92936331 -0.034953363 0.02476535
0.15711188 -0.34171426 0.92800283 0.97068208 0.094978854 -0.2208057 0.017922554
0.15233184 -0.39544019 1.0668808 0.99563277 0.051541444 0.077838898 0.0075346474
0.13843815 -0.30085552 1.0764523 0.92213905 0.25256357 0.29303774 0.022729851
0.13179642 -0.2443912 0.92585534 0.76164544 0.32517058 -0.56050009 0.03979449
0.13412753 -0.30182862 1.0967997 0.96028984 0.035041455 0.27679515 0.017027702
0.11293159 -0.24428761 1.1080133 0.6496523 0.63897544 0.41190076 0.017684491
0.14474827 -0.35714751 1.0789945 0.98065275 0.10900792 0.16259627 0.0011210307
0.1086961 -0.24849875 1.1888764 0.42075142 0.87757325 0.22985502 0.05323052
0.13467444 -0.24485451 0.92957437 0.78843725 0.29817322 -0.53801435 0.039446432
-0.013204474 -0.22283129 1.1076468 0.9674949 0.089274764 0.2366084 0.05472381
0.069111697 -0.23992214 1.1994654 -0.017956024 0.99509323 0.097298786 0.019139113
0.10056083 -0.2983124 1.3050193 0.98617208 0.090793751 0.13864072 0.0012308144
0.10237411 -0.31269756 1.3058475 0.98690963 0.10014261 0.12641549 0.0042228866
0.11548831 -0.15064983 0.98387331 0.82129019 0.083644226 0.5643456 0.035984535
0.1259678 -0.27311757 1.1398586 0.99639988 0.045226064 0.071707316 0.02187453
0.041935027 -0.2412681 1.1355361 0.1104387 0.98369265 0.14195822 0.031984925
0.029878795 -0.23226574 1.2270824 0.052334491 0.98179871 0.18257126 0.011412169
0.11043704 -0.28154263 1.2261732 0.9883945 -0.028865051 0.1491411 0.00050710794
0.099591546 -0.089805886 1.0645553 0.69042033 0.72337317 -0.007136263 0.0084317671
-0.029919444 -0.074939094 1.0397568 0.0047369986 0.99970442 0.023845894 0.00042599597
0.012404212 -0.22900125 1.1668606 0.00020610055 0.97824496 0.20745261 0.0018771464
0.11718343 -0.24958533 1.1089336 0.65534747 0.64044338 0.40043968 0.014715172
0.070469715 -0.077999368 1.0638728 0.4572731 0.88926381 0.010541494 0.017678101
-0.11677702 -0.074319676 1.2286217 -0.036866002 0.99930948 -0.0046436177 0.00055889244
-0.046721045 -0.080319941 0.93089747 -0.02821739 0.92908269 -0.36879411 0.0071528186
0.02157896 -0.077571943 1.0192038 0.20203297 0.9002561 0.38564444 0.010304561
-0.0368414 -0.073345564 1.24072 0.020407286 0.99954253 -0.022321654 0.00080815586
0.085193604 -0.10257906 1.2074788 0.88718903 0.43597513 0.15106711 0.0047842232
-0.0057359505 -0.18915795 1.0845221 0.71906316 0.044590175 0.69351268 0.0040940591
-0.0026648121 -0.21488251 1.0858647 0.71276838 0.14031036 0.68722218 0.029677883
0.11695012 -0.1710725 0.98910862 0.8397103 0.19660456 0.50619489 0.037954003
0.095103458 -0.078933619 0.96376485 0.41368589 0.90599191 -0.089680515 0.019971579
0.13921197 -0.28744045 1.0488613 0.99208277 0.11272913 0.055352889 0.003888248
0.017788501 -0.21200328 1.06883 0.59377223 0.21891019 0.77428216 0.027289493
0.059485152 -0.24419153 1.352955 0.44301975 0.33989915 0.82957941 0.020049477
0.059856389 -0.085021362 1.3166125 0.96007633 -0.14035808 0.24197732 0.14299215
0.13801907 -0.26239178 1.1480774 0.9844206 -0.17392175 0.025833087 0.045207653
0.10155109 -0.093899101 1.0812068 0.76625794 0.64009869 0.055878293 0.0068586608
0.069074295 -0.082420319 1.0831875 -0.28519547 0.95801401 -0.029539751 0.072447389
0.13121673 -0.1954605 0.94679707 0.70056832 0.29257292 -0.65084952 0.029317541
0.06954629 -0.075245231 1.0183609 0.24477164 0.9644109 -0.099991828 0.0064227772
0.071238987 -0.075184174 1.1091154 0.027953776 0.99568927 -0.088439502 0.0073487181
0.050739508 -0.23544884 1.0734611 0.084196582 0.98084706 0.17564145 0.056100875
0.044652171 -0.16433571 1.0440865 0.55572599 -0.01161002 0.83128446 0.061627783
0.1200078 -0.12736693 0.97743094 0.99919409 -0.0099772941 -0.038880486 0.016107703
0.084329411 -0.30251712 1.3572787 0.89742446 0.02770438 0.44029734 0.003888295
0.066436946 -0.19590662 1.2774376 0.81873399 0.033808473 -0.5731768 0.011116951
0.10387883 -0.10280786 1.0794455 0.87532359 0.4804869 0.054230362 0.027513245
-0.068212315 -0.075294144 0.98863715 0.011495453 0.99982703 0.014619559 0.00070553593
0.052575085 -0.12577689 1.2505522 0.86240387 -0.29462206 -0.41165194 0.0040411279
0.16514151 -0.40345755 0.92087311 0.83679724 0.31068623 -0.45082644 0.02419549
0.080141328 -0.24088992 1.1854773 0.14935777 0.9805094 0.12764576 0.01010323
0.15542017 -0.32902518 0.99266374 0.98044658 0.17864998 0.082515769 0.0032145737
0.049386308 -0.077097282 1.2217525 0.15014619 0.98554331 -0.078488782 0.014103157
0.0095499912 -0.075990193 1.2560791 0.1023483 0.99397898 0.039124217 0.00045077084
0.046092045 -0.14592373 1.2436128 0.76493865 0.0072390782 -0.64406246 0.021613233
0.10345377 -0.098032013 1.0877372 0.75907373 0.65041298 0.027750639 0.012321424
0.10980206 -0.088834159 0.95568925 0.73863024 0.6002686 -0.30676198 0.029047213
0.037901513 -0.18612266 1.2199702 0.56924462 0.31824538 -0.75807679 0.0046861232
0.11872621 -0.36231273 1.278674 0.95136184 0.089950167 0.29465166 0.060219567
0.16059509 -0.39340928 0.91902053 0.81057382 0.34970075 -0.46976525 0.019133491
-0.022059126 -0.21650532 1.1441981 0.80614471 0.5823881 0.10466577 0.049638275
0.12151618 -0.34393734 1.239414 0.99016768 0.11001028 0.086403981 0.0061062854
-0.042605907 -0.074326694 1.0299042 -0.0087593738 0.99980962 0.017434502 0.00074082584
0.12575258 -0.34731209 1.1770389 0.98516142 0.07878463 0.15247948 0.0015999369
0.087995164 -0.19076878 1.0094308 0.56208622 -0.024434209 0.82671767 0.0034912524
-0.024396233 -0.074635051 1.1654674 0.0044584605 0.99332285 0.11528146 0.0022640484
0.080469906 -0.24214159 1.2240285 0.1740097 0.98461568 0.01589442 0.021189798
0.15120718 -0.36369556 1.0544571 0.97839928 0.13124532 0.1597169 0.00073018303
0.068118721 -0.12101658 1.3053691 0.83832538 0.28606766 0.46408597 0.041501909
0.12647426 -0.27320552 1.1369798 0.99875629 0.046689253 0.01749458 0.022843029
0.12653658 -0.31630448 1.1853135 0.98163575 -0.038690489 0.18679984 0.0035207875
0.13437839 -0.41340676 1.2206678 0.21199937 -0.70567882 0.67607224 0.00090049056
0.084787644 -0.10493679 1.199726 0.88740093 0.43492156 0.15284933 0.0043146447
0.10089448 -0.24198194 1.1786252 0.40427226 0.87506473 0.26613069 0.061963048
0.066111289 -0.14205165 1.3232652 0.58743817 0.20051466 0.78403461 0.037387896
0.08414565 -0.18009928 1.013204 0.57212752 -0.0041390574 0.82015413 0.0027641654
-0.043957494 -0.33180076 1.3520354 -0.078114398 -0.065182403 0.9948113 0.001723317
-0.019849544 -0.32635882 1.3534102 -0.028721582 -0.038234457 0.99885595 0.00052782422
0.014730426 -0.31022424 1.3543056 0.00064449478 -0.059601896 0.99822199 0.0045598536
-0.15110008 -0.38658747 1.336522 -0.075993791 0.1941943 0.97801518 0.0016122794
-0.17555144 -0.38468501 1.3347112 -0.037184991 0.17973843 0.98301136 0.0012155434
0.10195789 -0.2888422 1.2920039 0.98586285 0.09555117 0.13763915 0.00084272673
-0.16808899 -0.39731669 1.3389961 -0.054594669 0.29612312 0.95358831 0.0020561391
-0.11434491 -0.41333804 1.3517607 -0.025381021 0.18522994 0.98236734 0.021551274
-0.20909993 -0.18689561 1.2336777 0.5574398 0.17114833 0.8123849 0.021612477
0.065664604 -0.105072 1.3097448 0.78903258 0.031573839 0.6135394 0.023844551
-0.095061392 -0.34230047 1.3400223 -0.12630898 0.23553582 0.96362281 0.0032346132
0.064061627 -0.20393178 1.3386322 0.74106783 0.13908522 0.65686667 0.033968076
-0.12391701 -0.34832773 1.3390027 -0.1037657 0.20021674 0.9742412 0.0051623876
-0.069164909 -0.36206448 1.3433248 -0.097531833 0.2316484 0.96789807 0.031591553
-0.025298838 -0.2657547 1.3447391 -0.30635765 0.20559688 0.92944872 0.011888571
0.064002424 -0.23211111 1.3439444 0.67802948 0.26121345 0.68705428 0.024084877
-0.11739107 -0.34863436 1.3399066 -0.1034228 0.21275339 0.97161698 0.0023708495
-0.1876919 -0.1540021 1.2153558 0.57753968 -0.077972494 0.81263036 0.013886006
0.11136819 -0.28043622 1.220897 0.98644751 -0.04589178 0.1575285 0.00061937358
-0.031047011 -0.38861281 1.3610713 -0.13193154 0.13014635 0.98267794 0.0018876673
0.10193696 -0.40813693 1.3631434 0.65432143 0.1466043 0.74186963 0.013019292
-0.076444581 -0.28067642 1.3411196 0.041490622 -0.70148152 0.71147889 0.011048801
0.0020672735 -0.087089531 1.3197941 -0.17138185 -0.24873264 0.95328927 0.0071102548
-0.019225491 -0.38948011 1.3627149 -0.16457438 0.12358541 0.9785918 0.0028668626
-0.22431844 -0.17088589 1.2417263 0.51684606 -0.004365162 0.8560673 0.018859237
0.06552279 -0.20592202 1.3365947 0.76965284 0.16341883 0.61719424 0.03328076
0.0061550834 -0.24304827 1.3254565 -0.67737204 0.50158161 0.53812927 0.038130701
-0.073452495 -0.35670462 1.3470176 -0.11806559 0.23052362 0.96587747 0.018533435
-0.094811216 -0.33996791 1.3386047 -0.11705411 0.23142023 0.96578616 0.0057734707
-0.16924576 -0.36921245 1.3330438 -0.038293727 0.14315121 0.98895973 0.0017279924
0.033287596 -0.30847108 1.3539563 -0.046118654 -0.030693876 0.99846429 0.0043137432
-0.0024483039 -0.36631966 1.3650774 -0.047408376 -0.019225389 0.99869061 0.0015230994
-0.13831669 -0.1691532 1.1899328 -0.12289345 -0.49351522 0.86101103 0.049066182
0.015000434 -0.31552911 1.355728 -0.036833316 0.028577149 0.99891275 0.0057270038
-0.12777407 -0.28838661 1.3290001 -0.085544728 0.073911041 0.9935891 0.013757124
0.070951842 -0.090141289 1.2575545 0.9743911 0.1241219 -0.18749844 0.078650154
0.014147793 -0.095455982 1.3203843 -0.18413426 -0.24909723 0.95081288 0.0050913934
0.011272017 -0.10399701 1.3174295 -0.18784301 -0.27180153 0.94384259 0.0071951486
-0.20952585 -0.15218838 1.2311988 0.62328428 -0.086169809 0.77723318 0.005601312
0.08304204 -0.16160329 1.0122975 0.58610678 0.043612719 0.8090592 0.0024528822
-0.09365274 -0.10735091 1.3091565 -0.0080050472 -0.19985847 0.97979212 0.029905023
0.026380688 -0.3701039 1.364611 -0.092936687 0.15137377 0.98409796 0.0063258396
0.038032643 -0.38789573 1.3696043 -0.17018732 0.110144 0.97923672 0.002375856
-0.040679391 -0.41116533 1.3638722 -0.13950035 0.19027622 0.97176886 0.0015130257
-0.18750574 -0.38821283 1.3354335 -0.036620788 0.20148094 0.97880763 0.0031733615
-0.16482835 -0.32102683 1.3294947 -0.096114017 0.058902755 0.99362606 0
-0.14799868 -0.38864467 1.3373812 -0.081884027 0.21329828 0.97354966 0
-0.052749284 -0.25122678 1.3366234 0.20031722 0.63582122 0.74538875 0.052503906
-0.10363562 -0.18332565 1.1857966 -0.23558642 -0.0069269268 0.9718287 0.00525023
-0.13483939 -0.17266925 1.1859829 -0.087275133 -0.42032161 0.9031682 0.035065737
-0.1181033 -0.19103457 1.1833786 -0.12702248 0.029055683 0.99147421 0.004510032
-0.16302572 -0.35149074 1.3313892 -0.083367765 0.08743114 0.99267596 0
-0.10123277 -0.397071 1.3505805 -0.13673839 0.1875803 0.97268504 0.0052072443
-0.11913181 -0.4108119 1.351576 -0.045394234 0.24092834 0.96948075 0.026667058
0.088053942 -0.17581333 1.009649 0.592547 0.031099515 0.80493534 0.0029037201
0.10682902 -0.27017912 1.2523581 0.98608786 0.073454067 0.14911462 0.010067089
0.039443143 -0.37202528 1.3669897 -0.20950361 0.15287718 0.96578288 0.0028776922
0.057394519 -0.40925634 1.3727294 -0.051093768 0.071585491 0.99612492 0.0052379635
0.14503647 -0.30902073 1.0217171 0.96747094 0.24389881 0.067180432 0.0032287042
-0.10778467 -0.3844381 1.3466289 -0.20274509 0.20266366 0.9580301 0.002291925
0.091778085 -0.39991188 1.3693699 0.54133445 0.16242431 0.82496995 0.019867033
-0.077224821 -0.415093 1.354352 -0.18990353 0.0088023031 0.98176324 0.0023258131
-0.0062775272 -0.41264367 1.3725998 -0.17568307 0.22735208 0.9578343 0.00050069857
0.04259431 -0.28907904 1.3574743 -0.056798726 -0.0078850612 0.99835455 0.0082434388
0.084722295 -0.40632844 1.3744476 0.32974753 0.18222675 0.92631525 0.046656515
-0.035211403 -0.40656975 1.3633219 -0.13958269 0.18802638 0.97219479 0.0015409791
0.087584786 -0.10313677 1.1838354 0.91918933 0.36860844 0.138632 0.0021598106
-0.11777496 -0.22522423 1.1932999 0.13571031 0.67703593 0.72332907 0.074180253
-0.16701207 -0.39528224 1.3377489 -0.049648374 0.25152758 0.96657592 0.0024504892
0.010847664 -0.30047119 1.3569038 0.021852206 -0.089627437 0.99573553 0.0026370105
0.05259078 -0.11567398 1.3245049 0.36436048 0.12798901 0.9224208 0.040650785
-0.031506829 -0.42240345 1.3676205 -0.1763078 0.23442614 0.95601249 0.0002646645
0.12995875 -0.30198836 1.1103647 0.97381067 -0.049805202 0.22183828 0.013079844
-0.16865775 -0.33005074 1.3296071 -0.10179348 0.057158228 0.9931621 0
-0.029187681 -0.31769955 1.3540957 -0.054706063 -0.027947713 0.99811131 0.0021514976
0.027231524 -0.3420988 1.3586169 -0.20145422 0.15893902 0.96651673 0.0021434431
0.14993815 -0.34578601 1.0465418 0.98941648 0.076558694 0.12326303 0.0025651923
0.10038422 -0.40675035 1.3642577 0.65585393 0.15085524 0.73966104 0.012791816
0.10097549 -0.3956722 1.3601019 0.63124329 0.16774996 0.75722635 0.007502194
-0.036013331 -0.26031727 1.3409388 -0.24438614 0.33681059 0.90930408 0.036037154
0.086253598 -0.27518451 1.3404211 0.73801768 0.25475484 0.62484396 0.017912207
0.023395052 -0.39474067 1.3670373 -0.13022931 0.21021894 0.96894187 0.0030067882
0.0083627366 -0.13858876 1.3029584 -0.54899704 -0.27311686 0.78994268 0.027532795
-0.025469864 -0.26320824 1.3446368 -0.30635765 0.20559688 0.92944872 0.011888571
