# .PCD v0.7 - Point Cloud Data file format
VERSION 0.7
FIELDS x y z
SIZE 4 4 4
TYPE F F F
COUNT 1 1 1
WIDTH 1383
HEIGHT 1
VIEWPOINT 0 0 0 1 0 0 0
POINTS 1383
DATA ascii
-0.075996608 -0.022180559 0.59282511
0.1082086 -0.023686349 0.6439662
0.016548799 -0.01091984 0.67268151
-0.002125466 -0.029084319 0.73952389
0.094462499 -0.016881701 0.64800882
-0.076839983 -0.01276743 0.70232439
0.017771641 -0.01326174 0.70630348
0.091722719 -0.01657808 0.66620213
-0.02217445 -0.2795991 0.50314039
0.1257617 -0.38298479 0.63665771
-0.02176087 -0.01858962 0.65600288
0.1350956 -0.02551174 0.58889931
-0.026324499 -0.02223563 0.74223512
0.056068659 -0.021356881 0.64955932
0.68551028 -0.59945261 1.1866291
0.57337183 -0.3722012 0.57490098
0.08208026 -0.021974441 0.69917172
-0.056597441 -0.02403301 0.5530079
-0.06154095 -0.01570785 0.724693
0.73086381 -0.57884169 0.76307869
0.0017307251 -0.020341519 0.67298257
0.47493511 -0.3458648 0.58208001
0.01558576 -0.3534247 1.261516
-0.057993378 -0.1101056 0.48593861
0.1410854 -0.1390304 0.58370638
-0.053592119 -0.023961309 0.7416172
-0.070262194 -0.1741311 0.4930366
-0.079962254 -0.04230684 0.54420918
-0.01067889 -0.001089215 0.68542171
0.037043739 -0.02242953 0.61395448
-0.038264692 -0.019749049 0.69185722
0.66824579 -0.56944579 1.06783
0.68521249 -0.58903521 0.87152839
0.01134197 -0.1641362 0.51929802
-0.036787629 -0.1147382 0.4909502
0.69698578 -0.59048373 1.028005
0.0052254451 -0.048005641 0.7975595
-0.0143077 -0.0194906 0.63886899
-0.0540579 -0.2367027 0.4960503
0.110122 -0.29869899 0.57150972
-0.047074471 -0.12711941 0.50463003
-0.092857987 -0.24617369 0.5254029
-0.03227726 -0.022559229 0.6187343
0.66243899 -0.38046011 0.4264234
0.71090519 -0.36672249 0.28861579
-0.020620409 -0.050951481 0.70674223
-0.071999863 -0.2110249 0.48737091
0.45156831 -0.4647249 0.57086217
0.57996988 -0.34510741 0.51733309
0.04184192 -0.01622921 0.63380462
0.1051821 -0.01272285 0.56378073
0.12921339 -0.021521389 0.61378437
0.1307808 -0.02656227 0.60204738
0.56327158 -0.37942141 0.28502449
0.5689131 -0.37833029 0.28585091
0.71394801 -0.37464991 0.2786693
0.61121267 -0.34996429 0.2772831
0.45471779 -0.3574968 0.26576811
0.66115499 -0.36383799 0.3335118
0.61956018 -0.37816599 0.30489001
0.078445941 -0.035980579 0.73604977
-0.053978439 -0.1117958 0.4949626
0.5254969 -0.33704621 0.5525983
0.66864371 -0.3696098 0.33746681
0.1108783 -0.2417224 0.57909179
-0.045602109 -0.36402929 1.293928
-0.078849576 -0.1360617 0.51545322
0.02558939 -0.066724658 0.53096938
-0.096670881 -0.01111853 0.70117033
0.1387244 -0.05055875 0.59878957
0.03629132 -0.046850741 0.53868502
-0.072914347 -0.020096241 0.71555662
-0.096240208 -0.02599901 0.57152718
-0.14906579 -0.068014592 0.6517871
-0.1199089 -0.0093715191 0.6588679
-0.040744141 -0.016150741 0.71618909
-0.031583991 -0.03543159 0.56530792
0.083341368 -0.23499 0.590832
-0.1408333 -0.038334999 0.64159667
0.13649879 -0.046729028 0.60001838
0.04542001 -0.01159194 0.74356103
0.03821959 -0.017416 0.62807143
0.32508081 -0.3099007 0.96611398
0.0036135169 -0.01066989 0.51682037
0.042439301 -0.0037791131 0.73147869
0.075222231 -0.02258298 0.73964667
0.01930997 -0.02376011 0.49448419
0.45863169 -0.1998494 0.2014356
0.4637233 -0.20877109 0.2019811
0.3340351 -0.351073 0.21610411
0.2723479 -0.35699531 0.2952278
-0.095133163 -0.2069591 0.57465261
-0.080805659 -0.28040701 0.53569978
-0.072716333 -0.1364246 0.53500909
-0.052831888 -0.093090467 0.5130958
-0.052502509 -0.2070279 0.51912022
-0.1083429 -0.26683819 0.58458322
-0.067032874 -0.1104607 0.5557059
-0.049777389 -0.053038061 0.50635493
-0.051119689 -0.1712108 0.51360631
-0.1252505 -0.30857119 0.62774408
-0.01459803 -0.055824969 0.51628131
-0.056778669 -0.29306591 0.51641929
-0.064599477 -0.17724741 0.51816672
-0.02555567 -0.032986429 0.61352938
-0.051895801 -0.1018862 0.50216937
-0.062028229 -0.1097301 0.51832759
-0.05609107 -0.2267901 0.51364273
-0.05856083 -0.2089341 0.49857721
-0.052590009 -0.2796585 0.52593923
-0.057342079 -0.1558935 0.49248931
-0.080441236 -0.125668 0.5765754
-0.062555671 -0.35350519 0.52970541
-0.0096988082 -0.03539592 0.53594398
-0.01361743 -0.17636719 0.52897942
-0.066161692 -0.20987649 0.5177691
-0.057266649 -0.33780441 0.52189219
-0.068990052 -0.28454861 0.52472281
-0.063887119 -0.2649124 0.52595061
-0.076020539 -0.03444114 0.55547011
-0.055044889 -0.04570815 0.51745409
-0.01126474 -0.1072764 0.53262007
-0.041168928 -0.1207589 0.50410181
-0.033619329 -0.06246734 0.50401223
-0.05902338 -0.076197423 0.5177114
-0.055518389 -0.05126464 0.53670919
-0.057307299 -0.093541227 0.51028723
-0.083280802 -0.13194381 0.55809683
0.2894707 -0.36912909 0.2896153
-0.034988951 -0.082766414 0.50926048
-0.070595801 -0.1486325 0.52989399
-0.030657411 -0.25129139 0.53499401
-0.0549828 -0.02014244 0.49333099
-0.072311997 -0.23124669 0.50197512
-0.054406822 -0.1726277 0.49775279
-0.02033964 -0.1050669 0.52031302
-0.086639747 -0.24235 0.54652172
-0.038319409 -0.03215665 0.49701431
-0.02938816 -0.02411261 0.56172132
-0.045300599 -0.30436739 0.52066088
-0.074543498 -0.01644522 0.57180172
-0.1194914 -0.25789091 0.59682828
0.23371699 -0.34163421 0.26362869
-0.089131832 -0.082997501 0.59853268
0.1033465 -0.2316258 0.58881909
0.24862731 -0.3444047 0.27883309
0.43867189 -0.2100435 0.2095606
0.1054499 -0.034182221 0.58047688
0.030731261 -0.0372473 0.54816651
-0.068531036 -0.1098871 0.55740249
-0.1549647 -0.3172327 0.72532523
-0.080568314 -0.2282995 0.58681738
-0.1374075 -0.27004841 0.69760263
-0.1116823 -0.25634521 0.65188962
-0.1369258 -0.2315139 0.70964521
0.069310427 -0.036886249 0.66948873
0.071968563 -0.038268689 0.75841051
-0.081968367 -0.04084298 0.66135788
-0.078218818 -0.032744382 0.673033
-0.043997169 -0.035026848 0.67954171
-0.1267146 -0.2096561 0.66379428
-0.076944053 -0.2394059 0.54777879
-0.12851121 -0.31255531 0.64610368
0.1006994 -0.0310128 0.66081911
0.030786101 -0.039938569 0.72282851
0.0038421149 -0.038059589 0.71454072
-0.046443701 -0.020850031 0.75584197
0.059239689 -0.061090291 0.75724798
0.109194 -0.04436833 0.74078017
0.01323503 -0.5698837 1.365168
-0.1344873 -0.27323759 0.69844592
-0.080127239 -0.2659671 0.57195377
-0.042954981 -0.0404802 0.55547172
-0.082487822 -0.2265778 0.58642763
0.049159821 -0.042917069 0.56947792
-0.063761003 -0.14589231 0.54333937
-0.13283721 -0.16745169 0.7034483
-0.048243169 -0.057071451 0.53984952
-0.059223648 -0.21960139 0.54824919
-0.14943869 -0.32005411 0.70240343
-0.0143069 -0.02876934 0.66089958
-0.02740794 -0.039904591 0.5741871
-0.056666609 -0.1185411 0.56013387
-0.1114499 -0.31935641 0.64242548
-0.029842259 -0.046619531 0.63123238
-0.14158329 -0.33465311 0.71605551
-0.1070088 -0.067456961 0.56746179
-0.07534039 -0.033936381 0.67241663
-0.092153847 -0.099897534 0.6233651
-0.1059442 -0.1905812 0.65788358
-0.090028353 -0.03913641 0.65956128
-0.1149463 -0.13819499 0.66508359
-0.088709123 -0.1672941 0.60554677
-0.1340154 -0.1047315 0.71353978
0.092749119 -0.043209791 0.60271537
-0.1219622 -0.084966093 0.66659027
-0.05622584 -0.1603373 0.5203284
-0.090963542 -0.067809403 0.65528768
-0.099587858 -0.038591798 0.67769718
0.1252531 -0.03190523 0.60790569
-0.058552559 -0.1863571 0.5402385
0.02229226 -0.03885603 0.55773193
-0.1368323 -0.32650521 0.6930337
-0.095303059 -0.28579339 0.58839011
-0.108157 -0.33219349 0.64039803
-0.1000944 -0.078872323 0.63259232
-0.07548368 -0.1317728 0.58028132
-0.1208481 -0.1160878 0.67741138
-0.05307382 -0.1084661 0.54145223
-0.074418508 -0.29938841 0.55341369
-0.068880819 -0.27332059 0.53151238
-0.03487939 -0.043228149 0.68287712
-0.070626557 -0.152483 0.54656267
-0.044998761 -0.58158308 1.463397
-0.1166784 -0.25133041 0.64764577
-0.1126162 -0.1117857 0.64496821
-0.109616 -0.276061 0.62255621
-0.063996553 -0.1864581 0.56974798
-0.1030352 -0.20764241 0.61967289
-0.1548394 -0.3607831 0.81907672
-0.075488754 -0.3025035 0.5678733
-0.1272116 -0.30669159 0.65698779
-0.085044153 -0.08724618 0.60046422
-0.1237127 -0.28914979 0.62661892
-0.1113055 -0.091133058 0.63761938
-0.1149716 -0.067415178 0.65005928
-0.12009 -0.2507287 0.68540043
-0.055462658 -0.082057647 0.57082433
-0.048317019 -0.041767601 0.76219648
-0.1263946 -0.064820647 0.67875272
0.05432177 -0.028298261 0.58341831
-0.030966161 -0.017995359 0.68281537
-0.1351618 -0.098225176 0.70780653
-0.04577053 -0.17752381 0.53973061
-0.1117338 -0.30119401 0.65104622
-0.060384508 -0.046852712 0.56379712
-0.073755257 -0.3474077 0.58924651
-0.37411919 -0.34409171 0.66084331
-0.14207271 -0.29737449 0.70302957
-0.062917858 -0.30330819 0.53389382
-0.090072572 -0.1515957 0.65185338
-0.08923173 -0.1151031 0.61148369
-0.12891071 -0.2374876 0.656165
-0.1025388 -0.16522861 0.65579277
-0.1729711 -0.33443901 0.8022173
-0.001490712 -0.028118789 0.61158729
-0.1572535 -0.33892539 0.71683979
-0.087849379 -0.040058311 0.74416679
-0.069585562 -0.1860531 0.58769703
0.076765537 -0.048433419 0.62893522
-0.071973443 -0.3525185 0.57265931
-0.091935463 -0.32252869 0.55007738
-0.071567118 -0.08995086 0.56037682
-0.056788031 -0.35904539 0.53269237
-0.094051316 -0.3458347 0.5700655
-0.1461152 -0.1215689 0.70616579
-0.1564161 -0.31267241 0.72265452
-0.1638632 -0.3330971 0.70904309
-0.1255389 -0.34857959 0.68046069
-0.082219601 -0.2788972 0.58805293
-0.095358491 -0.3455216 0.62333292
-0.052354991 -0.19109111 0.52557182
-0.1289342 -0.1833107 0.6810472
-0.068766773 -0.2860271 0.52337283
-0.1386482 -0.1101457 0.72309422
-0.041629791 -0.2060257 0.53049231
-0.1132508 -0.060953438 0.7085911
-0.126151 -0.1484728 0.70338219
-0.1216272 -0.1180159 0.66700512
-0.15349831 -0.34311211 0.81545192
0.057645742 -0.02365616 0.61113232
-0.095234513 -0.083881907 0.55876368
-0.1355067 -0.2656641 0.63025212
-0.085698009 -0.1954232 0.59534448
-0.080456853 -0.3284497 0.55265749
-0.1218753 -0.34296981 0.64426398
-0.1209113 -0.29727739 0.7436952
0.001099288 -0.022901149 0.58454078
-0.1140109 -0.2163827 0.6684407
-0.1210328 -0.27046341 0.67863828
-0.068639159 -0.1493272 0.55980432
-0.090036087 -0.2609472 0.60701251
-0.1383131 -0.27658391 0.68882972
-0.44986469 -0.38399959 0.99042809
-0.03874677 -0.58700842 1.32795
-0.1161912 -0.24240109 0.64239299
-0.14386991 -0.21938869 0.72697568
-0.4694199 -0.32316539 0.87686789
-0.08974731 -0.28053579 0.57205141
-0.1458388 -0.2471597 0.70483512
-0.093944252 -0.2415773 0.59451061
-0.14526971 -0.19580629 0.72735441
-0.1023515 -0.02997249 0.7139504
-0.1277685 -0.3116686 0.64699018
-0.1150169 -0.2627466 0.63080591
-0.15049639 -0.17335831 0.70469028
-0.052134171 -0.019664999 0.53939611
-0.059870031 -0.020736489 0.62422788
-0.003137575 -0.02875161 0.54401499
-0.01414295 -0.02361572 0.64032787
-0.051317502 -0.041940209 0.51698953
-0.057777021 -0.2067062 0.52537328
0.1026337 -0.01502371 0.59664828
-0.01298399 -0.051238269 0.56429839
-0.030563399 -0.018556589 0.5953756
-0.03385238 -0.035992149 0.57885152
0.01208502 -0.26914969 0.56425887
0.081252553 -0.30220109 0.59134191
-0.0340687 -0.03053668 0.61412632
-0.1054393 -0.035296138 0.65402591
0.1041909 -0.27512899 0.58503991
0.106033 -0.2054259 0.59210712
-0.058167361 -0.17063721 0.53021872
-0.067121863 -0.041135579 0.54646897
-0.074601173 -0.02990168 0.74778682
0.1012031 -0.033091281 0.58677769
-0.07147827 -0.03103104 0.60059428
-0.1104113 -0.084000111 0.64362949
-0.1243346 -0.044088211 0.6561892
0.04528686 -0.092262298 0.57131642
-0.077688463 -0.1388479 0.54804802
-0.081277996 -0.1988098 0.55170637
-0.1005256 -0.20764729 0.59002793
-0.088851973 -0.027122941 0.6257031
0.063637763 -0.02753583 0.59660077
0.0071761282 -0.032521669 0.57857043
0.1306712 -0.049074739 0.61478871
-0.14825501 -0.146102 0.6913017
-0.075703509 -0.030857179 0.56972879
-0.1483468 -0.18673129 0.70906848
0.062438499 -0.024121881 0.65695423
-0.07881631 -0.079154968 0.54877478
0.037481599 -0.02795619 0.63807201
-0.1247575 -0.034370571 0.66907477
-0.06055117 -0.18073981 0.51140791
-0.1428245 -0.1132797 0.68486649
-0.1562704 -0.2473335 0.72878098
0.12830681 -0.19287039 0.60504949
-0.13191549 -0.2243461 0.65279841
-0.01385418 -0.057286318 0.53158933
0.1203778 -0.2478614 0.59424359
-0.03173114 -0.065844513 0.52593923
0.074988447 -0.02521554 0.61156029
0.02243967 -0.03057849 0.55855548
-0.0145909 -0.032507211 0.67700422
0.097487517 -0.1134885 0.59458703
0.12841301 -0.2375717 0.60767919
-0.064971954 -0.3033531 0.50817412
-0.0508589 -0.28800929 0.51852709
-0.018098621 -0.096486628 0.53353798
0.047245 -0.113825 0.56365561
-0.101713 -0.1007043 0.61263973
0.073919952 -0.141261 0.57835883
0.049643409 -0.1512759 0.56515437
0.036707699 -0.1212296 0.55828911
0.0067226221 -0.1262721 0.55251282
0.13366561 -0.1166116 0.61658329
-0.097292483 -0.1465148 0.54804409
-0.06162237 -0.27944779 0.51865947
0.093108907 -0.1909229 0.59737659
0.088701688 -0.1737204 0.5879938
0.046863381 -0.2971153 0.56340718
0.05458717 -0.19850969 0.57437718
-0.1443502 -0.0097363591 0.70162863
-0.1015212 -0.02629593 0.68908268
-0.060236018 -0.2468482 0.51301348
-0.16236579 -0.29849949 0.69739151
0.1326232 -0.22212049 0.61074102
-0.06322208 -0.074310213 0.52260959
0.029434569 -0.25741181 0.558846
0.01480393 -0.31937701 0.57201779
-0.036144529 -0.1512928 0.53523052
0.048357129 -0.2345994 0.57990342
-0.15505821 -0.2641091 0.69583088
-0.1392203 -0.2225205 0.69620478
0.02647879 -0.029522929 0.57922202
-0.076629013 -0.031780928 0.68090707
-0.032701582 -0.031057781 0.70677918
0.03171381 -0.0379113 0.55427879
-0.044828121 -0.26089221 0.54864901
0.03133443 -0.28582099 0.56495541
0.070246652 -0.2365189 0.56599063
0.02720705 -0.064166218 0.54385728
0.072150163 -0.15612289 0.57646161
-0.076879904 -0.3203212 0.52710903
-0.1160268 -0.068320811 0.66346109
-0.093261413 -0.1460246 0.54992682
0.04658401 -0.26266921 0.56295019
0.1081685 -0.063810803 0.59849679
-0.063842297 -0.038337231 0.51766509
0.1341133 -0.05511811 0.61661398
0.041329298 -0.02192935 0.66295528
-0.0070284749 -0.2032595 0.54514188
0.054046661 -0.0301992 0.70757622
-0.040087879 -0.31106591 0.53748012
-0.023177089 -0.27440229 0.55123007
0.0056566149 -0.04944003 0.56432939
-0.1068356 -0.2373631 0.5939303
-0.035728529 -0.036373049 0.5193733
-0.45553091 -0.35821381 1.0640889
-0.030821729 -0.1542529 0.51967782
0.016477119 -0.028832881 0.55800349
0.006202355 -0.26080269 0.55264878
-0.0036346801 -0.31556019 0.566347
0.0094707459 -0.024262929 0.6634022
-0.1296165 -0.2317424 0.644054
-0.018812761 -0.1686715 0.53105801
-0.1370523 -0.048642781 0.66391772
-0.1025645 -0.067511857 0.58154672
-0.30068699 -0.4769623 1.494844
-0.02263828 -0.1050415 0.53435308
-0.0045317491 -0.2690241 0.53421789
-0.046452429 -0.03997061 0.53379512
0.12878101 -0.1067576 0.59225088
-0.053124439 -0.01835525 0.64509958
-0.041845109 -0.02706483 0.7438941
0.0084877089 -0.1143893 0.5474214
0.078033917 -0.19918589 0.58460408
-0.4820416 -0.247087 1.488027
-0.05066343 -0.1966515 0.54626387
-0.01773848 -0.1022693 0.55291128
0.01481039 -0.027850481 0.67271793
-0.05090047 -0.020472851 0.64430952
-0.017450741 -0.03630146 0.55927497
0.059780668 -0.066938519 0.59920979
-0.095301569 -0.32696021 0.54255289
-0.1522035 -0.2479417 0.69701082
-0.072626531 -0.05433017 0.53929621
0.2059982 -0.34930101 0.378741
0.1086088 -0.30223209 0.60306817
0.49200779 -0.32466891 0.23918959
0.259422 -0.33699709 0.29947329
0.2004241 -0.205496 0.90798879
0.1311543 -0.2233932 0.61726141
0.1179983 -0.2436931 0.57956022
0.098575681 -0.2955001 0.62691659
0.116449 -0.097717367 0.60753441
0.1276098 -0.02976954 0.68465018
0.091859862 -0.1144836 0.60435963
0.092222407 -0.091376357 0.61370808
0.073048502 -0.31298411 0.60705239
0.072199211 -0.1221847 0.56550032
0.074209012 -0.022286469 0.57482523
0.044218399 -0.25031191 0.54156131
0.02746718 -0.2947984 0.57957423
0.021942841 -0.33094871 0.58441472
0.01610346 -0.017798539 0.56633723
-0.0148064 -0.1362907 0.45811871
-0.019258911 -0.29209641 0.54717928
-0.02330756 -0.081213772 0.4960914
0.048583459 -0.1538669 0.57260978
-0.01302075 -0.019977661 0.5759564
0.0458172 -0.1113767 0.55885631
-0.018118771 -0.01505628 0.61617887
-0.05332933 -0.29872701 0.54797047
-0.03262955 -0.1227535 0.53820848
-0.042009711 -0.21473619 0.53551322
-0.036331732 -0.04660577 0.68142807
-0.050022241 -0.095844239 0.52525711
-0.04704053 -0.042674541 0.53312641
0.026252391 -0.053837601 0.55746478
0.0233016 -0.155472 0.5648526
-0.084572293 -0.32256779 0.59733921
0.0038889551 -0.2529586 0.53388488
-0.060116779 -0.029582201 0.57973009
-0.068903923 -0.086558908 0.51673782
0.01123142 -0.1135434 0.55872071
-0.072408877 -0.01438215 0.59769678
-0.027921351 -0.26712009 0.55340219
-0.042398348 -0.32153031 0.50007451
-0.1337496 -0.2669135 0.62392592
-0.051138371 -0.14562871 0.52042341
0.1075731 -0.29133359 0.6021474
-0.15180729 -0.214293 0.69486779
-0.1658808 -0.19191439 0.68853772
-0.048647821 -0.052299231 0.53497517
-0.1870956 -0.27331671 0.73623419
-0.16194651 -0.028170761 0.69250089
-0.1120904 -0.078673452 0.62082517
0.018764989 -0.031232711 0.64644378
0.44135121 -0.1952235 0.2059643
0.26068011 -0.33374831 0.27161649
0.13090409 -0.095463872 0.59985453
0.0017691849 -0.023798911 0.55345929
-0.065114863 -0.1408266 0.54365039
-0.055655181 -0.1785645 0.52961183
-0.075489759 -0.083638877 0.57123238
-0.056414541 -0.02856219 0.55107051
-0.054804619 -0.3320986 0.54524553
-0.066457748 -0.1218149 0.55864382
-0.1065188 -0.089868188 0.62891579
-0.1130356 -0.096061349 0.63941759
-0.1099937 -0.1147178 0.63349289
-0.081913948 -0.1041318 0.59394312
-0.087017879 -0.061182681 0.59073448
-0.060324129 -0.082993813 0.55571657
-0.077824533 -0.15138569 0.57737249
-0.071571112 -0.1870586 0.56032991
-0.07063067 -0.048808601 0.58116913
-0.063536637 -0.1558062 0.54947013
-0.1074342 -0.01389134 0.69155508
0.024515931 -0.01539531 0.57331991
-0.1193719 -0.028557541 0.65731943
-0.13529059 -0.075736143 0.71509081
-0.1358843 -0.062923193 0.71366441
-0.1329425 -0.085116118 0.73323572
0.071089678 -0.01870117 0.68291903
-0.070057273 -0.130201 0.56146657
0.052125748 -0.027266409 0.80181563
-0.072500996 -0.2166204 0.56358719
-0.077038407 -0.065679878 0.57210708
-0.057239588 -0.017073691 0.71340573
-0.06892848 -0.27096859 0.55495262
-0.056699932 -0.045288499 0.53945112
0.033986691 -0.0170925 0.76885319
-0.13959169 -0.06167746 0.7254144
0.015835941 -0.017681239 0.59249568
-0.060561601 -0.13455211 0.53057343
-0.081800938 -0.1132046 0.59668028
-0.06091762 -0.099807769 0.53462088
-0.0495128 -0.1238461 0.53544211
-0.16146851 -0.3283059 0.8191849
-0.060609881 -0.158766 0.53350168
-0.018635631 -0.016979931 0.73160613
-0.1438957 -0.07101813 0.7324093
-0.046408709 -0.016696841 0.56523049
-0.03640461 -0.01326236 0.65020663
-0.070575058 -0.08171472 0.56327862
0.054120839 -0.01232859 0.72792119
0.03646028 -0.017815139 0.71770781
0.1052881 -0.01564106 0.70524943
0.03685176 -0.01777616 0.58583552
0.1102257 -0.01412696 0.67538851
0.07390517 -0.02160993 0.59387958
0.0059571271 -0.0142408 0.74546659
0.027527271 -0.017001539 0.75176132
-0.016118821 -0.019134071 0.77808249
-0.1108175 -0.01448739 0.74689221
-0.05040234 -0.01344466 0.55685318
0.039164841 -0.01736718 0.58407748
0.04709959 -0.01299497 0.68650252
-0.031789299 -0.01381561 0.58800602
-0.067461669 -0.01373565 0.63434589
0.108371 -0.01318231 0.6924932
0.085057802 -0.01471725 0.71074319
-0.07608372 -0.3061277 0.56490111
-0.058487121 -0.27739269 0.54008198
-0.13350511 -0.026925979 0.7099703
-0.05158687 -0.01560932 0.64766592
0.061295629 -0.0087138414 0.6860562
-0.052182078 -0.021379109 0.60933179
-0.068943024 -0.28393659 0.54760611
-0.05378449 -0.071002513 0.52844858
-0.1115216 -0.01596665 0.69682199
-0.0053631072 -0.01557744 0.58956301
-0.08253336 -0.2390524 0.58172297
-0.1264448 -0.052152131 0.69872868
-0.06193858 -0.2175767 0.53848451
0.068555593 -0.01476428 0.72971821
-0.073069751 -0.020221259 0.57243448
-0.04497027 -0.016887899 0.6362921
-0.089830883 -0.075085074 0.62108958
-0.057151079 -0.1126046 0.5340386
-0.080730438 -0.1501703 0.59402382
-0.061938878 -0.01221925 0.76738662
-0.031932291 -0.01693609 0.78015357
-0.1404388 -0.03335822 0.73528111
-0.05656898 -0.2480578 0.53612381
-0.13053261 -0.046264648 0.69478369
-0.1364543 -0.094229907 0.683617
-0.061897699 -0.2201896 0.54133201
-0.1162339 -0.01954359 0.67529988
-0.061383128 -0.01653716 0.71393842
-0.072507739 -0.1229437 0.57704699
-0.1321252 -0.041869011 0.68387282
-0.073041439 -0.01503029 0.61595583
-0.066151083 -0.040191378 0.56769198
0.018540621 -0.01449016 0.66718018
-0.1321099 -0.01368615 0.72029293
-0.1433589 -0.05086052 0.72822201
0.065973759 -0.01374787 0.78570771
0.040098071 -0.02026272 0.79751551
0.02811867 -0.01343262 0.78541762
0.1214924 -0.01539102 0.65193582
0.1165522 -0.01766446 0.67955738
0.094651341 -0.01371983 0.67364073
0.1270065 -0.016422151 0.6466397
0.12776449 -0.01274154 0.63128781
0.09868896 -0.016959639 0.62364608
-0.1179407 -0.0286521 0.67507619
-0.067898437 -0.1821007 0.53954941
-0.1198887 -0.103826 0.66429728
-0.047310531 -0.01614264 0.56970471
0.0005838275 -0.02109134 0.6532371
-0.059944332 -0.134984 0.53597963
-0.01197201 -0.01396516 0.5932067
0.038169678 -0.33225179 1.250019
-0.1494316 -0.1991332 0.72434932
0.039948519 -0.34529299 1.245684
0.0229997 -0.35251239 1.2475621
-0.05258226 -0.02022272 0.75703549
-0.1353585 -0.019951461 0.73673391
-0.1437376 -0.1990356 0.73635548
-0.14513861 -0.2481638 0.73672229
-0.1381655 -0.1516718 0.74085218
-0.1341442 -0.055022512 0.73117572
0.027417479 -0.4602524 1.369126
0.01964277 -0.019144589 0.57000399
-0.087054312 -0.30677769 0.59514892
-0.066785343 -0.1247352 0.54768932
-0.020684959 -0.0145326 0.60795599
-0.08939594 -0.2484435 0.6004051
-0.094715297 -0.01453456 0.62705493
-0.080336511 -0.2650823 0.57582551
0.081546903 -0.01528817 0.74406868
-0.01482195 -0.01128829 0.6202715
-0.0790537 -0.01459336 0.63828272
-0.058698889 -0.01940757 0.69217408
-0.070601761 -0.01136407 0.67501873
0.084420443 -0.018646089 0.61110318
0.092106879 -0.01650181 0.65424597
-0.093250223 -0.01762688 0.66062868
0.03420591 -0.020724891 0.73846912
-0.1157222 -0.1567886 0.66434848
-0.1075812 -0.2312534 0.6167258
-0.1226714 -0.063381277 0.67781693
-0.01073372 -0.01491621 0.71735322
-0.043398019 -0.01628089 0.69529653
-0.095643699 -0.1418587 0.62166637
-0.093450733 -0.016804989 0.67260528
0.053462271 -0.01472065 0.63180459
0.071921527 -0.01511449 0.64948201
0.083396852 -0.017200319 0.63750768
-0.084021807 -0.02075493 0.67542118
-0.092651553 -0.26504609 0.61569488
-0.1428322 -0.2946215 0.69909161
-0.1311352 -0.2253949 0.65420729
-0.095632367 -0.268197 0.60020101
-0.1090924 -0.1627923 0.66503721
0.1138462 -0.01476079 0.615197
-0.1480148 -0.2372808 0.70235628
-0.13493469 -0.14041381 0.71143228
-0.13974871 -0.30159879 0.71498752
-0.1450946 -0.2038607 0.71913648
-0.13677751 -0.25416049 0.69380641
-0.1505293 -0.2319435 0.70382267
-0.1466236 -0.3014313 0.72184068
-0.064488173 -0.01736444 0.73340112
-0.1315949 -0.2116095 0.71836501
-0.14563701 -0.09980309 0.71443212
-0.104706 -0.01683766 0.71405709
-0.13798609 -0.132498 0.70673412
-0.15120991 -0.2334633 0.733172
-0.1513157 -0.26778939 0.7137922
-0.084239073 -0.018705551 0.75898021
-0.1650539 -0.28855801 0.73499048
-0.0171811 -0.01764801 0.78672647
-0.15039191 -0.3204743 0.72821659
-0.1418715 -0.116058 0.72612083
0.071646452 -0.33709729 1.228542
-0.1456742 -0.32665259 0.72694367
-0.1356114 -0.1196733 0.70621282
-0.1366695 -0.1180288 0.70849282
-0.1447726 -0.2290521 0.71090847
-0.1414535 -0.2409748 0.73921412
-0.1161718 -0.02676085 0.66760659
-0.11402 -0.09419933 0.6587097
-0.093558013 -0.1311851 0.60611618
-0.05758727 -0.048153251 0.5387373
-0.098656483 -0.05494592 0.64574289
-0.024697781 -0.020370871 0.548195
-0.1438864 -0.2058443 0.69383889
-0.035078701 -0.0124599 0.67850459
-0.1273651 -0.26974359 0.68136042
-0.1227365 -0.091630913 0.68854213
-0.1417781 -0.1186946 0.72582692
-0.1359081 -0.18488111 0.69875288
0.0014511941 -0.01184359 0.61992037
0.0085037947 -0.01695502 0.70967638
-0.1096804 -0.055204269 0.6625191
-0.12864719 -0.13021719 0.68733639
-0.035134729 -0.39813849 1.466884
-0.1258242 -0.1151723 0.68104482
-0.1095763 -0.049205631 0.66408253
0.080329843 -0.01468885 0.61931878
-0.13217171 -0.034925669 0.70420939
-0.1267378 -0.1843047 0.67013222
-0.061646279 -0.1410802 0.54894668
-0.1126944 -0.067688853 0.64667213
-0.1005605 -0.1537818 0.61811078
-0.095329113 -0.2601029 0.60226083
-0.074346237 -0.1086134 0.55572408
-0.1345717 -0.21831261 0.67900461
-0.1172651 -0.1148754 0.6561932
-0.1078578 -0.063258529 0.65065289
-0.07259798 -0.2747342 0.55611438
-0.01513964 -0.01789573 0.71403468
-0.02252638 -0.01336679 0.66717893
0.0083584189 -0.022749931 0.71437567
0.02753651 -0.01112857 0.60261089
-0.1211822 -0.1310599 0.66246682
-0.082768559 -0.1153827 0.61760962
-0.13298669 -0.212207 0.68385291
-0.075613499 -0.1920324 0.5606004
0.027396079 -0.01348048 0.60556138
-0.090625413 -0.19994199 0.59783852
-0.01047945 -0.01254961 0.65958017
-0.067264616 -0.3060528 0.54620397
-0.098108649 -0.23361009 0.59342909
-0.077103972 -0.095452547 0.57523233
0.057393491 -0.023851961 0.66388732
-0.12552521 -0.29139751 0.65615261
-0.057841118 -0.0073231161 0.55925518
-0.051547412 -0.01452065 0.58910358
-0.03083086 -0.01672164 0.6253162
0.02750266 -0.01690954 0.58325088
-0.01795936 -0.01606828 0.60507518
-0.1235171 -0.078348637 0.70479012
0.13025451 -0.015677961 0.62515497
0.1084443 -0.01631555 0.6540938
0.1009748 -0.01543111 0.72361159
-0.1319304 -0.31974921 0.71406889
0.023926681 -0.01228231 0.70658672
0.039294451 -0.01967174 0.70641267
0.036886569 -0.01356399 0.70136207
-0.13100369 -0.2464859 0.68353897
-0.1109182 -0.27908069 0.65121359
-0.048541609 -0.1028011 0.5244267
-0.14533991 -0.2832419 0.71434379
0.028438151 -0.01670045 0.74761337
-0.081069171 -0.0052835639 0.67796052
-0.049724162 -0.1325485 0.52076942
-0.02086024 -0.016789971 0.76856381
-0.01368725 -0.017369181 0.71567142
0.14637239 -0.01471132 0.61096531
0.075300992 -0.01193747 0.77850908
-0.087320268 -0.01462898 0.70762199
-0.12825079 -0.28865591 0.68057323
-0.1209174 -0.01415256 0.718826
-0.1246776 -0.083455801 0.71048462
-0.056610581 -0.074649453 0.53895491
-0.06160235 -0.25103971 0.53055042
-0.1265941 -0.23128369 0.68487138
0.039002899 -0.01448533 0.77675372
-0.1247388 -0.072475277 0.69986337
-0.1103262 -0.045391981 0.666731
0.054955602 -0.0083422661 0.76874262
-0.047829028 -0.0094640553 0.67493922
0.062837958 -0.01286593 0.76552218
0.035621759 -0.01428357 0.73631018
-0.0088787079 -0.0055466001 0.73464233
-0.064119458 -0.13233609 0.53643137
0.041467309 -0.01298255 0.79068059
-0.073745847 -0.05839682 0.57734537
-0.065285742 -0.1769782 0.54866081
-0.048415121 -0.01245129 0.62711293
-0.046891391 -0.016437231 0.58485341
-0.057258129 -0.02763864 0.54079038
-0.070190549 -0.077407807 0.55745387
-0.033632811 -0.008302629 0.61888301
-0.056563199 -0.2382838 0.52644438
-0.01098666 -0.01508191 0.63808697
-0.058182061 -0.2684949 0.52722907
-0.044741239 -0.00089213252 0.59564739
-0.069850028 -0.094338924 0.56173569
-0.1143245 -0.3074002 0.75893688
-0.067155778 -0.1133972 0.56027353
-0.073273331 -0.01696929 0.73953873
-0.1350493 -0.2350789 0.72146428
-0.1313463 -0.16243289 0.71928239
0.01449084 -0.01286954 0.61997008
-0.001656562 -0.01180017 0.57295221
-0.08120662 -0.1928588 0.58474028
0.43063799 -0.14408679 0.213787
-0.075470448 -0.098696738 0.58013839
-0.084971793 -0.057263851 0.60053688
-0.05557799 -0.0096056461 0.6870085
-0.0030695801 -0.01357612 0.70592499
-0.140727 -0.23113041 0.70068872
-0.13887259 -0.1949781 0.70497501
0.056578811 -0.0092454255 0.66234052
-0.1365952 -0.1686347 0.72040832
-0.13362031 -0.26074651 0.69462168
-0.1212092 -0.2141459 0.67494732
-0.038739979 -0.1416011 0.77038139
0.053824421 -0.0107078 0.60358351
-0.078614831 -0.07884261 0.58077908
0.27027929 -0.074003011 0.72401083
0.0086273253 -0.02361092 0.79039121
-0.001257718 -0.19708499 0.79541522
-0.092049062 -0.2561861 0.58862501
0.1075678 -0.01089218 0.69192392
-0.077922218 -0.2279667 0.56984758
-0.086789548 -0.26198971 0.58639848
-0.091045797 -0.075064361 0.61331671
-0.092347197 -0.21889021 0.60196108
-0.09787941 -0.032288969 0.64542848
-0.098460726 -0.05361649 0.63306707
-0.1169474 -0.2310538 0.65061218
0.082015067 -0.02225196 0.61044812
0.094608963 -0.022983881 0.70686889
-0.069472194 -0.27380741 0.75796062
-0.0820297 -0.079816341 0.75038803
0.0068223481 -0.003138274 0.69529152
-0.065349877 -0.29429761 0.77234268
-0.13379741 -0.2196818 0.69713128
-0.064079702 -0.05702633 0.75189811
-0.1020787 -0.15602189 0.73875052
-0.0050265491 -0.1047803 0.7845366
-0.02376892 -0.14913949 0.79340887
-0.072811186 -0.17504109 0.7590059
-0.1169791 -0.2141289 0.6489222
0.030338939 -0.1949027 0.80719727
-0.030469211 -0.0052097142 0.64093041
-0.1195257 -0.032941941 0.65051168
-0.068184853 -0.01140684 0.56693709
-0.1029037 -0.1969161 0.73956603
-0.091160767 -0.082419783 0.61346692
-0.1205822 -0.2132647 0.65612829
-0.05442613 -0.112415 0.52527303
-0.106406 -0.064340681 0.73751801
-0.096990637 -0.30596659 0.76307178
-0.121371 -0.25118461 0.66054392
-0.133835 -0.21012621 0.69232148
0.030319151 -0.3102507 0.80962873
0.061072052 -0.15965 0.81962937
0.017809389 -0.30428481 0.81697732
0.054405391 -0.25941321 0.82128179
-0.075428434 -0.24105451 0.56070971
-0.07723254 -0.01545709 0.64015979
0.01155871 -0.2365348 0.79945391
-0.1106464 -0.0215241 0.65219623
-0.1109981 -0.27732441 0.63496512
-0.095529437 -0.1041813 0.61996049
-0.076451361 -0.01157191 0.62151247
-0.064550102 -0.1084136 0.54495913
-0.065058887 -0.1765479 0.54648972
-0.08551538 -0.19082659 0.58619112
-0.066706777 -0.25802511 0.54450488
-0.127397 -0.092735529 0.72214878
-0.033915281 -0.003869683 0.58472341
-0.098383337 -0.019190609 0.71359301
-0.1079703 -0.1201188 0.73575372
-0.1186852 -0.02946463 0.74657309
-0.0236063 -0.08193481 0.77700877
-0.0523738 -0.0057898159 0.77321011
-0.034612831 -0.1280424 0.77143049
-0.072515458 -0.26682541 0.76057732
-0.073956937 -0.056755241 0.75268769
-0.1090984 -0.31645921 0.74805957
-0.086715043 -0.0119195 0.72914308
-0.02408522 -0.087011397 0.77234918
-0.1050647 -0.24390911 0.61895663
0.020584021 -0.27746969 0.80222231
0.052818 -0.0058544278 0.60162133
-0.024805671 -0.17234281 0.77936828
-0.053186242 -0.029396711 0.52741128
0.027306139 -0.036739081 0.81116313
-0.088247903 -0.26370469 0.7409631
-0.107316 -0.26066419 0.62944978
-0.090988927 -0.2247332 0.74461579
-0.032810152 -0.01262367 0.73685509
-0.096837036 -0.064942896 0.62895858
0.086468942 -0.0042467122 0.80019128
0.070954323 -0.058835629 0.81775868
-0.049853101 -0.1369383 0.76709622
-0.1008856 -0.2139066 0.63345462
-0.068980567 -0.0068194568 0.59894848
-0.1290638 -0.3270213 0.80694878
-0.1086153 -0.28835839 0.62935871
-0.08159107 -0.30189109 0.56633872
-0.06455493 -0.01094228 0.6277079
0.1102152 -0.01202536 0.60162818
0.056759302 -0.016044021 0.5833087
0.0045115948 -0.01007891 0.56795418
-0.060956031 -0.030119481 0.75466412
-0.1168109 -0.2478964 0.7392469
-0.08026126 -0.024351301 0.61370832
0.083766162 -0.023048701 0.60774481
-0.029517559 -0.061318371 0.77072728
0.02783519 -0.0278855 0.79704398
0.078525066 -0.015640169 0.695297
-0.34395859 -0.3415111 0.56274021
-0.2588301 -0.34736589 0.40820909
-0.34661391 -0.59771532 0.2398477
-0.49668369 -0.58036733 0.2103772
-0.30838969 -0.34393641 0.56428492
-0.30780089 -0.34099141 0.54622883
-0.49137899 -0.59756178 0.37447661
-0.4945997 -0.57818002 0.3768509
-0.41266799 -0.6002112 0.2276689
-0.29516309 -0.3418096 0.5196057
0.084629178 -0.022347899 0.69615328
-0.1466074 -0.27099201 0.72470337
-0.1154532 -0.047862861 0.73085922
-0.075225003 -0.02740887 0.71666771
-0.085748307 -0.051034659 0.74293071
-0.0051015019 -0.25346699 0.79087257
-0.073244423 -0.023241701 0.74761772
-0.01040345 -0.022326561 0.63031268
-0.1015959 -0.32502979 0.74354857
-0.060493231 -0.027234791 0.60525119
-0.079235487 -0.2954919 0.75557572
0.1328048 -0.02501044 0.61821359
-0.062635809 -0.27534759 0.76416361
-0.04727006 -0.2148229 0.76792508
-0.076328583 -0.29233679 0.76061851
-0.038637821 -0.27998051 0.76035458
0.1527192 -0.02521828 0.61145002
0.03016955 -0.26399529 0.79088807
-0.056876872 -0.03759652 0.74391842
0.01807237 -0.28223819 0.79908168
0.042018831 -0.33370149 0.79061317
0.028591421 -0.2014856 0.79487503
0.04188719 -0.087084591 0.79372638
-0.0070914631 -0.1155058 0.76522923
0.0264217 -0.026388669 0.76385659
0.1039699 -0.034522831 0.6877591
0.0070882142 -0.2385928 0.79080272
0.03405806 -0.18395489 0.79398167
-0.1006736 -0.2401167 0.56455672
0.049332291 -0.027093081 0.646954
0.017960729 -0.083801478 0.78512049
-0.1304311 -0.1072424 0.7125811
-0.050587479 -0.1584758 0.75943142
0.02727467 -0.1143212 0.78054488
-0.024468821 -0.2534644 0.78334123
0.04677048 -0.099025309 0.80408251
-0.04125303 -0.081782073 0.75170261
-0.001608521 -0.3218565 0.78718752
0.041305181 -0.26576659 0.79988641
-0.01593733 -0.16695119 0.77825791
0.054433201 -0.03857908 0.80339032
-0.1426501 -0.34757659 0.6979779
0.0435674 -0.223424 0.81728399
0.02613461 -0.2253816 0.79622889
0.044477578 -0.13849799 0.82012719
-0.1192941 -0.25127891 0.7342366
-0.083917737 -0.0211522 0.61805832
-0.03518337 -0.13026731 0.75883448
-0.0056080818 -0.2129937 0.77334362
0.032243971 -0.036909249 0.76108259
0.05511168 -0.2792635 0.78033441
0.057674229 -0.3388344 0.763717
0.047708869 -0.3524141 0.78491879
0.044596668 -0.034532961 0.75137198
0.088194609 -0.050130669 0.71168768
0.026862619 -0.04003334 0.692496
0.1119741 -0.33003521 0.67435622
0.1353344 -0.1903628 0.60914129
0.044054572 -0.049200211 0.77927482
0.072975934 -0.27076089 0.73136657
0.048818231 -0.1309147 0.78190207
0.057692531 -0.1962081 0.76186359
0.08949697 -0.036503229 0.70002037
0.092387557 -0.2140497 0.69955498
0.091394961 -0.1402557 0.7183305
0.12803949 -0.2072487 0.65480292
0.065367758 -0.30315611 0.72386742
0.053947389 -0.26342061 0.77551448
0.081939161 -0.1016466 0.71970272
0.1174446 -0.32075831 0.64821589
0.057908058 -0.03788048 0.76164532
0.086033881 -0.33779481 0.70078868
0.085288882 -0.2110036 0.70726782
0.073804557 -0.2135507 0.72765642
0.1262981 -0.1821119 0.62407708
0.053237081 -0.035122842 0.72667873
0.042016689 -0.2093049 0.78752059
0.098860562 -0.146863 0.68507463
0.092224181 -0.07482633 0.7036733
0.050520539 -0.150636 0.76558793
0.067203701 -0.2182503 0.74277842
0.095131159 -0.28438619 0.69767958
0.075972438 -0.33587939 0.73209482
0.085887492 -0.1714704 0.7123574
0.074489832 -0.09699294 0.73278648
-0.00076186663 -0.03467897 0.69058901
0.096965313 -0.13679761 0.68006128
0.1154591 -0.121486 0.65038103
0.13261031 -0.27650911 0.62267351
0.086472988 -0.1854845 0.72360992
0.065682292 -0.17996851 0.74563187
0.1074746 -0.1140485 0.67180932
0.082289338 -0.28669271 0.71484572
0.076536693 -0.087058991 0.76111412
0.084219337 -0.076498687 0.7202186
0.04627794 -0.1528112 0.78056109
0.050960571 -0.1755632 0.77791798
0.1274198 -0.06977883 0.62923151
0.095936254 -0.036245231 0.70695531
0.1235407 -0.2835969 0.64918309
0.1341434 -0.1186006 0.59452528
0.098400287 -0.1040241 0.68907791
0.14445139 -0.2351446 0.60127968
0.1363533 -0.1704898 0.58842939
0.09909147 -0.18134481 0.6855545
0.141743 -0.27913269 0.60001969
0.1000802 -0.2699427 0.68844128
0.1097136 -0.092527747 0.677212
0.05328453 -0.16686431 0.77617937
0.1409698 -0.094632119 0.6080724
0.1302055 -0.098808318 0.62403828
0.060208261 -0.221458 0.7607134
0.1306143 -0.208995 0.62403709
0.078859873 -0.28964099 0.72311789
0.068342984 -0.07994622 0.74975312
0.05964667 -0.30276421 0.76393509
0.1255497 -0.31987211 0.62776852
0.1446621 -0.171341 0.6016615
0.073092401 -0.35154831 0.75757653
0.094105117 -0.3510156 0.70311987
0.093736291 -0.053667039 0.70440418
0.098653138 -0.063118547 0.69276869
0.03275251 -0.33918571 0.79737931
0.04583627 -0.035275009 0.64056748
0.1174735 -0.13750149 0.65055722
0.1444131 -0.1232508 0.58168042
0.1350006 -0.110887 0.61538082
0.13959721 -0.1677168 0.58743429
0.13811681 -0.23145691 0.61436778
0.1349379 -0.2472858 0.59402061
0.072115183 -0.057168249 0.72736901
0.09451884 -0.1687333 0.68726158
0.072238863 -0.33701661 0.73345762
0.12780529 -0.33491611 0.62184298
0.04529709 -0.2269101 0.78486007
0.1374093 -0.28047651 0.56103218
0.051365849 -0.068434604 0.77231932
0.089615516 -0.3183054 0.7119627
0.1189502 -0.2441016 0.64365029
0.083966792 -0.3391901 0.71310061
0.068187177 -0.19712681 0.7421459
0.094243817 -0.1992041 0.69233048
0.1294928 -0.2417649 0.62926638
0.1000797 -0.23507009 0.68212259
0.1154077 -0.1684901 0.64709038
0.1039413 -0.097538017 0.67671108
0.1341778 -0.13235471 0.62352711
0.01219499 -0.03523213 0.67961907
0.020607769 -0.032008741 0.74280483
0.019903511 -0.034761701 0.53466612
0.1004795 -0.030603681 0.68195212
0.1086358 -0.055370901 0.67498767
0.084865093 -0.04760462 0.72123671
0.113562 -0.32486081 0.6534791
0.1313719 -0.2188665 0.59594852
0.1239906 -0.27590731 0.62963128
0.099922903 -0.116781 0.68901521
0.0667696 -0.1241915 0.75021982
0.14378241 -0.22991601 0.57648158
-0.54794848 -0.3446728 0.86034697
-0.04536134 -0.03458124 0.54868293
0.136668 -0.042915791 0.62987912
0.1091034 -0.2385094 0.66820288
0.1217898 -0.34329781 0.63140929
0.076370656 -0.22161859 0.73424202
0.1407533 -0.1405119 0.5888133
0.077175803 -0.2384941 0.72738242
0.1226051 -0.17994431 0.65105551
0.1156553 -0.19160099 0.63985491
0.100643 -0.091832161 0.68059897
0.1164681 -0.3057853 0.65044433
0.1366708 -0.20724081 0.59606552
0.082247078 -0.037806962 0.72053182
0.1322753 -0.062507957 0.59562927
0.1068788 -0.036181569 0.64028102
0.1132421 -0.071575247 0.65759689
0.1083755 -0.2840656 0.57050872
0.0518617 -0.04508394 0.73397171
0.080179043 -0.032120168 0.57533902
0.085988343 -0.034868781 0.65955859
0.1142273 -0.03941834 0.67179787
0.15635911 -0.1071507 0.57802027
0.1163272 -0.071954608 0.64909422
-0.082773507 -0.02838832 0.64577979
0.04374456 -0.1221685 0.78889072
-0.01333076 -0.03132838 0.75058711
-0.03684688 -0.042572591 0.66987008
-0.048132628 -0.032657061 0.65042299
-0.087854683 -0.02765104 0.68464261
-0.070509203 -0.03237832 0.67063922
0.048793081 -0.19913059 0.78158182
0.095859021 -0.2450947 0.70152187
0.098896377 -0.30131501 0.69110793
0.1108571 -0.33498549 0.67094499
0.1155785 -0.2891545 0.67261481
0.089653432 -0.1704659 0.70935768
0.13625281 -0.038901061 0.57917219
0.04611307 -0.037833869 0.53851408
0.1203061 -0.04478145 0.62870449
0.1287026 -0.28635499 0.62698448
0.2766389 -0.36193481 0.26931751
0.1472922 -0.1923781 0.5720427
0.13599969 -0.3595241 0.62056643
0.1511233 -0.37355629 0.61830533
0.25208089 -0.36802879 0.26149741
0.29183519 -0.35345089 0.26912579
0.033304989 -0.3876974 0.75038421
0.057002839 -0.3509343 0.96706772
0.1355973 -0.1730323 0.60134763
0.1116097 -0.18900029 0.6631397
-0.091975927 -0.032935381 0.66631389
0.2124553 -0.3540923 0.86187822
0.1356608 -0.15372039 0.61435652
0.1057375 -0.070873111 0.67199129
0.055380281 -0.1203246 0.77249038
0.215939 -0.34888121 0.86828369
0.1119869 -0.1129081 0.66142982
0.1725031 -0.35084829 0.8685832
0.1731054 -0.35340971 0.86216313
0.1215695 -0.037238121 0.56048763
-0.055776659 -0.030706231 0.70780408
-0.1275133 -0.03613973 0.64569879
0.083375752 -0.041812479 0.62790388
0.07029742 -0.088784337 0.81225163
0.0051164632 -0.035833951 0.71379352
0.115532 -0.29436359 0.64454353
0.1068646 -0.043085579 0.57510442
0.1337322 -0.33020651 0.60634428
0.1139818 -0.1568698 0.51246393
0.1403677 -0.14416949 0.6050964
-0.41975081 -0.34847879 0.93521059
-0.21300951 -0.098126709 0.50925392
-0.3870984 -0.3588523 0.96288902
0.077459507 -0.13112091 0.72690082
-0.051190849 -0.0271453 0.57400632
0.081697941 -0.2634888 0.74224669
0.017523229 -0.029470591 0.63393641
0.12830441 -0.35400969 0.84117728
0.2574437 -0.35330281 0.83153218
0.1990606 -0.33895561 1.139725
0.26029149 -0.3482697 0.79736072
0.1193004 -0.1036249 0.64566422
0.1799238 -0.35277119 0.69714069
-0.1804737 -0.3526544 0.77260119
0.2489316 -0.3586553 0.79190689
0.1284382 -0.053603679 0.62314808
0.06164759 -0.03156605 0.65797681
-0.081956573 -0.032151911 0.70244092
-0.023053899 -0.032613281 0.74139857
0.045637552 -0.3312977 0.79580361
-0.087189756 -0.030744551 0.70571917
0.039751738 -0.03881168 0.54485852
-0.006080687 -0.035543919 0.59286028
0.053850349 -0.1530475 0.79406369
0.063866854 -0.1119961 0.79673499
0.064290076 -0.033823911 0.76149452
-0.1100833 -0.058311909 0.72319168
-0.1131497 -0.074211784 0.71308267
-0.1524134 -0.2947875 0.69439763
-0.14220759 -0.351466 0.71313071
-0.1080222 -0.33636999 0.72100818
-0.005135417 -0.2097262 0.79314458
-0.070816129 -0.1037198 0.73615563
-0.12718061 -0.14985999 0.71268421
0.02865845 -0.041156352 0.77161968
0.045009851 -0.061293039 0.79606563
-0.13135099 -0.048027311 0.69494641
0.045070529 -0.1243919 0.79192621
-0.01733363 -0.089816421 0.76378191
-0.076248407 -0.2085008 0.73821777
0.057983931 -0.080271631 0.78736353
-0.1052487 -0.094383977 0.71398991
-0.039751232 -0.2231013 0.7631591
-0.1169842 -0.116107 0.71869332
0.05074662 -0.1954449 0.79038602
0.03541195 -0.1076109 0.78455019
-0.028391181 -0.13220289 0.76286352
0.029644489 -0.1751117 0.78609568
0.04397577 -0.2663615 0.79723758
-0.0034447911 -0.045038339 0.76553172
0.00091671938 -0.236894 0.77616578
-0.079097569 -0.2392361 0.74136537
0.052873489 -0.2414597 0.79583091
-0.044071671 -0.1460885 0.74819559
-0.0254519 -0.2848987 0.76907343
-0.02240652 -0.059190959 0.75135863
0.030821679 -0.2920641 0.7968092
0.006908834 -0.2653636 0.77935088
0.06304425 -0.096656978 0.79118848
0.067849457 -0.039845731 0.57701349
0.004375577 -0.2113167 0.78892452
0.009428978 -0.32353529 0.78417778
0.073469937 -0.07110405 0.78985959
-0.02969539 -0.041305661 0.74622548
-0.079092517 -0.0938223 0.72698021
0.020546259 -0.2421834 0.78763288
-0.032036781 -0.070815623 0.75129551
-0.02706814 -0.2551702 0.75956577
0.01096797 -0.08668527 0.77338952
-0.1021042 -0.3283312 0.73917031
0.034014281 -0.21051119 0.78787518
-0.0097887218 -0.13789029 0.76487499
0.031285819 -0.040535118 0.7764259
-0.1383545 -0.26178589 0.69474411
0.1127813 -0.32653451 0.71620208
-0.05890274 -0.1678355 0.73824012
0.017896829 -0.1104832 0.77332658
0.032462779 -0.1296481 0.78053713
-0.022329571 -0.074876733 0.75145793
-0.1118448 -0.035161261 0.69886643
-0.036225319 -0.2419993 0.75608492
-0.13122 -0.03308719 0.70750678
-0.04594731 -0.03477985 0.61108679
-0.068064988 -0.03283006 0.64113522
-0.0063818689 -0.1124946 0.77941561
-0.1072048 -0.22098149 0.72399652
-0.1066248 -0.1790816 0.72318709
-0.026831269 -0.22934391 0.75746959
-0.082818873 -0.05684879 0.73033559
-0.12972631 -0.20820449 0.7096386
0.057550069 -0.2027666 0.79563761
0.039302468 -0.14229199 0.78827327
-0.055821661 -0.038462911 0.7400611
-0.080546796 -0.2990146 0.74194407
0.01288635 -0.2460994 0.78031981
-0.053763811 -0.29000399 0.75933498
-0.112414 -0.14361741 0.72029573
-0.14463601 -0.27542761 0.72369182
-0.1437192 -0.1838928 0.69905609
-0.1048121 -0.03389442 0.67195928
-0.016484139 -0.26417401 0.77468628
-0.071362078 -0.052469041 0.73185909
0.02495563 -0.060483571 0.77447301
-0.020889999 -0.039092481 0.56671458
0.034944389 -0.034086999 0.54892081
0.057860639 -0.1284668 0.78592283
0.00036543611 -0.068526387 0.76250023
-0.050621212 -0.098733932 0.74776638
-0.061481949 -0.06460014 0.73573452
0.027246891 -0.03061706 0.64856559
-0.069146097 -0.031799581 0.67296553
-0.1001737 -0.2056997 0.72811693
-0.1199219 -0.32676879 0.64898932
0.01320541 -0.29114169 0.78440398
-0.1014954 -0.27970129 0.72973299
-0.1109533 -0.2383398 0.71769643
-0.022931639 -0.33258179 0.76920319
-0.080721051 -0.03240684 0.59516042
-0.08485502 -0.026843989 0.63275909
0.02855438 -0.29140729 0.78686088
-0.080741413 -0.099815913 0.74162841
0.00036007169 -0.0309535 0.55272412
0.035283089 -0.030868109 0.60034722
0.066129982 -0.043952111 0.79709929
0.054217819 -0.1526487 0.79348367
-0.1106494 -0.032553289 0.67264748
-0.067304187 -0.32763481 0.75807959
0.0066581368 -0.029849891 0.71915972
-0.048876461 -0.28680429 0.75333577
-0.066487908 -0.278927 0.75450051
-0.092503309 -0.06688267 0.72105062
-0.025094001 -0.040267799 0.68652868
-0.093998492 -0.1769671 0.72677797
0.091237813 -0.27539149 0.73750949
-0.1026035 -0.3515279 0.72605032
-0.14320689 -0.3447645 0.69259852
-0.092830777 -0.1636871 0.72484589
-0.031304002 -0.035614312 0.62947482
0.003175318 -0.29591331 0.77906638
-0.02507964 -0.034539431 0.54221612
-0.114213 -0.047142621 0.60096103
-0.02393377 -0.087787896 0.7558372
-0.030602571 -0.1385375 0.75269449
-0.071089827 -0.1843648 0.73626089
0.0039774179 -0.2100029 0.77755898
-0.1386151 -0.1129658 0.70429808
-0.12701561 -0.1185045 0.69561779
0.06072158 -0.033404142 0.73117739
0.049780458 -0.1055634 0.79280901
-0.04238322 -0.1465618 0.75637001
-0.1072281 -0.093636237 0.71018881
-0.1364 -0.1398969 0.69192201
-0.1287733 -0.049512088 0.69466603
0.1054178 -0.30837679 0.7281636
-0.00059455627 -0.13348509 0.76577133
-0.1151634 -0.1589206 0.7137171
-0.01535016 -0.1742131 0.76977819
-0.1289496 -0.35311219 0.71862382
-0.074276917 -0.3000001 0.756226
0.022579551 -0.04961127 0.76713449
-0.05867064 -0.032620911 0.71127337
0.018722359 -0.036027849 0.54916382
0.061596591 -0.034743011 0.58082438
0.07977289 -0.033301089 0.60037321
-0.068605989 -0.02704078 0.58844543
0.060514931 -0.02918366 0.74900341
-0.13112471 -0.28408691 0.63617939
-0.1146208 -0.25691301 0.5671705
-0.1075442 -0.071076661 0.63629848
-0.1385536 -0.28262329 0.66616398
0.01491373 -0.03192744 0.56378388
-0.096224882 -0.24565379 0.56578922
-0.1212501 -0.042299211 0.64813149
-0.03476635 -0.038762901 0.58362722
-0.1140979 -0.1231795 0.60864788
-0.081196457 -0.09620291 0.55817169
-0.098516613 -0.32699791 0.55732292
-0.1306242 -0.1079629 0.66714722
-0.1103602 -0.28331921 0.63951743
0.1279712 -0.034764022 0.61548501
-0.1244486 -0.1268883 0.6684531
-0.1212466 -0.118776 0.64468741
0.067311473 -0.029430211 0.71169817
-0.06493777 -0.043391261 0.53552192
-0.088863187 -0.075490206 0.57402289
-0.1138586 -0.076308638 0.62476897
-0.072706319 -0.053779751 0.51521373
0.102814 -0.02885309 0.66049367
-0.15064029 -0.30627209 0.68016768
-0.1156723 -0.070461988 0.66212821
-0.1659186 -0.29616579 0.71447188
-0.127625 -0.3085151 0.62964642
-0.094882883 -0.2145014 0.58232403
-0.1252006 -0.039987121 0.64837468
0.02166957 -0.028973909 0.56987071
-0.098796673 -0.1558165 0.59993708
-0.070435353 -0.02494124 0.74118608
-0.1080233 -0.025662269 0.63050628
-0.07871981 -0.15153439 0.53180522
-0.06631577 -0.29355291 0.52221739
-0.1307525 -0.059336629 0.6671778
-0.1552543 -0.2864843 0.70831782
-0.1529714 -0.3163265 0.71032113
-0.084304079 -0.2786141 0.53920192
-0.075754583 -0.1381294 0.54358912
-0.092141896 -0.1169586 0.57538217
-0.076603353 -0.2020653 0.54521829
-0.069236837 -0.1461761 0.52015209
-0.085720062 -0.1692141 0.56136161
-0.1078594 -0.2019496 0.61671883
-0.1034263 -0.31219459 0.57770228
-0.069182813 -0.09417215 0.53567243
-0.070587017 -0.26355249 0.52802819
-0.1269388 -0.2347842 0.66158509
-0.1041842 -0.09574616 0.60086411
-0.1382433 -0.05902693 0.67337167
-0.077590287 -0.23488431 0.54941583
-0.077731527 -0.01342639 0.55841571
-0.1219525 -0.31446221 0.60536838
-0.095743179 -0.032739069 0.65366769
-0.1488042 -0.2467743 0.71929061
-0.1011495 -0.2598345 0.58352041
-0.16205619 -0.32594979 0.70563519
-0.14982361 -0.1570078 0.70502013
0.01179373 -0.033734471 0.57562578
-0.1476177 -0.091772407 0.70249939
-0.1059688 -0.090106957 0.61243361
-0.048974931 -0.03085172 0.62067622
-0.067515112 -0.040410548 0.54456389
-0.0070962012 -0.035503861 0.5857237
-0.03483808 -0.030187611 0.55150878
-0.1112444 -0.02666706 0.67050493
-0.074996099 -0.17118131 0.54002172
-0.1313165 -0.23854961 0.65043992
-0.04124767 -0.034437869 0.6813302
-0.1422165 -0.1154639 0.69439411
-0.067191243 -0.1332088 0.52324277
0.001940668 -0.032215029 0.69288522
-0.073422849 -0.0248324 0.69210941
-0.1171642 -0.1304038 0.64350241
-0.077224582 -0.2349032 0.52763629
-0.066259027 -0.1845531 0.52483797
-0.1146169 -0.1129387 0.62811083
-0.064305127 -0.1968466 0.52514058
-0.1293321 -0.27824879 0.64770138
-0.087316692 -0.2253055 0.5663467
-0.14758261 -0.2535187 0.68860221
0.078576393 -0.02939895 0.72211027
-0.079232343 -0.030824451 0.56331718
-0.1464106 -0.2197345 0.70637041
-0.072218888 -0.1490459 0.54872799
-0.088285089 -0.2809985 0.56336778
-0.1449727 -0.21936449 0.67544419
-0.08948192 -0.1369607 0.56539959
0.081376672 -0.03085473 0.63427931
-0.12887 -0.2031699 0.66245711
-0.12547921 -0.1379624 0.65361732
-0.1117174 -0.032407969 0.69652349
-0.112399 -0.1990142 0.6224519
-0.088348687 -0.03127104 0.73482609
-0.1216482 -0.2428913 0.64786232
