# .PCD v0.7 - Point Cloud Data file format
VERSION 0.7
FIELDS x y z normal_x normal_y normal_z curvature
SIZE 4 4 4 4 4 4 4
TYPE F F F F F F F
COUNT 1 1 1 1 1 1 1
WIDTH 584
HEIGHT 1
VIEWPOINT 0 0 0 1 0 0 0
POINTS 584
DATA ascii
-0.085803196 -0.22602901 0.56668985 -0.91992712 0.020479975 -0.39155415 0.06927029
-0.14387195 -0.25388786 0.68965429 -0.99766654 0.050230097 -0.046243448 0.08225885
0.078721881 -0.029001525 0.72222304 0.42324933 0.84293991 0.33213308 0.103338
-0.076182671 -0.03370424 0.56533051 -0.60981065 0.72737008 -0.31474391 0.10052482
-0.14375953 -0.21983552 0.70649731 -0.98150688 0.15385048 0.11390455 0.096273787
-0.072379902 -0.14901268 0.54866511 -0.93200171 0.042777695 -0.35992074 0.079748765
-0.083269767 -0.27824059 0.56529576 -0.91737074 -0.029387256 -0.39694759 0.074474812
-0.13875417 -0.22005144 0.67739773 -0.98638827 0.13907228 -0.08773306 0.073135741
-0.081873655 -0.14015661 0.56872308 -0.9396466 -0.014167074 -0.34185299 0.058700409
0.080924101 -0.023377486 0.63413477 0.1977645 0.98024303 -0.0035844736 0.041882373
-0.13116007 -0.20285094 0.66194147 -0.97033155 0.12056077 -0.20957546 0.067458615
-0.12222645 -0.1372202 0.65520251 -0.95386893 0.050324477 -0.29597554 0.05543172
-0.11026129 -0.034968928 0.69574291 -0.56306088 0.74918789 0.34882653 0.12444069
-0.1103887 -0.19995512 0.62338674 -0.88421279 0.12504618 -0.45003459 0.027981089
-0.083830215 -0.036540467 0.72585928 -0.3837401 0.73343229 0.56108874 0.097587809
-0.12549807 -0.24267051 0.64637786 -0.93013787 0.080218166 -0.35834134 0.040978488
-0.12479926 -0.17023142 0.65398085 -0.95795208 0.073760547 -0.27728546 0.070123971
-0.14977531 -0.30956188 0.69729441 -0.98102129 -0.19388743 -0.0022153342 0.11754935
-0.14590603 -0.21469875 0.70744592 -0.97981089 0.16999635 0.10522309 0.08954899
-0.058287024 -0.021431832 0.63046581 -0.19167836 0.98021412 -0.04939447 0.033563405
-0.088873297 -0.13234484 0.58412534 -0.91773874 -0.025204912 -0.396384 0.055086955
-0.11515471 -0.10819041 0.64053029 -0.92605358 -0.04172973 -0.3750779 0.045803264
-0.13322097 -0.25738308 0.65811449 -0.96198827 0.023851564 -0.27204719 0.0569073
-0.077697866 -0.023858255 0.61628973 -0.3609975 0.91543287 -0.17794205 0.065983772
-0.11728475 -0.14599836 0.6474039 -0.93723702 0.054285817 -0.34444126 0.048444171
0.015149725 -0.021083049 0.65170944 -0.0059238547 0.99997216 0.0045323246 0.019061774
-0.08574488 -0.16533211 0.58013338 -0.91859394 0.052944329 -0.39164016 0.051094864
-0.14075303 -0.20073386 0.71972591 -0.92705196 0.15547621 0.34117714 0.10624837
-0.1371772 -0.25494528 0.66875464 -0.97632748 0.047537506 -0.21100919 0.062606826
-0.1452653 -0.31179291 0.67326432 -0.95283121 -0.25017762 -0.17182504 0.11418426
-0.13100512 -0.10959876 0.66908622 -0.98045945 0.015316284 -0.19612402 0.061228752
-0.14756043 -0.27646923 0.69651479 -0.9968555 -0.078670718 -0.0094881533 0.098941378
-0.082137942 -0.31532803 0.54689705 -0.93271673 -0.16481864 -0.32074037 0.087360442
-0.1247346 -0.077177182 0.65845811 -0.95795864 0.17830472 -0.22477248 0.083618641
0.028440559 -0.022183562 0.71950436 0.0039587179 0.96822107 0.25006419 0.070925064
-0.1064029 -0.2460341 0.60397869 -0.85508484 0.025038676 -0.51788318 0.035493121
-0.005465854 -0.021545034 0.60939002 0.011300148 0.99872035 -0.049294468 0.013310036
0.029713945 -0.030982113 0.77939391 -0.21144344 0.54980648 0.80808693 0.15749909
0.037571345 -0.033050064 0.78048748 -0.13166004 0.56239015 0.8163228 0.18091093
-0.1393031 -0.17385019 0.71069777 -0.95674717 0.082103036 0.27909485 0.09970092
-0.1336461 -0.13248026 0.69491136 -0.99710697 0.075426579 0.0094137676 0.091676883
-0.12861273 -0.041808184 0.6905064 -0.79394561 0.54100555 0.27742285 0.12906778
-0.12597574 -0.035576262 0.68005759 -0.78087938 0.60739803 0.14592817 0.12987626
-0.13665734 -0.084399819 0.71423846 -0.89384449 0.14604518 0.42392564 0.087462366
0.056193843 -0.021296466 0.69548756 0.13504249 0.97925431 0.15107799 0.04465485
-0.13911517 -0.15881136 0.7063694 -0.97989196 0.067541808 0.18774988 0.089566447
0.086222872 -0.023343462 0.62161589 0.19173864 0.9807663 -0.036519993 0.043378513
-0.11939399 -0.17606515 0.64378291 -0.9255659 0.092317365 -0.36715847 0.048910756
-0.0029059239 -0.023319686 0.59202439 0.020512648 0.9947046 -0.10070681 0.011861178
0.02699014 -0.022212872 0.60061681 0.022156509 0.99492306 -0.098170012 0.016039208
-0.13213399 -0.076191738 0.69701785 -0.93746531 0.21837425 0.27105612 0.1030277
-0.1546483 -0.25405353 0.72400659 -0.96024185 0.095036902 0.26249471 0.09710601
-0.080138423 -0.32234982 0.53764349 -0.91272253 -0.18557605 -0.36400422 0.090980396
-0.078366861 -0.089434497 0.5638808 -0.90968424 0.063647568 -0.41039428 0.055613603
-0.08862152 -0.26927605 0.57531685 -0.884902 0.0053161262 -0.46574697 0.070975415
-0.081532545 -0.1667667 0.56450838 -0.9485631 0.072103307 -0.30826795 0.061638508
-0.089168556 -0.056195009 0.57600528 -0.85733771 0.32996187 -0.39509141 0.089157812
-0.0326529 -0.023122657 0.58931673 -0.12594098 0.98155522 -0.14383382 0.029914649
-0.076756924 -0.055247854 0.55813009 -0.84456038 0.34682527 -0.40795839 0.098425038
-0.12067278 -0.27143502 0.63532263 -0.90675396 -0.041273654 -0.41963509 0.039091881
-0.079363205 -0.14129323 0.56164038 -0.94455951 -0.0064104144 -0.32827753 0.065936901
-0.06734807 -0.2117883 0.52656305 -0.92677784 0.01139626 -0.37543711 0.084735386
-0.094151385 -0.1866235 0.59223682 -0.89135408 0.11764719 -0.43777514 0.045811202
-0.098540992 -0.23411767 0.5955835 -0.85714316 0.08002799 -0.50882328 0.049275301
-0.10754396 -0.30538744 0.60816813 -0.84836435 -0.16361989 -0.50349414 0.042356517
-0.14002691 -0.32090303 0.66772646 -0.90478855 -0.34003395 -0.25638765 0.10888879
-0.13187043 -0.31503749 0.64787281 -0.89896828 -0.25896707 -0.35325933 0.077899076
-0.11916411 -0.035077155 0.65673536 -0.80297077 0.5801717 -0.13652372 0.11314176
-0.13302404 -0.066094831 0.71031725 -0.83975375 0.27856907 0.46606094 0.10162286
-0.022762859 -0.025069192 0.7012015 -0.11635154 0.96240968 0.2454178 0.067473076
-0.081753761 -0.06193608 0.5638274 -0.8657527 0.27411833 -0.41872591 0.082915619
-0.14536704 -0.2208423 0.7060315 -0.98088014 0.15773858 0.11398589 0.096409149
-0.14277861 -0.24139057 0.70037055 -0.9915123 0.11043739 0.068606786 0.096254431
-0.090251602 -0.14822954 0.59560388 -0.9021427 0.027288137 -0.43057385 0.051756293
-0.030948987 -0.036136854 0.533472 -0.2483726 0.83390969 -0.49285454 0.12599832
-0.061655898 -0.090024456 0.51814133 -0.84331787 0.05903836 -0.53416228 0.092814505
-0.032694165 -0.021848472 0.61662591 -0.065960012 0.99664921 -0.048370216 0.016918091
-0.12150269 -0.23183006 0.63224924 -0.88912678 0.11089295 -0.44402283 0.024342624
-0.085023791 -0.094354533 0.58187467 -0.92201507 -0.0099733248 -0.38702545 0.049753796
-0.017635079 -0.026520755 0.78064209 -0.30384725 0.51505178 0.80149776 0.11882702
-0.084757239 -0.3365857 0.55910701 -0.944776 -0.17123169 -0.27942452 0.079891466
-0.14403972 -0.2931751 0.67513442 -0.98054367 -0.14637746 -0.13079678 0.095505498
-0.13809812 -0.19820084 0.68771887 -0.99117118 0.13228761 0.0089261457 0.082728624
-0.13172354 -0.1412126 0.67790174 -0.9855783 0.048352167 -0.16216467 0.071921609
-0.12682579 -0.21337108 0.65052813 -0.93993837 0.13789412 -0.3122516 0.049003676
0.023269925 -0.021839757 0.62359315 0.016523244 0.99909174 -0.039276637 0.023385823
-0.10134216 -0.045349244 0.61118627 -0.76963019 0.50657278 -0.38865596 0.097211778
-0.11313912 -0.24051736 0.61940622 -0.87524748 0.099743433 -0.47327906 0.029403757
-0.065100797 -0.080536909 0.5292477 -0.87983525 0.13539183 -0.45558649 0.087524131
-0.12707496 -0.30796114 0.64684969 -0.90302867 -0.22966926 -0.36303076 0.07086201
-0.10640873 -0.15629289 0.61628526 -0.88229793 0.040544778 -0.46894178 0.033790816
-0.085178211 -0.15494409 0.58026284 -0.92017323 0.039412901 -0.38952258 0.051803075
-0.10543144 -0.049443774 0.62628102 -0.84208244 0.40272295 -0.35876352 0.10367383
-0.0024643177 -0.33585668 0.52149171 0.40987009 -0.66866261 -0.62040055 0.11372659
-0.068906732 -0.27633032 0.54256034 -0.89052248 -0.053785 -0.45174867 0.11513705
-0.09598586 -0.19628747 0.59258616 -0.87981284 0.095386103 -0.46565104 0.048984159
0.095234081 -0.028812923 0.57373989 0.24947155 0.94463372 -0.21314543 0.091250449
0.028716864 -0.11412156 0.53666073 0.45444664 -0.072882861 -0.88778728 0.15209861
0.078806393 -0.12727466 0.56347305 0.41359398 -0.023393467 -0.9101609 0.12314682
0.021304958 -0.030492438 0.5353893 0.09276399 0.91096777 -0.40191114 0.081489712
0.044788446 -0.11876013 0.54954278 0.45448413 -0.070669249 -0.88794714 0.18307477
0.095081218 -0.18555836 0.5767321 0.59025925 0.075707152 -0.80365568 0.1316372
0.09632232 -0.22098039 0.57746768 0.65772903 0.040362887 -0.75217247 0.14569566
0.084395766 -0.309306 0.58510602 0.34908706 -0.70448273 -0.61793387 0.17248888
0.017311998 -0.15752134 0.54449463 0.39420158 -0.063960224 -0.91679561 0.21811971
0.021903997 -0.089294836 0.57388014 0.78100163 0.21922897 -0.58478647 0.20457508
0.05094165 -0.16505586 0.55488497 0.3391394 -0.11356069 -0.93385679 0.10229949
0.091724262 -0.026905306 0.58529884 0.20939487 0.96674091 -0.1468529 0.06852898
0.11974581 -0.19037865 0.58547693 0.77953863 0.053672049 -0.62405038 0.15616274
0.10399245 -0.035004273 0.56847507 0.47076842 0.7928527 -0.38699049 0.13930628
0.13259383 -0.23024094 0.59785461 0.99258536 -0.039477397 -0.11495992 0.1196925
0.066500686 -0.15597977 0.55438387 0.39915448 -0.048060577 -0.91562325 0.095111296
0.090535507 -0.18332997 0.57573879 0.57926571 0.058231153 -0.81305617 0.12772413
0.12542702 -0.035661597 0.59136695 0.62900198 0.76635182 -0.13061923 0.14878453
0.10350034 -0.053465888 0.57332444 0.5512253 0.57686627 -0.60280675 0.16680163
0.12274819 -0.15990245 0.57596612 0.60262942 -0.070320785 -0.79491675 0.11855124
0.10057628 -0.11308953 0.5752365 0.49222359 0.023356533 -0.87015539 0.15376367
0.043313108 -0.029439211 0.54474998 0.084520981 0.92702067 -0.36536148 0.080043994
0.051768281 -0.13781951 0.54854953 0.43003726 -0.060360104 -0.90079117 0.17927288
0.034829795 -0.088412389 0.54758608 0.51342577 0.020130815 -0.85789788 0.1361295
0.073877975 -0.13105793 0.55748904 0.42578506 -0.0092326477 -0.90477723 0.12535429
0.053324886 -0.18707703 0.54753125 0.40171081 -0.00086050236 -0.91576618 0.091187671
0.1172509 -0.057411741 0.58186942 0.71824723 0.62133908 -0.31314322 0.17271098
0.11065724 -0.30312058 0.57859164 0.87241822 -0.23492464 -0.42859879 0.17328461
0.12335449 -0.19023414 0.58511394 0.83541787 0.020410832 -0.5492363 0.15585077
0.06914869 -0.2207128 0.5622896 0.39538097 0.049730692 -0.91716993 0.075488858
0.087121084 -0.3119795 0.57988626 0.39207137 -0.64528078 -0.65566206 0.16773036
0.10610428 -0.21265836 0.57472599 0.69473928 0.091712803 -0.71339053 0.13742785
-0.042651188 -0.15434749 0.51902527 -0.81166387 0.12807493 -0.56991094 0.18146701
0.022541286 -0.030388512 0.53774548 0.089753218 0.91680056 -0.3891286 0.083798431
0.055899121 -0.055308629 0.55555528 0.3861725 0.54245752 -0.74606353 0.14419818
-0.068412013 -0.32674435 0.51430368 -0.8983677 -0.16704081 -0.40624231 0.13188791
-0.12764642 -0.21828791 0.64589405 -0.92358094 0.13740276 -0.3579368 0.039362833
-0.068069048 -0.22833076 0.51663244 -0.90934342 -0.025228389 -0.41528061 0.091718622
-0.093674637 -0.042698547 0.58741742 -0.75770605 0.51696807 -0.39827821 0.096357033
-0.13792165 -0.20938921 0.6792289 -0.98910028 0.12635125 -0.075603776 0.072747901
0.065842763 -0.027835576 0.56195629 0.095643491 0.96332371 -0.25071844 0.064361803
-0.15317513 -0.29362777 0.70464313 -0.98855227 -0.14533687 0.040516913 0.11283409
-0.030133877 -0.038025253 0.51398277 -0.18682216 0.75432932 -0.62935257 0.12907225
-0.14337598 -0.29387918 0.66685009 -0.96817833 -0.1338091 -0.21148501 0.084724672
-0.060483158 -0.33517969 0.51498252 -0.79290575 -0.3812429 -0.47534654 0.14097941
-0.057896495 -0.029041063 0.5340597 -0.43794695 0.79807836 -0.41385195 0.091126263
-0.071718223 -0.03381281 0.55324715 -0.59241134 0.72426522 -0.35282964 0.095912695
-0.082508929 -0.059153102 0.56221354 -0.86275345 0.2974557 -0.40887216 0.084989682
-0.14214133 -0.19682837 0.70518661 -0.97498536 0.12535848 0.18354522 0.090863414
-0.11674545 -0.058277074 0.64251107 -0.90766281 0.30697736 -0.28620493 0.096753359
-0.14730683 -0.24755661 0.71075171 -0.98801756 0.096529417 0.12043009 0.089573622
-0.11890663 -0.15968676 0.6428529 -0.9217838 0.055881977 -0.38365585 0.046426188
-0.081668161 -0.064502358 0.56112331 -0.87984806 0.21457261 -0.42405879 0.075039864
-0.13361873 -0.21575859 0.66140866 -0.96263385 0.14907177 -0.22608359 0.062308505
-0.075835764 -0.046180412 0.55613559 -0.79403788 0.47420865 -0.38030264 0.10542991
-0.10081016 -0.045221757 0.6065051 -0.78955221 0.462677 -0.40315914 0.091485165
-0.14390226 -0.2044013 0.69946653 -0.98704284 0.11980877 0.10673431 0.083278589
-0.07741186 -0.05710832 0.55479527 -0.85404342 0.32134977 -0.40907717 0.090550989
-0.05403604 -0.03433942 0.50991583 -0.49050218 0.66501778 -0.5631687 0.11281362
-0.12263585 -0.045165464 0.65322381 -0.88497871 0.42653975 -0.1867528 0.1093302
-0.12677668 -0.22163779 0.64375454 -0.91866595 0.13145941 -0.37252015 0.037085824
-0.14771755 -0.30708984 0.70062178 -0.98021078 -0.19285493 0.044651795 0.12907244
-0.14137618 -0.239618 0.67979205 -0.98608559 0.10821202 -0.12619603 0.077756703
-0.12004374 -0.20589702 0.62702245 -0.87770081 0.14533785 -0.45663804 0.027240196
-0.065206692 -0.23888028 0.51358467 -0.89234626 -0.094954707 -0.44125023 0.10127241
-0.14103018 -0.30707896 0.6600818 -0.92283475 -0.24014644 -0.30117393 0.08770258
-0.14470905 -0.23179127 0.70153779 -0.98365074 0.16205773 0.078539535 0.095436327
-0.111086 -0.1222875 0.63148659 -0.90080875 -0.020359861 -0.43373835 0.040303722
-0.10144707 -0.095835529 0.60844362 -0.89196569 -0.03774365 -0.45052496 0.033792485
-0.08050707 -0.043613281 0.56247646 -0.78092337 0.4955155 -0.3802934 0.10224571
-0.13317321 -0.12837569 0.67266554 -0.97187543 0.029406941 -0.23365222 0.065054826
0.1169081 -0.058428712 0.5761264 0.65861583 0.56952018 -0.49180484 0.17504582
0.13788299 -0.079215921 0.58980972 0.98313349 0.18207888 0.017196205 0.12914938
-0.037868138 -0.040147144 0.51124442 -0.29326925 0.71144205 -0.63862616 0.13376161
-0.057828046 -0.040343177 0.51627332 -0.60307091 0.58996105 -0.53689039 0.11666627
-0.034921028 -0.031532668 0.51286393 -0.22655748 0.79085684 -0.56852192 0.11865507
-0.12416124 -0.054933574 0.65482002 -0.92742342 0.31444886 -0.20250331 0.096483506
-0.065721542 -0.048767019 0.5328849 -0.74680281 0.47137326 -0.46914062 0.11434088
-0.14659633 -0.32602382 0.7105515 -0.95035869 -0.2874352 0.11916084 0.15514441
-0.13883352 -0.25546169 0.67132843 -0.98079151 0.041843884 -0.19051793 0.06433741
-0.11768217 -0.12397422 0.63991821 -0.91575098 -0.023785066 -0.40104184 0.042385802
-0.14307311 -0.26065424 0.68071562 -0.99106658 0.014040429 -0.13262686 0.076479211
-0.012078485 -0.022660989 0.58923018 -0.012410502 0.99241269 -0.12232335 0.013633251
-0.069113865 -0.035950091 0.54715091 -0.6263957 0.67610949 -0.3879489 0.097350068
-0.077770703 -0.063854977 0.5569278 -0.87403524 0.24395904 -0.42017418 0.086069599
-0.14139228 -0.20979729 0.68810892 -0.99035263 0.13814458 0.01084752 0.077627048
-0.14488305 -0.24277832 0.69235122 -0.99437338 0.10310085 -0.024326928 0.087311268
-0.11750989 -0.16009152 0.63749462 -0.90874648 0.066465192 -0.41202199 0.035525661
-0.077577725 -0.030854415 0.5655362 -0.57272613 0.75750506 -0.3133224 0.091668397
-0.12514354 -0.19241369 0.64849895 -0.93656659 0.11595779 -0.33075196 0.048029069
-0.1319399 -0.06474486 0.68710423 -0.94078273 0.28798518 0.1788643 0.10915016
0.074167311 -0.027715253 0.56104231 0.14270574 0.9490509 -0.28095827 0.069601752
-0.092770062 -0.039658446 0.58538073 -0.72673631 0.57556164 -0.37494412 0.092303157
-0.11245662 -0.078126445 0.63185692 -0.91753823 0.14088163 -0.37185493 0.064894363
-0.12372972 -0.10300068 0.65390319 -0.96471471 0.00085351185 -0.26329601 0.048403159
-0.13334736 -0.10901712 0.67934561 -0.9889282 0.038353518 -0.14335288 0.066050068
-0.12429259 -0.11119895 0.651456 -0.95547318 -0.023960404 -0.29410356 0.046912309
-0.14584319 -0.21185474 0.7083621 -0.97996348 0.1597019 0.11902449 0.094053574
-0.14349706 -0.17907967 0.70307922 -0.97949255 0.089085124 0.18071596 0.087267101
0.13326782 -0.10067006 0.58707941 0.99796528 -0.018022938 -0.061160158 0.13204625
-0.015181065 -0.021415971 0.60709983 -0.0095073516 0.9981885 -0.059408419 0.0071758172
-0.053489063 -0.029052444 0.53734308 -0.39280397 0.83280039 -0.39006221 0.089165367
0.099180982 -0.029021097 0.57363933 0.30191052 0.92624032 -0.22567429 0.099975348
0.088450037 -0.024588428 0.5957002 0.20396812 0.97365445 -0.10195091 0.059296634
0.10871749 -0.025421033 0.62340999 0.33403528 0.94256032 0.00068329863 0.076630957
-0.0022064457 -0.028354837 0.52720875 0.02140378 0.90553182 -0.42373803 0.088056132
0.10931343 -0.082945645 0.5743978 0.51405227 0.19159186 -0.83608782 0.15463148
-0.026620274 -0.022569757 0.68933183 -0.088952146 0.97940588 0.18125041 0.044594511
-0.13344951 -0.063177615 0.697932 -0.90169519 0.30869263 0.30274513 0.11289122
-0.13579123 -0.073368631 0.69107825 -0.96068269 0.22150335 0.1674068 0.094583891
-0.15296754 -0.2933417 0.70884454 -0.98245972 -0.14678007 0.11501513 0.1232278
-0.07783898 -0.078118056 0.55429488 -0.89627904 0.14211479 -0.42010385 0.064552709
-0.1380129 -0.14957713 0.70365196 -0.99072576 0.045156889 0.12815358 0.082815215
-0.13592973 -0.13108854 0.68947363 -0.99476635 0.070138283 -0.074300647 0.081284307
0.033735979 -0.3144528 0.55719239 0.29227936 -0.71916443 -0.63037711 0.16544217
-0.1336934 -0.14291531 0.67101848 -0.97555196 0.067428097 -0.20916958 0.058810923
-0.12366354 -0.10104921 0.65068614 -0.95893568 0.0053880792 -0.28357244 0.04594294
-0.11335619 -0.18014155 0.62255716 -0.8749001 0.093887135 -0.47511575 0.028339984
-0.14965184 -0.30700704 0.68285578 -0.9720701 -0.21109629 -0.10255779 0.11361939
-0.14288722 -0.23657487 0.71173561 -0.97857445 0.13588358 0.15468596 0.10410309
-0.08944039 -0.08669167 0.58215296 -0.91650528 0.05182026 -0.39665201 0.042825662
-0.14050071 -0.20191929 0.69125754 -0.99072653 0.12827133 0.044803388 0.08177083
-0.13489757 -0.12838486 0.68072295 -0.9831093 0.039578374 -0.17868873 0.067354523
-0.12673062 -0.21216603 0.64597821 -0.92475861 0.13403293 -0.3561694 0.038672693
-0.14156237 -0.23371284 0.68608057 -0.98527306 0.13702795 -0.10227516 0.072667144
-0.14261551 -0.18960784 0.70834267 -0.96621811 0.11118336 0.23250999 0.094122194
0.023218218 -0.028084872 0.7721777 -0.1627842 0.64792085 0.74411017 0.15239975
-0.067709662 -0.15926081 0.52674818 -0.90324831 0.097906724 -0.41779986 0.10062119
-0.049785383 -0.047830936 0.50369948 -0.53517199 0.53274649 -0.65557009 0.13244821
-0.050719514 -0.29818675 0.51627529 -0.68566507 -0.18782878 -0.7032665 0.20243558
0.059278388 -0.022119934 0.73162585 0.19625312 0.93254125 0.30307022 0.10554993
0.09240403 -0.022923363 0.62577367 0.22256076 0.97483379 -0.012872336 0.048131917
0.11910424 -0.025964256 0.62567437 0.39493161 0.91865396 0.010195647 0.088249169
-0.052185271 -0.043614093 0.50387818 -0.55487484 0.56422096 -0.61136627 0.12538233
-0.073084071 -0.053097777 0.54875618 -0.83427882 0.36916515 -0.40950689 0.10404276
0.07352183 -0.021396661 0.71179682 0.23684177 0.94721115 0.21609476 0.070376128
0.13693221 -0.028577251 0.58961087 0.68140894 0.71947008 -0.13433045 0.14938015
0.013694131 -0.026576551 0.5380767 0.087317675 0.93211478 -0.35147929 0.075368918
0.059323821 -0.02199525 0.73220444 0.19625312 0.93254125 0.30307022 0.10554993
0.014204625 -0.022221111 0.72742373 -0.048469156 0.94320834 0.32864678 0.086203955
-0.083733395 -0.021995213 0.65320343 -0.30879059 0.95102644 0.014035813 0.072104648
-0.041118387 -0.022257626 0.67758548 -0.10650665 0.98398697 0.14291956 0.034524005
-0.062640853 -0.024402654 0.57720327 -0.36529571 0.90153605 -0.23193049 0.073649555
0.030993417 -0.019714255 0.6823529 0.030007955 0.99664557 0.076139092 0.01913986
0.10087447 -0.021222087 0.64015269 0.29385209 0.95529294 0.032654267 0.061134759
-0.12426746 -0.049728949 0.65975535 -0.90814763 0.39083415 -0.15005523 0.11078437
-0.070126846 -0.031685621 0.55228579 -0.56113225 0.75288039 -0.34395018 0.095652528
0.10383179 -0.025759332 0.58196318 0.31161517 0.93408996 -0.17427564 0.098801665
0.065358773 -0.026214285 0.7605685 0.33248985 0.78798211 0.51820338 0.16685656
-0.055851661 -0.12649491 0.50455421 -0.81820112 0.03000387 -0.57414865 0.14549033
-0.048547845 -0.031097919 0.5036009 -0.40967089 0.7074334 -0.57594085 0.10667173
-0.12351516 -0.031009786 0.67116994 -0.74431401 0.6663968 0.043725587 0.12524566
0.08253666 -0.020238411 0.70697129 0.28031477 0.93858087 0.2012201 0.071722157
-0.134536 -0.094507158 0.68926746 -0.99611199 0.060983084 0.063576132 0.082551621
-0.06246249 -0.081172332 0.52108878 -0.85411841 0.13689554 -0.50173825 0.092307061
-0.020133147 -0.025219962 0.54233593 -0.10750562 0.94284999 -0.31539878 0.067433104
-0.061601494 -0.14280507 0.51906538 -0.88873655 0.059292514 -0.45456755 0.12961578
0.053319756 -0.021245304 0.64090943 0.068188325 0.9976573 -0.0054936321 0.022400485
-0.074805282 -0.020614918 0.61961961 -0.30278605 0.94376016 -0.13280569 0.052400213
-0.042310406 -0.022987545 0.56908321 -0.22532725 0.94826198 -0.22366668 0.057248656
-0.0679456 -0.11228886 0.53357023 -0.90771079 -0.0091522597 -0.41949669 0.08459346
-0.07194373 -0.081606321 0.54355389 -0.90053761 0.13586251 -0.41300523 0.066005491
-0.10525915 -0.11841296 0.6267907 -0.8909499 -0.056763712 -0.45053989 0.037428048
-0.096703641 -0.098471902 0.60393333 -0.88866556 -0.050038092 -0.45581767 0.041980498
-0.093689919 -0.023664828 0.62641817 -0.48718145 0.85279137 -0.18815169 0.079413958
0.096821979 -0.025681777 0.68644476 0.42429957 0.88533294 0.1901461 0.081758909
-0.13459384 -0.13512203 0.67525011 -0.97749031 0.060509335 -0.20211722 0.061116036
0.08549729 -0.020857545 0.67939174 0.27592602 0.95201647 0.13239878 0.067024238
-0.060417842 -0.020651132 0.6556555 -0.17892204 0.98278069 0.046141032 0.034831837
-0.090617463 -0.022582324 0.64039618 -0.38097656 0.92227256 -0.065345764 0.082338199
-0.14258304 -0.17900032 0.70296997 -0.9762463 0.089672193 0.19723603 0.090110444
-0.10608469 -0.043885853 0.62354964 -0.81194621 0.46171242 -0.35716233 0.099909566
0.036049929 -0.028007815 0.77296633 -0.064994298 0.6928643 0.71813291 0.17183699
0.029478252 -0.025577582 0.75172234 -0.075902283 0.8278085 0.55585241 0.1398779
-0.12943791 -0.13337585 0.66771477 -0.96680593 0.053387575 -0.24987207 0.060777355
0.099237733 -0.021508971 0.67347932 0.36180419 0.91987979 0.15138958 0.071338251
-0.066904142 -0.12431739 0.53066218 -0.91549361 -0.017326077 -0.40195933 0.10340891
-0.059810951 -0.10063156 0.51133841 -0.831397 0.040969927 -0.5541665 0.096248701
-0.084041744 -0.033260543 0.57887012 -0.63075095 0.70999658 -0.31314218 0.094450653
0.065845028 -0.02181422 0.5991168 0.088812113 0.99088722 -0.10126624 0.024403289
-0.034375969 -0.020394202 0.6170063 -0.067487128 0.99651152 -0.04909407 0.012515214
-0.072726771 -0.095637806 0.55054617 -0.91829598 0.030512875 -0.39471686 0.055094123
-0.084500916 -0.18717302 0.56474406 -0.94182128 0.081074499 -0.32618949 0.054720562
-0.060031846 -0.12298701 0.51781863 -0.86898106 0.020149255 -0.49443495 0.11776563
-0.027573835 -0.020418916 0.62882328 -0.026826849 0.99940234 -0.021802213 0.012490191
-0.10173664 -0.036107544 0.60131776 -0.71245486 0.58755684 -0.38364691 0.083427802
0.064866573 -0.037030481 0.80192053 0.94628972 0.17473046 0.27203858 0.19627033
0.048260756 -0.022137713 0.58686715 0.03741606 0.99173433 -0.12273149 0.031668674
-0.062087864 -0.15708809 0.51598674 -0.89109784 0.076202214 -0.44736782 0.11767835
-0.10061333 -0.026678734 0.68931651 -0.44307527 0.85376507 0.27344036 0.10958173
-0.071307883 -0.027801333 0.72402781 -0.28211734 0.83460647 0.47311929 0.092596717
-0.047364455 -0.050699994 0.73853451 -0.27265736 0.52936393 0.80338764 0.11829435
0.032683581 -0.1915935 0.78065932 -0.10574507 0.014201386 0.9942919 0.12272137
-0.078439116 -0.088665113 0.72148222 -0.44146022 0.14076893 0.88616985 0.077124365
0.050625429 -0.07628087 0.78519011 -0.2131822 0.20280829 0.95573121 0.14517859
0.053046912 -0.09730377 0.7797305 -0.27296886 0.052105721 0.96061081 0.14508106
-0.018615227 -0.084024183 0.74703443 -0.32572618 0.16349617 0.93122041 0.074330218
-0.027056746 -0.049296547 0.73990202 -0.29595602 0.56935042 0.76697475 0.13733621
0.019202136 -0.11526303 0.76589304 -0.27599999 0.10422948 0.95548952 0.083068855
-0.0032176054 -0.18733734 0.77008128 -0.32357791 0.029597903 0.94573843 0.046701122
0.047244627 -0.13063711 0.7829271 -0.037692834 0.09780138 0.99449182 0.11738501
0.047946539 -0.11288972 0.78209674 -0.33151016 0.054939359 0.94185066 0.13375926
-0.038092606 -0.023774492 0.55945057 -0.22002238 0.94035375 -0.25947067 0.061238732
-0.073404707 -0.066443935 0.72986352 -0.37772113 0.40791124 0.83122504 0.10433903
0.0022334706 -0.10222419 0.76266432 -0.31326345 0.10265425 0.94410169 0.067477025
0.027654324 -0.20615886 0.7736398 -0.11948198 0.059348464 0.99106091 0.12832817
0.012893966 -0.2230062 0.77384919 -0.25953126 0.11781906 0.95852083 0.10189947
-0.032145943 -0.11978208 0.74828702 -0.3586632 0.058879133 0.9316082 0.056197125
0.0033697616 -0.19683978 0.77378923 -0.29650292 0.020890905 0.95480353 0.057382848
-0.076866336 -0.076921873 0.72638094 -0.40596658 0.21790485 0.88752949 0.097442083
0.048715264 -0.049084775 0.78366351 0.041836124 0.31753421 0.94732344 0.1797161
0.055523247 -0.091507614 0.7852928 -0.31735858 0.078478478 0.94505274 0.14189182
0.046296615 -0.23744281 0.78944093 0.13385992 0.11598085 0.98418999 0.13543148
0.049956057 -0.19357571 0.77184498 0.47716671 -0.050617293 0.87735391 0.14893727
-0.054262776 -0.083943591 0.73494703 -0.34468302 0.16570109 0.92397875 0.077426359
-0.066532083 -0.17397138 0.7300846 -0.37653345 0.026112208 0.92603499 0.064135104
-0.022549927 -0.075186417 0.74755281 -0.32002652 0.20828816 0.92422885 0.092334419
-0.047733098 -0.19390357 0.74778908 -0.4141131 0.03015773 0.90972567 0.044401847
0.031078581 -0.28109869 0.78383899 -0.096101679 0.013050188 0.99528599 0.11841753
0.019183876 -0.26765189 0.77839661 -0.28781131 0.056080893 0.95604372 0.086336099
0.0025765828 -0.25040343 0.76915556 -0.35621795 0.078436114 0.93110502 0.065553561
-0.011478293 -0.050983097 0.74314511 -0.28344712 0.52597642 0.80187678 0.12631902
-0.020521076 -0.22926621 0.74931395 -0.36344352 0.041914809 0.93067282 0.04767124
0.05296611 -0.20647584 0.77426261 0.50873041 0.0029544912 0.86092085 0.14834245
-0.0079975976 -0.20012055 0.76212817 -0.35168669 0.017180484 0.93596005 0.056294702
0.041922558 -0.25332949 0.78569549 0.035266828 0.074915178 0.99656606 0.11410627
-0.0015114613 -0.11702392 0.75794828 -0.3396883 0.10466538 0.9346962 0.063554026
0.049673378 -0.14787911 0.784756 0.083660774 0.026855927 0.99613231 0.11374334
-0.022311173 -0.17707096 0.75400943 -0.41355395 0.053614218 0.90889966 0.044596512
-0.028393244 -0.06076574 0.74479479 -0.34675065 0.3597613 0.86621922 0.1239896
0.038029384 -0.28326377 0.7807315 0.15188429 -0.021068957 0.98817366 0.12802415
-0.043187335 -0.1424918 0.73979086 -0.36837575 0.014848272 0.92955834 0.038267586
-0.066758782 -0.17887671 0.72819686 -0.39316842 0.036006887 0.91876119 0.067618541
-0.1080195 -0.17022465 0.71531713 -0.64923614 0.11099616 0.75244421 0.12148489
-0.11889721 -0.13744606 0.71292871 -0.7692275 0.086296342 0.63312083 0.13193633
-0.11024903 -0.21022309 0.7190429 -0.67200077 0.11005589 0.73232687 0.136939
-0.075139418 -0.024566395 0.69883358 -0.26971042 0.9149338 0.30025381 0.073590964
-0.10670386 -0.046540152 0.70541441 -0.63227808 0.58996618 0.50215983 0.11855627
-0.034846265 -0.26662579 0.75645125 -0.3718302 0.068939321 0.92573732 0.041939437
-0.0032430773 -0.22376655 0.76693374 -0.31304303 0.08763738 0.94568694 0.079196468
0.047858983 -0.019774402 0.6789633 0.095034868 0.99209774 0.081916787 0.023830554
0.028806429 -0.20289955 0.77454466 -0.11610423 0.030617671 0.99276501 0.12577678
-0.024465216 -0.24367893 0.7507686 -0.36959904 0.067360856 0.92674643 0.045468107
0.050247014 -0.3312763 0.78027689 0.57681817 -0.16172798 0.80070275 0.14244948
-0.057360496 -0.27265161 0.74400318 -0.36369079 0.073685206 0.92860085 0.047385339
-0.043183841 -0.20691694 0.74537259 -0.4128297 0.051383354 0.90935767 0.040105741
0.05165286 -0.18343198 0.7643438 0.57595992 -0.055929836 0.81556237 0.119192
-0.035115484 -0.030662945 0.74112558 -0.21498415 0.7872237 0.57797974 0.11152905
-0.081945784 -0.096157476 0.72380412 -0.47218135 0.047057591 0.88024455 0.062689111
-0.058990315 -0.054795645 0.73293209 -0.28219974 0.49778667 0.82010466 0.12879983
-0.028854115 -0.21170247 0.75110084 -0.40232208 0.021863459 0.91523713 0.043070208
-0.089251108 -0.22258504 0.72589552 -0.4448263 0.11077128 0.8887403 0.078123428
-0.013425985 -0.25806332 0.76300168 -0.3636933 0.09012872 0.92714834 0.048679519
-0.048793811 -0.14859574 0.73865515 -0.37478024 -0.003439826 0.92710733 0.040229097
-0.051572066 -0.090628281 0.73598677 -0.3698009 0.12146945 0.9211365 0.070601657
-0.10172471 -0.21572274 0.7254917 -0.52682316 0.062506147 0.84767348 0.11369898
0.048476689 -0.23223525 0.78357679 0.13149838 0.10329964 0.98591959 0.14177518
-0.12022 -0.051750623 0.70594752 -0.74323678 0.44310188 0.50125825 0.11738416
0.05224188 -0.15038455 0.78619069 0.21648847 0.0028783891 0.97628099 0.11917465
0.013228474 -0.32258347 0.77469265 -0.20408468 -0.22729774 0.95220017 0.12553041
-0.027114721 -0.23268181 0.74731743 -0.37929761 0.066144958 0.92290747 0.043702066
-0.042310607 -0.13007101 0.74089313 -0.35130173 0.045392372 0.93516123 0.055350568
-0.028352264 -0.14221762 0.75675255 -0.3754757 0.041985337 0.92588079 0.041166216
-0.034520518 -0.29392263 0.75253242 -0.38336167 0.067956068 0.92109483 0.046437748
-0.12811218 -0.13419338 0.70476377 -0.95206124 0.082312502 0.2946251 0.11937997
-0.11927544 -0.028690958 0.65350074 -0.70947725 0.69848263 -0.09361688 0.11334608
-0.12209515 -0.037403926 0.70016485 -0.70139241 0.5957846 0.39126644 0.11924943
-0.12268373 -0.063045479 0.70206058 -0.82870656 0.34674492 0.4393329 0.11611598
-0.040103972 -0.33037829 0.76025707 -0.34128565 -0.02905752 0.93951035 0.06421788
-0.11413828 -0.18788002 0.71561295 -0.74513465 0.13231091 0.65365756 0.12949865
0.048719801 -0.16006994 0.78359109 0.015387724 0.0075251474 0.99985325 0.1083484
-0.12013374 -0.042063542 0.69771743 -0.74683487 0.55655187 0.36398855 0.12858167
-0.083494261 -0.076221325 0.71890646 -0.51981139 0.28248125 0.80622602 0.1027761
-0.12864196 -0.10188546 0.70595163 -0.96751046 0.081342526 0.23938859 0.095111579
-0.065548897 -0.29576179 0.74223948 -0.41059494 -0.0046480582 0.91180599 0.065584958
-0.1182156 -0.27798876 0.71603054 -0.79017806 -0.0494087 0.61088258 0.14581442
-0.059241481 -0.031476341 0.73043823 -0.23187985 0.80162841 0.55102056 0.10085099
0.015596036 -0.0216022 0.7220757 -0.028086396 0.96239531 0.27019706 0.069958381
-0.047121581 -0.15449777 0.74577206 -0.3839182 0.0010988342 0.92336649 0.040639706
-0.041316867 -0.054188445 0.73737431 -0.29469064 0.47788134 0.82751852 0.13092618
0.048325296 -0.1113437 0.78094846 -0.37538102 0.034633361 0.92622322 0.14231834
-0.063061334 -0.072965793 0.73092175 -0.31413212 0.28365862 0.90601259 0.098460101
-0.075354375 -0.20612165 0.72151989 -0.39135283 0.12311731 0.91196764 0.068838783
-0.10372996 -0.1105064 0.72136289 -0.60826916 -0.010928302 0.79365563 0.096912883
-0.012485507 -0.041220319 0.74486864 -0.2450662 0.66521323 0.70528996 0.1222574
0.039059985 -0.2591562 0.78267843 0.053939387 0.068089753 0.99621999 0.12124097
-0.0074161985 -0.12213767 0.7505179 -0.35560903 0.086381748 0.93063438 0.057468075
0.020486416 -0.29049402 0.77499062 -0.18672015 0.025237296 0.98208892 0.10698596
0.022871325 -0.023121461 0.73449033 -0.029460693 0.9225741 0.38469353 0.10622334
-0.056202359 -0.16742149 0.736112 -0.36573505 0.017501162 0.93055445 0.045536123
-0.1456804 -0.27017894 0.69424438 -0.99891996 -0.045965679 0.0067806276 0.092243291
0.014487565 -0.10225483 0.76034713 -0.30748218 0.10264662 0.94600123 0.084202126
-0.072620369 -0.060596425 0.72587973 -0.38089451 0.48944554 0.78445041 0.10874506
-0.06179031 -0.30075398 0.74708748 -0.38402873 -0.041678187 0.92237997 0.064666897
-0.065024056 -0.2874366 0.74550003 -0.37746745 0.011776585 0.92594802 0.06769605
-0.016386067 -0.32155064 0.7617166 -0.36673272 -0.020999702 0.93008935 0.060922582
-0.03085552 -0.13839635 0.75166273 -0.37405303 0.041722704 0.92646837 0.043478966
-0.1074887 -0.036213063 0.70672023 -0.55655503 0.70573276 0.43839213 0.11443056
-0.0069359443 -0.02110659 0.60287666 0.0098932311 0.99709386 -0.075537309 0.0063396795
-0.10824092 -0.32893428 0.71607524 -0.68048692 -0.28071964 0.67685598 0.19583741
-0.086544171 -0.28304362 0.73057705 -0.37644815 0.080460817 0.9229371 0.086473137
-0.058586083 -0.031201055 0.7290225 -0.23106883 0.80701256 0.54345006 0.099692576
0.026604524 -0.08142259 0.75962907 -0.2677733 0.2453979 0.93170661 0.12785661
0.048741404 -0.025582673 0.75445372 0.15467729 0.83540326 0.52742428 0.16141433
-0.031626135 -0.072013915 0.74493247 -0.35294378 0.23600847 0.90538979 0.1089886
-0.059353173 -0.054674067 0.73287994 -0.28241941 0.50837135 0.81350958 0.12424
-0.035901722 -0.031890899 0.73832154 -0.2179413 0.7825188 0.58323747 0.10884035
0.00011306546 -0.087880768 0.7579453 -0.33115229 0.13907501 0.93327183 0.075347193
-0.089892723 -0.30790317 0.7300126 -0.43512177 -0.14859453 0.88802522 0.13079764
-0.071906805 -0.26740748 0.73450661 -0.35353735 0.068778656 0.93288845 0.065247893
-0.096483335 -0.32645866 0.71934026 -0.56871223 -0.26765585 0.7777704 0.17843004
0.039697025 -0.2240022 0.77669901 0.014927469 0.05996009 0.99808919 0.15111268
0.026035979 -0.11222783 0.76518786 -0.23901452 0.097250797 0.96613371 0.091967262
-0.13625291 -0.33318204 0.68458712 -0.91204101 -0.40136972 -0.084164031 0.14899798
-0.043921977 -0.32563785 0.7575416 -0.32866162 -0.070795819 0.94179058 0.059826512
-0.070588432 -0.086203277 0.72601038 -0.36777675 0.1542688 0.91702861 0.072218902
-0.015915878 -0.039448306 0.74809223 -0.25550196 0.67353326 0.69359326 0.12115299
-0.10622904 -0.1993119 0.7179333 -0.63694769 0.09547203 0.76497245 0.13668714
-0.0069794888 -0.021171847 0.65267223 -0.016029721 0.99960297 0.023172922 0.029366683
-0.1053013 -0.18369198 0.71569097 -0.65454656 0.14120491 0.74271798 0.1280916
-0.12603813 -0.058356438 0.69952732 -0.83696562 0.37611642 0.39752349 0.11960029
-0.10344829 -0.26548147 0.72152144 -0.57648498 0.070039257 0.81410044 0.12024581
-0.10180309 -0.19375627 0.72018272 -0.58578396 0.10085183 0.80416799 0.12510844
-0.14199433 -0.26526007 0.676449 -0.9814353 -0.007258595 -0.19165632 0.068800583
0.024205765 -0.021496702 0.66489726 0.002042616 0.99970418 0.024238262 0.015181815
-0.10231499 -0.29649797 0.72287488 -0.61138415 -0.094108254 0.78571814 0.14628738
-0.08877819 -0.22579506 0.72419459 -0.45686144 0.088788323 0.88509572 0.077945769
-0.11551526 -0.25557002 0.7132588 -0.76833951 0.065880544 0.63664287 0.13819945
0.00053325616 -0.021275416 0.63411236 -0.0013762671 0.99986076 -0.016632406 0.016439132
0.015053211 -0.0297068 0.76098925 -0.13503206 0.70601249 0.69520694 0.13970841
0.047413148 -0.079552591 0.77983862 -0.20078674 0.18558344 0.96189576 0.13967843
0.0035848103 -0.10024219 0.75957882 -0.321367 0.095012926 0.9421761 0.066336133
0.021140624 -0.11625022 0.76374239 -0.25648609 0.098203488 0.96154618 0.087996885
0.014452476 -0.23523428 0.77313435 -0.2584272 0.082798116 0.9624759 0.10852263
-0.029128563 -0.21925783 0.74664116 -0.38969785 0.042252492 0.91997296 0.042642992
0.0080798594 -0.079585038 0.75514412 -0.3022539 0.23964471 0.92261207 0.10186771
-0.006208146 -0.025991205 0.73356104 -0.15541835 0.87876678 0.45123628 0.092735827
0.032654285 -0.19086702 0.78188932 -0.089328751 0.0060255029 0.9959839 0.1229922
0.04133144 -0.021498291 0.72161847 0.079586998 0.96431786 0.25250155 0.075864062
0.04591459 -0.21160229 0.77958715 0.19737051 0.059908021 0.97849673 0.15834306
-0.0018204356 -0.20272967 0.76542383 -0.31483045 0.003144417 0.94914269 0.058469757
-0.1295269 -0.13506404 0.70382637 -0.96684325 0.078818098 0.24290301 0.11436606
0.10323967 -0.023496043 0.67425376 0.39318332 0.90379959 0.16897677 0.074885026
0.040527999 -0.04040195 0.7759822 -0.096004769 0.48049396 0.87172735 0.17284362
0.0088646384 -0.09624593 0.75939089 -0.3305065 0.10682058 0.93773913 0.074359305
0.041410524 -0.021135777 0.72124213 0.078585193 0.96692079 0.24266966 0.071685605
-0.099459037 -0.32376415 0.72311306 -0.55441946 -0.14956737 0.81868708 0.15629558
-0.044690423 -0.094309151 0.73284084 -0.3666907 0.12884261 0.92137802 0.068399757
-0.050818931 -0.2030914 0.73943716 -0.38793528 0.045553081 0.9205603 0.040833544
-0.069052331 -0.11898222 0.72789723 -0.41699097 0.047200151 0.90768427 0.063996516
-0.010417264 -0.11042205 0.75348765 -0.35337561 0.098074622 0.93032634 0.058833335
0.026157426 -0.11291271 0.76889414 -0.24836507 0.11747573 0.96151668 0.09434469
0.047254477 -0.1248254 0.78421599 -0.20872393 0.07057862 0.97542453 0.13063405
-0.10390476 -0.23125438 0.72235888 -0.5902186 0.08070901 0.80319864 0.11461292
-0.11954354 -0.2067439 0.7124303 -0.82645905 0.13266288 0.54714352 0.13772365
-0.12002086 -0.22590312 0.71301782 -0.8356576 0.12189534 0.53555387 0.14376475
-0.084474154 -0.30360281 0.72799981 -0.39889693 -0.12373644 0.90860915 0.12023474
0.033837918 -0.028544432 0.7697351 -0.091945603 0.71331578 0.6947853 0.16936819
0.03922471 -0.035618376 0.77263373 -0.083793275 0.54604459 0.83355504 0.17643462
-0.067095324 -0.02361933 0.70711756 -0.22322363 0.9158358 0.33379033 0.071990587
-0.13350692 -0.10655417 0.69094568 -0.99890542 0.046564549 0.0044283704 0.079058811
-0.1361859 -0.27459157 0.70013481 -0.99435055 -0.047582183 0.094884239 0.10935949
-0.08962062 -0.024740994 0.68079847 -0.34407878 0.92006755 0.18731098 0.08996205
-0.056256827 -0.027546095 0.72617596 -0.20958209 0.86786443 0.45042947 0.091860831
0.015000973 -0.083804861 0.75857651 -0.31387007 0.18621868 0.93102533 0.10280932
-0.042072296 -0.025597317 0.72825533 -0.17377849 0.88542569 0.43107119 0.089512341
0.038506448 -0.23826508 0.7748242 -0.0686232 0.093787529 0.99322444 0.12623605
0.044888172 -0.24880297 0.78956681 0.10593296 0.065029547 0.9922446 0.12427778
0.023234367 -0.20255493 0.7765708 -0.17419107 0.039783586 0.98390794 0.11317554
-0.10568383 -0.26189756 0.72104627 -0.60273129 0.055145774 0.79603636 0.12755671
0.037993662 -0.099802442 0.76899612 -0.26368794 0.062052649 0.96261007 0.11785572
0.04587863 -0.032281052 0.7835992 -0.027474849 0.59052038 0.80655485 0.19994907
0.030573711 -0.11776559 0.76827461 -0.20116791 0.10724966 0.97366786 0.10320146
-0.032892261 -0.022385599 0.68308502 -0.093090028 0.98464715 0.14766252 0.034391616
-0.040073201 -0.2272822 0.75104403 -0.39578646 0.084844261 0.91441482 0.038443904
-0.05775715 -0.0235369 0.69470513 -0.16603062 0.95777583 0.23473249 0.051515829
-0.062897928 -0.28177181 0.73999584 -0.4060722 0.028547533 0.91339505 0.0564465
-0.094485268 -0.3228943 0.73019546 -0.45266283 -0.19187723 0.87079245 0.1472276
-0.063059971 -0.060699705 0.72883457 -0.3045277 0.48821402 0.81786919 0.11976637
-0.12271219 -0.14181057 0.7089023 -0.82718551 0.098610766 0.55320883 0.12930703
-0.13105249 -0.096949399 0.69729054 -0.98181599 0.082660317 0.17089327 0.088603944
-0.073884688 -0.048835717 0.72284192 -0.36385301 0.63931102 0.67741591 0.1039331
-0.064699978 -0.16372366 0.72867638 -0.39955357 0.015699605 0.91657537 0.064964376
-0.082369097 -0.27467379 0.73069578 -0.38321209 0.052806072 0.92214978 0.068325005
-0.10657965 -0.16252163 0.70827645 -0.68122923 0.14315003 0.71793783 0.12591799
-0.053917255 -0.15837233 0.73404318 -0.36544827 0.017116973 0.93067425 0.043538831
-0.014425439 -0.023066955 0.68667424 -0.080404989 0.98512733 0.15185241 0.039198302
-0.061238192 -0.15830094 0.72780979 -0.40092409 0.010947816 0.91604584 0.053809822
-0.094260991 -0.02801575 0.69375366 -0.40624848 0.86683118 0.28907758 0.10011369
-0.13966449 -0.20805407 0.70028144 -0.98420918 0.13335694 0.11639589 0.095357403
-0.083437584 -0.025378078 0.69170213 -0.31459337 0.91450971 0.25436792 0.083232448
-0.054911517 -0.17525631 0.73939162 -0.36973241 0.01380647 0.92903566 0.045670297
-0.073455267 -0.021896265 0.63646078 -0.27548942 0.9591772 -0.063912243 0.053564154
0.031728163 -0.021502135 0.59252954 0.028836627 0.9932645 -0.11222367 0.020780632
-0.1207782 -0.050820492 0.69566804 -0.81134236 0.46648064 0.35230586 0.13020608
-0.095648855 -0.056814667 0.71102226 -0.59131199 0.53163415 0.60639536 0.11549123
0.001500692 -0.23001762 0.76298189 -0.31010419 0.085918047 0.94681221 0.088037007
0.030773353 -0.025443004 0.74958795 -0.05041017 0.86043328 0.50706357 0.13228554
0.037917051 -0.026880495 0.76147205 0.023790231 0.79258454 0.60929775 0.16145076
0.032787967 -0.02134103 0.62811464 0.015583955 0.99930507 -0.033861265 0.022717075
-0.11973263 -0.029546836 0.6892727 -0.64176607 0.72006398 0.26390192 0.12494806
-0.09093947 -0.032724153 0.71046227 -0.43184251 0.78375828 0.44635752 0.10109082
-0.071588971 -0.044098221 0.72440535 -0.32497603 0.72452122 0.6078319 0.099206999
0.030905059 -0.28822547 0.77925199 0.055105899 -0.052781083 0.9970845 0.13612428
0.038709689 -0.27112183 0.78025115 0.067307927 0.02596993 0.9973942 0.12866263
-0.11855054 -0.030590983 0.682684 -0.6695801 0.72055531 0.18017361 0.12569468
-0.053945746 -0.023457415 0.70862943 -0.16888425 0.93335086 0.31675601 0.067045659
-0.12210172 -0.18217033 0.71069807 -0.8336041 0.11065765 0.54116458 0.12586851
-0.06999056 -0.030695772 0.5568611 -0.53233141 0.77876759 -0.33187994 0.096373439
0.050102316 -0.027971864 0.76467389 0.18322839 0.77124357 0.60959882 0.1800856
-0.035946503 -0.021989951 0.59280926 -0.13840182 0.97968519 -0.14512667 0.033943165
0.065508239 -0.023706526 0.5819248 0.099741057 0.98218864 -0.1592394 0.050034348
-0.0049005169 -0.08477965 0.75296628 -0.33624098 0.15403499 0.92909384 0.077975966
0.033038981 -0.31937853 0.7869916 -0.020286366 -0.30709919 0.95146126 0.15962994
-0.015039835 -0.20613188 0.75999373 -0.37387934 0.0055894265 0.92746049 0.049996972
0.020966951 -0.23442736 0.77166969 -0.16101666 0.085357808 0.98325366 0.11319628
-0.1342255 -0.12553582 0.69249284 -0.99710125 0.071100801 -0.027089857 0.086605951
0.04468549 -0.036476478 0.78338981 -0.054058038 0.5065403 0.86051995 0.19166365
0.089565463 -0.028355056 0.56859809 0.22447796 0.93948722 -0.25879228 0.085679561
-0.096507274 -0.028903589 0.59514856 -0.63252133 0.69445169 -0.34300679 0.080887176
-0.14287391 -0.33120611 0.68333173 -0.93202078 -0.35077196 -0.091083609 0.12926957
-0.050695505 -0.16189328 0.74056393 -0.37126607 0.0067772409 0.92850173 0.043815214
-0.13130218 -0.12660895 0.69698685 -0.99501812 0.083808497 0.05399251 0.095333055
-0.14382814 -0.27406034 0.67340732 -0.97683328 -0.039658628 -0.21029481 0.069332927
-0.02432741 -0.25669175 0.7557826 -0.38637763 0.082866393 0.91861063 0.043886233
-0.12584782 -0.04135146 0.68909645 -0.79644352 0.53959101 0.27298197 0.12964547
-0.12934354 -0.033324651 0.6696251 -0.80876201 0.58765173 0.023863908 0.1197092
0.097421385 -0.02980802 0.70003873 0.55857307 0.77273965 0.30144584 0.096326485
0.07897491 -0.023256937 0.59572625 0.1576373 0.98057735 -0.11669892 0.048954051
0.016901908 -0.024635529 0.74007386 -0.079093233 0.88460439 0.45958617 0.11467966
-0.13985898 -0.25229186 0.68640363 -0.9947418 0.060607132 -0.08255633 0.081242509
0.048951108 -0.024046889 0.73355693 0.14438124 0.93454903 0.32522634 0.11447713
-0.0022204057 -0.060810786 0.74936676 -0.28858727 0.38958183 0.87461042 0.11597012
0.045665134 -0.23314442 0.76365459 0.22623971 0.12341318 0.96622193 0.14920883
0.015186243 -0.099419065 0.761033 -0.3135753 0.096180551 0.9446798 0.087130636
-0.051758058 -0.071939349 0.7363624 -0.35112125 0.26003492 0.89949745 0.10769259
-0.02921092 -0.084557168 0.74062526 -0.34095448 0.18418519 0.92186004 0.083824895
-0.060767978 -0.082019284 0.73074281 -0.32845443 0.19786349 0.92356253 0.077429652
-0.055232327 -0.29993996 0.74726176 -0.38265315 0.023550306 0.92359191 0.056637596
-0.089059956 -0.19668725 0.71971053 -0.48150769 0.09761174 0.87098926 0.10588939
-0.067482807 -0.03735375 0.72066319 -0.29079679 0.82183719 0.48991916 0.097192995
-0.13459121 -0.16669908 0.69804144 -0.97423339 0.070848018 0.21412568 0.096078515
-0.14455494 -0.28680599 0.69584566 -0.99235886 -0.12292163 0.010686385 0.10999139
-0.14907268 -0.29094532 0.68586862 -0.98616582 -0.14557523 -0.079276755 0.10175408
-0.025408881 -0.020450246 0.63269353 -0.013080108 0.99987608 -0.0087705469 0.010865178
-0.13502574 -0.10206874 0.68339407 -0.99662066 0.033886164 -0.07482677 0.069922887
-0.14012161 -0.17419219 0.69390404 -0.99343753 0.074925043 0.086418167 0.074519046
-0.0043430869 -0.023127444 0.70785773 -0.10165117 0.96847016 0.22744793 0.05971913
-0.022183523 -0.021603066 0.679775 -0.065828033 0.98995757 0.12510271 0.031100666
0.0050825905 -0.023881992 0.73033851 -0.089389041 0.92491794 0.36950839 0.089704782
-0.047031332 -0.027288869 0.73522717 -0.21135445 0.83197618 0.51297659 0.10094156
-0.012624395 -0.21941397 0.75587469 -0.34380004 0.033852983 0.93843246 0.057745446
0.083944 -0.028990449 0.75300533 0.63306713 0.61900383 0.46482274 0.14054325
-0.14072204 -0.20400791 0.68668354 -0.99162096 0.1286575 0.011627994 0.081170201
-0.13916287 -0.15949383 0.68891442 -0.99833697 0.057573542 0.0029054959 0.072936237
0.0039664782 -0.09567219 0.75360566 -0.33476555 0.10905833 0.93596917 0.067298971
-0.14868549 -0.29805681 0.67872888 -0.97741884 -0.17421876 -0.11958359 0.10342845
0.037470885 -0.020096924 0.71253747 0.060017735 0.97559839 0.2112004 0.055770855
0.046593267 -0.23402794 0.78574157 0.10863631 0.11157969 0.98779964 0.14551939
0.0068171732 -0.24021119 0.76735938 -0.29106715 0.060755309 0.95477152 0.085431039
0.093306661 -0.022233343 0.66495442 0.28381944 0.95178795 0.1163879 0.0608408
0.054872446 -0.020226186 0.66389018 0.10898653 0.99322283 0.040378563 0.030198339
-0.010752264 -0.028574141 0.74702537 -0.18112202 0.81083453 0.55654484 0.10737552
0.073129632 -0.025506865 0.7371282 0.39052403 0.84155798 0.37319061 0.12005313
0.087259024 -0.023901438 0.69299144 0.31608218 0.93208426 0.17694916 0.072451554
-0.0058181165 -0.021463994 0.61298418 0.0047274446 0.9991771 -0.040284101 0.011734812
-0.024001351 -0.02625851 0.74008429 -0.19908012 0.85267019 0.48303279 0.10025146
-0.070679642 -0.021155274 0.64452606 -0.25023657 0.9681412 -0.0091874842 0.050346255
0.12282152 -0.027390594 0.59586191 0.53019089 0.83891928 -0.12293147 0.1322871
-0.0012795685 -0.02092677 0.68211591 -0.050837282 0.99396878 0.097168066 0.027664939
0.068098903 -0.025534483 0.76379699 0.4428657 0.74215418 0.50306773 0.16964392
0.015505637 -0.020169711 0.68812388 -0.016860694 0.9934082 0.11338352 0.022691917
0.06308984 -0.023434293 0.73247552 0.23905727 0.92016256 0.31008476 0.10583097
0.042034235 -0.029072225 0.77138811 0.030862505 0.72526604 0.68777663 0.17760029
-0.037637807 -0.022316938 0.59962922 -0.13397294 0.98334348 -0.12282854 0.02711698
0.10580949 -0.027930267 0.57899648 0.37940484 0.89896178 -0.21890566 0.11165991
-0.021208307 -0.025669774 0.55432355 -0.10456192 0.95999801 -0.2597509 0.055320691
0.13227211 -0.045254085 0.58775258 0.76489371 0.62841278 -0.141545 0.1659507
0.085983373 -0.024063338 0.59149867 0.18353431 0.97540045 -0.12210294 0.057469893
-0.069731116 -0.021603983 0.59748757 -0.35912457 0.90883625 -0.2122409 0.067176685
0.0057838997 -0.02048048 0.66473436 -0.024822298 0.99927765 0.028775943 0.021373164
0.046401296 -0.019726137 0.69311237 0.093740694 0.98592353 0.13844641 0.040266741
-0.018450525 -0.024302412 0.69655681 -0.10686047 0.96797311 0.22717585 0.057304371
0.057214994 -0.024120331 0.57923722 0.06994465 0.9850421 -0.15747936 0.043987863
-0.09980607 -0.025323508 0.62661415 -0.55652833 0.80154252 -0.21864539 0.085833929
0.045707371 -0.17765392 0.78273368 0.23768878 -0.038466435 0.97057939 0.1152674
0.041262206 -0.021383591 0.64636648 0.027517388 0.99957806 -0.0092997616 0.018522138
-0.061138958 -0.023902064 0.59298021 -0.3584455 0.9082607 -0.21582256 0.075682402
