# .PCD v0.7 - Point Cloud Data file format
VERSION 0.7
FIELDS x y z normal_x normal_y normal_z curvature
SIZE 4 4 4 4 4 4 4
TYPE F F F F F F F
COUNT 1 1 1 1 1 1 1
WIDTH 635
HEIGHT 1
VIEWPOINT 0 0 0 1 0 0 0
POINTS 635
DATA ascii
-0.14084499 -0.3446368 0.67256469 -0.61805463 0.10540442 -0.77903688 0
-0.041837361 -0.37039247 0.55761564 -0.71408224 0.11089155 -0.6912232 0.0044617089
-0.045916781 -0.34716812 0.56301928 -0.60865331 -0.17961758 -0.77283812 0.00056379574
-0.084755443 -0.1843922 0.61230725 -0.76748222 0.066434629 -0.6376186 0
-0.13055527 -0.31844124 0.659877 -0.80095953 -0.017208192 -0.59847122 0
-0.12620984 -0.37066388 0.65154558 -0.79822886 0.10501453 -0.59312946 0.0003932456
-0.093260281 -0.35582492 0.61347353 -0.74343592 -0.090636082 -0.66263723 6.3805812e-05
-0.069852427 -0.17490065 0.59278041 -0.75678569 -0.018930921 -0.65338892 0
-0.029478654 -0.18048818 0.54898983 -0.36580893 -0.018787619 -0.93050033 0.049225416
-0.11790738 -0.19018677 0.65314823 nan nan nan nan
-0.039023712 -0.14967924 0.56099331 -0.49672908 0.46471661 -0.7330066 0.02288707
-0.058058262 -0.29892504 0.57605797 nan nan nan nan
-0.13755886 -0.25031689 0.67183703 -0.82121193 0.32817066 -0.46681374 0.017408565
-0.013249545 -0.41796055 0.54322463 -0.16629186 -0.049677059 -0.98482442 0.01644933
-0.10272296 -0.3542974 0.62654316 -0.62076139 0.19044277 -0.76051748 0
-0.023655286 -0.38623628 0.54260284 -0.35476393 0.050745126 -0.93357784 0.012683883
-0.11415395 -0.30362278 0.64163113 -0.81993735 0.0078429487 -0.5723995 0
-0.14592838 -0.33842868 0.67998528 nan nan nan nan
-0.064776294 -0.19959699 0.58742833 -0.75491548 -0.026211489 -0.65529811 0.0024527735
-0.13738059 -0.28860337 0.66864467 nan nan nan nan
-0.11778951 -0.36433789 0.64293277 -0.81148481 0.19755054 -0.54996926 0.0021251866
-0.077477925 -0.37081918 0.59509307 -0.82978863 0.41540778 -0.37267593 0.00033497927
-0.11598935 -0.31214389 0.64414757 -0.81905955 0.0083924439 -0.5736472 0
-0.11558681 -0.37509343 0.63872218 nan nan nan nan
-0.10788953 -0.26237944 0.63393974 nan nan nan nan
-0.10245913 -0.36824346 0.62463146 nan nan nan nan
-0.029652979 -0.3353101 0.54882944 -0.058213826 -0.026571961 -0.99795043 0.050998505
-0.058358341 -0.32727787 0.57577848 nan nan nan nan
-0.070002034 -0.39859664 0.58591789 -0.82569283 0.061227664 -0.56078744 0
-0.064980291 -0.23333426 0.58996093 nan nan nan nan
-0.12094394 -0.40614724 0.64445025 nan nan nan nan
-0.034423213 -0.3549042 0.55216843 nan nan nan nan
-0.080656864 -0.40859118 0.59773827 nan nan nan nan
-0.13431706 -0.26252821 0.66586071 -0.77596176 -0.10458874 -0.62204874 0.00014388534
-0.071036302 -0.29341519 0.59140968 nan nan nan nan
-0.11141709 -0.25350216 0.63957369 nan nan nan nan
-0.14331771 -0.32384315 0.67753237 -0.94128847 0.14225917 -0.30616704 3.6488327e-05
-0.083689429 -0.2749604 0.60528725 nan nan nan nan
-0.13933392 -0.38307917 0.66639209 -0.94719547 -0.11732817 -0.29842052 0.00028647977
-0.064568251 -0.18505725 0.58654523 -0.68490541 -0.048704594 -0.72700244 0
-0.13966523 -0.36960828 0.66696823 -0.87256807 0.0064905253 -0.48844934 0.0041184276
-0.10379367 -0.35597518 0.62698156 -0.62076139 0.19044277 -0.76051748 0
-0.069233693 -0.13191593 0.62035519 -0.43828174 0.89135832 -0.11571325 0.027806548
-0.021677036 -0.35744873 0.54550475 -0.24799272 0.13680404 -0.95905375 0.030502666
0.02243695 -0.13108329 0.60121495 0.22817783 0.95375264 -0.19568017 0.010920934
0.016549297 -0.12862533 0.75192535 -0.081778765 0.99159801 0.10022788 0.00038054262
-0.15231366 -0.20915985 0.7092157 -0.94422054 0.020373298 0.32868299 0.010254366
-0.049731266 -0.13571993 0.78669465 -0.33190057 0.84008807 0.42906183 0.025126023
-0.15156576 -0.21447992 0.71136034 -0.97417301 0.020686923 0.22485346 0.014852412
-0.10959756 -0.13802491 0.7320376 -0.23384117 0.92046791 0.31314069 0.0056604962
-0.075001918 -0.13276163 0.63763779 -0.095463365 0.99468267 -0.038641542 0.0076483022
-0.056915604 -0.13020846 0.64453548 nan nan nan nan
0.0020765492 -0.12969698 0.74571735 -0.077409558 0.99503213 0.062601022 0.00085203716
0.053785473 -0.12725849 0.67075062 -0.021466684 0.99915665 -0.035003312 0.0007959808
0.080700502 -0.12750438 0.67019475 0.054513339 0.98042583 -0.18919173 0.0015444406
-0.043704204 -0.20991881 0.8099066 -0.61006659 0.028450923 0.79183918 0
0.047215216 -0.13101737 0.61460578 0.20193668 0.71844363 -0.66562778 0
-0.077970609 -0.13816711 0.7641046 -0.54342264 0.7940647 0.27231088 0.09410423
-0.15004985 -0.37429985 0.70644611 -0.18062994 -0.43250874 0.88335097 0.0035092959
-0.076420799 -0.26344761 0.78359056 -0.72652489 0.01215001 0.68703264 0.00011136782
0.0025161998 -0.31343779 0.84333813 -0.25478104 0.11792155 0.95978183 0.013116179
-0.037931163 -0.12989277 0.69231254 -0.061786283 0.99753624 -0.033224318 0.00016254873
-0.034411047 -0.17922527 0.81667095 -0.70690161 -0.063928053 0.70441699 0.0032033485
0.0081954077 -0.27460846 0.84152824 0.41387072 -0.29402202 0.86154628 0.0013334462
-0.028371422 -0.23381098 0.82206702 -0.6443817 -0.077890709 0.76072687 0
-0.15380846 -0.15830441 0.71252888 -0.97333658 0.22761498 0.028415184 0.031947128
-0.12442289 -0.29869103 0.74253708 -0.64500213 0.024162238 0.76379865 0
-0.064217687 -0.22850648 0.79339099 -0.71480972 0.089208871 0.69360566 0.0043427609
-0.12704879 -0.30270445 0.74072629 -0.65162265 0.019476542 0.75829321 0.0027940306
-0.064447209 -0.32518426 0.79493392 -0.66523236 0.0086105792 0.74658674 0.0016596795
-0.11207698 -0.20424391 0.75353909 -0.66653365 -0.023801878 0.74509484 0.00082464668
-0.026093617 -0.12787288 0.59847951 -0.13499954 0.99075103 -0.013695027 0.0019071347
-0.090703003 -0.13582112 0.73530895 -0.15586355 0.96825582 0.19541569 0.0055336864
-0.0095773311 -0.23534174 0.83343452 -0.32024133 0.052894104 0.94585812 0
-0.10391426 -0.16595586 0.76016438 -0.63892692 0.26359114 0.72269785 0.012417987
-0.13124999 -0.38620296 0.73475498 -0.7280153 -0.0030717829 0.68555415 0
0.007170422 -0.3565644 0.84134817 0.30338034 0.095927775 0.94802862 0
-0.083504125 -0.1988672 0.77695268 -0.82811344 -0.05636771 0.55771935 0
-0.10335407 -0.13696198 0.736857 -0.17936152 0.9718219 0.15294315 0.0041857739
-0.08770901 -0.15055822 0.76615077 0.34276602 0.16977198 0.92395294 0.00080180739
-0.10716578 -0.32849562 0.75817192 -0.66524261 0.012433753 0.74652374 0.00012397535
-0.13264962 -0.23918669 0.73590708 -0.58103204 -0.04353996 0.81271523 0
-0.024810027 -0.29753515 0.82668674 -0.58814836 0.025195066 0.80836052 0.001759105
-0.08571554 -0.40678015 0.77840781 -0.60795671 0.046593022 0.79260188 0.00153502
-0.12911202 -0.31685877 0.73825622 -0.70628196 0.012636061 0.70781779 0
-0.12705559 -0.28824317 0.74015278 -0.61297703 -0.0037862987 0.79009169 0.0011178652
-0.063503057 -0.1301384 0.6764769 nan nan nan nan
-0.011937466 -0.12916359 0.66664398 -0.037773576 0.9991976 -0.013315645 0.0005276564
-0.12773287 -0.27801573 0.73960304 -0.61511308 -0.01340703 0.78832489 0.0044790288
-0.15418854 -0.28113681 0.70912075 -0.87649429 0.39794537 -0.2709192 0.0019314645
-0.1399775 -0.20953797 0.72498006 -0.84900492 -0.099651724 0.5189029 0.0088548176
0.0077468273 -0.13132305 0.81279773 -0.062907144 0.98216522 0.17718387 0.0036075925
-0.0052673733 -0.1853402 0.83492541 -0.34728345 0.057230633 0.93601221 0
-0.11026718 -0.1998376 0.75532734 -0.66297042 -0.032580461 0.74793625 0
-0.099203035 -0.28770235 0.7639814 -0.68115318 0.044347219 0.73079652 0.00085901684
-0.11264301 -0.4123686 0.7520296 -0.67020112 -0.11230184 0.73363394 0
-0.043152127 -0.29237619 0.81315929 -0.58425009 -0.027746968 0.81109917 0
-0.063283585 -0.34796047 0.79578304 -0.70053279 0.33530766 0.62993854 0
-0.021002611 -0.26260585 0.8288039 -0.68304551 -0.12065389 0.72034121 0.0061719795
0.0059775067 -0.13265412 0.81963867 -0.067396969 0.96152985 0.26630428 0.0027117534
-0.018483428 -0.3785536 0.83087671 -0.38636345 0.12297005 0.91411251 0.0083530191
-0.12414839 -0.31641427 0.74321556 -0.69203305 0.012219866 0.72176242 0
-0.0075354297 -0.4128657 0.83890313 -6.5304484e-06 0.011624532 0.99993241 0.037014201
-0.096547902 -0.36890903 0.7684142 nan nan nan nan
-0.047649376 -0.41108483 0.81315035 -0.019937204 -0.68902224 -0.72446591 0.037930429
-0.14807263 -0.30919489 0.7116732 -0.91111588 -0.10511928 0.39851937 0.00060740008
-0.13004662 -0.13813098 0.71778578 -0.20706056 0.94683087 0.24624658 0.012855615
-0.057677086 -0.26258862 0.80088955 -0.68171883 0.033681583 0.7308386 0.00049909169
-0.12278186 -0.22058491 0.74408638 nan nan nan nan
-0.031720564 -0.32493863 0.82197922 -0.63172936 -0.013302306 0.7750749 0.0013259617
-0.1400215 -0.1604173 0.72858316 -0.6613782 -0.018447217 0.74982572 0.0017387705
-0.041222975 -0.1305996 0.71132916 -0.040911339 0.9988634 0.024458824 0.00015959067
-0.058586739 -0.1878999 0.79622829 -0.57878178 0.082369857 0.81131178 9.7261807e-05
-0.0024810832 -0.30905089 0.84048188 -0.41018239 0.077411331 0.90871215 0.002837016
-0.096934438 -0.27981001 0.76581925 -0.67952681 0.043901466 0.73233593 0
-0.11985368 -0.32331327 0.74723548 -0.67694354 -0.0034432595 0.73602688 0
0.011042924 -0.22342251 0.84074295 -0.2101301 -0.034624569 0.97706014 0.0057695224
-0.085962497 -0.25127882 0.77568561 -0.59272605 -0.084965006 0.80090994 0.0045077694
-0.068903536 -0.39635587 0.79274648 -0.91630775 -0.40046829 -0.002284941 0.00032545242
-0.043745503 -0.30691075 0.81180972 -0.64073092 -0.029679701 0.76719165 0
-0.077380709 -0.29807177 0.78198463 -0.69863403 -0.071945116 0.71185285 0.0016309656
-0.11342865 -0.39025819 0.75201356 -0.69313926 -0.029835705 0.720186 0.0013482545
-0.12928367 -0.13566156 0.70232785 nan nan nan nan
-0.062490441 -0.33060524 0.7966674 -0.66198373 0.007690792 0.74947864 0.0017136948
-0.13374887 -0.24146275 0.73492515 -0.58682442 -0.038958799 0.80877638 0
-0.081459917 -0.39930516 0.78088832 -0.57693231 0.080408059 0.81282437 0
-0.12471852 -0.27494767 0.74193376 -0.60092914 -0.043653995 0.79810935 0.0007881046
-0.11411592 -0.13456909 0.7185604 nan nan nan nan
-0.15395907 -0.161847 0.70996463 -0.98132694 -0.1846348 -0.053920869 0.024253171
-0.1338429 -0.13777426 0.6862247 -0.14918303 0.98159921 0.119195 0.0013505768
-0.13494308 -0.15103684 0.73202175 -0.57252944 0.43689364 0.69378239 0.0017678317
-0.0028867545 -0.13533878 0.8249023 0.024680577 0.88450688 0.46587381 0.0060403668
-0.031370901 -0.14452945 0.81244683 -0.76640481 0.62231594 -0.1592057 0.009952575
-0.056762751 -0.19584733 0.79872549 -0.60019505 0.11581786 0.79142416 0.0051694186
-0.015557911 -0.13944638 0.82832313 -0.16722755 0.90837473 -0.38326275 0.016707802
-0.065295808 -0.37404734 0.79528797 -0.63110358 -0.0018241641 0.77569652 0
-0.020237004 -0.30863592 0.83028233 -0.45520422 0.04215689 0.8893885 0.003587812
-0.059309945 -0.25273588 0.79861432 -0.67039841 -0.010000262 0.74193388 0.0012786435
-0.040178556 -0.31083468 0.81466395 -0.65724105 -0.013623695 0.75355732 0.0014466329
-0.021463268 -0.37001741 0.82913864 -0.89863771 -0.24305218 0.36520657 0
-0.061585151 -0.31754723 0.79727197 -0.70318782 0.041429389 0.70979607 0.0019637099
-0.043292724 -0.22410427 0.81089604 -0.59823054 0.031424005 0.80070764 0.00090110733
-0.14931153 -0.20930669 0.71415806 -0.85326612 0.04264535 0.5197292 0.017522916
-0.081043445 -0.31548381 0.77918023 -0.65910619 0.043141551 0.75081146 0.0029625124
-0.12053565 -0.2561281 0.7464025 nan nan nan nan
-0.13225561 -0.35202467 0.73445612 -0.7289632 -0.040757716 0.68333846 0.0016226058
-0.093168095 -0.1819184 0.76863325 -0.60688895 0.012329937 0.79469091 0.0014518611
-0.14324114 -0.15048449 0.72404766 -0.74044859 0.29158738 0.60556793 0.00044628052
-0.041776303 -0.1335106 0.76500219 -0.066235147 0.9867928 0.14782688 0.0002753952
0.066848263 -0.13051809 0.64045042 0.069620691 0.97177887 -0.22538565 0.0024163711
0.060916986 -0.12703244 0.66767329 0.00088653376 0.99980593 0.019683557 2.3162813e-05
-0.10979219 -0.32932702 0.75573123 -0.66524261 0.012433753 0.74652374 0.00012397535
-0.0011870895 -0.13054711 0.78803408 -0.080861449 0.99660319 0.015605257 0.00060010637
-0.038353041 -0.20858379 0.81398904 -0.61219019 0.027783925 0.79022229 0
-0.061097089 -0.37160364 0.79867649 -0.63881308 0.0043071285 0.76934987 0.0058009252
0.014316254 -0.26622203 0.84107435 -0.80048949 -0.58690017 0.12151076 0
0.013393317 -0.2957418 0.84163481 0.10970475 -0.059188377 0.99220037 0.028053971
-0.004671148 -0.35507903 0.83847988 -0.44593567 -0.015754782 0.89492637 0.0033429665
-0.10524447 -0.18714948 0.75895488 -0.64776433 0.0068195513 0.7618103 0.0014868281
-0.035557985 -0.12872392 0.60831469 -0.05271174 0.99846828 -0.016808802 7.2315261e-06
-0.15204601 -0.21961358 0.70954204 -0.98918998 0.089038156 0.11651322 0.012236956
0.033678219 -0.12734298 0.65331906 -0.072829224 0.99725598 -0.013282272 0.00019480096
-0.041832134 -0.35199061 0.81421113 -0.98781717 -0.10212829 0.11741866 0
-0.06041231 -0.28320014 0.79853833 -0.98526686 -0.11336167 -0.1280567 0
-0.07568977 -0.16362306 0.78075916 -0.58334118 0.20707332 0.78538764 0.0032229151
-0.066700764 -0.18071419 0.78938276 -0.98255408 -0.18543029 0.014253472 0.00085117749
-0.084542833 -0.37500367 0.77844363 -0.64713025 0.01206439 0.76228398 0
-0.10520913 -0.41673532 0.75856024 -0.68412554 -0.077336997 0.72525251 0
-0.0075608636 -0.34499812 0.83781689 nan nan nan nan
-0.061659031 -0.21633957 0.79521316 -0.62649518 -0.034601044 0.7786569 0.0037301825
-0.10238676 -0.13309436 0.68646407 nan nan nan nan
-0.031900778 -0.13248837 0.57663596 -0.21197918 0.95095897 -0.22525984 0.011660322
-0.024926024 -0.12835856 0.61060363 0.058218796 0.99736726 -0.043233041 5.3261159e-05
-0.043194186 -0.13287148 0.59515679 -0.44325495 0.89565921 -0.036327999 0.013117477
-0.13053931 -0.14470617 0.73095691 -0.65170091 0.49849808 0.5716517 0.0024193448
-0.11333384 -0.32948995 0.75275999 -0.65540296 -0.001699342 0.75527745 0
-0.042747222 -0.13519223 0.78826827 -0.11017322 0.99065971 0.080344595 0.0004061565
-0.017082201 -0.13138495 0.77611715 -0.093905553 0.995579 0.0020239097 7.2205978e-05
-0.066439264 -0.14021611 0.77986062 -0.26221427 0.83993441 0.47513568 0.010182713
-0.022507807 -0.18631446 0.82502735 -0.54325897 0.036574621 0.83876812 0
-0.053999271 -0.35624737 0.80327362 -0.51349914 -0.21646173 0.83033907 0
-0.028879536 -0.33600816 0.82441562 -0.59470779 0.0061790594 0.80391824 0.0019319372
-0.026418839 -0.21910167 0.82349777 -0.58727902 0.040065054 0.80839241 0
-0.047468293 -0.30613056 0.80892694 -0.6125707 -0.013791271 0.79029554 0.0034667791
-0.060028061 -0.1563201 0.78855896 -0.6478408 0.1645603 0.74378914 0
-0.033670794 -0.20281002 0.8173601 -0.62711924 0.022737579 0.77859133 0
-0.12361914 -0.13684683 0.72109723 -0.21182685 0.96205974 0.17196047 0.003415189
-0.049289785 -0.13141656 0.72947919 -0.067785941 0.99740732 0.024157485 0
-0.033284884 -0.129044 0.65112412 0.0050117965 0.99989122 -0.013870524 0
-0.050292786 -0.14800112 0.79539573 -0.85691833 -0.053075515 0.5127123 0.053787626
0.0069541424 -0.18707491 0.84066975 -0.46137121 0.20933387 0.8621577 0.002639161
0.0096206609 -0.36389124 0.84131736 0.27208638 -0.051334642 0.96090257 0.011696564
-0.048070747 -0.20808962 0.80655879 -0.62917644 -0.023295872 0.77691334 0.008113347
-0.029730415 -0.23073532 0.82151431 -0.6443817 -0.077890709 0.76072687 0
-0.031094946 -0.21169604 0.8198055 -0.62382603 0.017591583 0.78136528 0.00019162918
-0.046327546 -0.13060217 0.70479184 -0.037630484 0.99859178 0.037395008 0
-0.017557761 -0.12895308 0.65620679 0.092258364 0.99467325 -0.045971621 0
-0.062460605 -0.26288077 0.79615676 -0.69595361 -0.0071617947 0.71805108 0.0011830064
-0.076430641 -0.17623985 0.78126496 -0.60767716 0.075119182 0.79062361 0
-0.079818338 -0.24854258 0.78063428 -0.5946002 -0.019967701 0.80377352 0.0017850484
-0.11143917 -0.38457188 0.75405663 -0.68899775 -0.023008678 0.72439826 0
-0.0043279608 -0.41830605 0.8391335 0.037285775 -0.083139181 0.99584019 0.018905638
-0.15633154 -0.2875756 0.70668924 -0.98908806 0.1282634 -0.072479948 0.028479312
-0.15420844 -0.4197146 0.70014089 -0.91257501 0.40890896 -0.00058351003 0.069984525
-0.10204542 -0.1946172 0.76170075 -0.51595336 0.096138507 0.85120469 0.00031654956
-0.14868495 -0.3331835 0.70983797 -0.88622141 -0.0020444957 0.46325749 0.0063872328
-0.086001836 -0.30715168 0.77486032 -0.65658993 -0.023773426 0.75387287 0.0025891906
-0.10284702 -0.15795159 0.75614202 -0.68058336 0.43928906 0.58637148 0.012014677
-0.13594744 -0.30890971 0.73125076 nan nan nan nan
-0.086430877 -0.14243522 0.76408792 -0.20987496 0.16434358 0.9638173 0.026910704
-0.029758204 -0.13007787 0.71194774 -0.039249159 0.97458082 0.22057153 0
-0.14776139 -0.37344456 0.70733708 -0.18062994 -0.43250874 0.88335097 0.0035092959
-0.11177326 -0.1593059 0.75029081 0.14569646 0.35775936 0.92237782 0
-0.15499869 -0.41815099 0.69989103 -0.91257501 0.40890896 -0.00058351003 0.069984525
-0.13795839 -0.21382082 0.728082 -0.77165359 -0.080990955 0.63086534 0.016917055
-0.14236179 -0.16504784 0.7273283 -0.66637498 -0.02101987 0.7453205 0.006416603
-0.024376621 -0.13316762 0.79282826 -0.15930577 0.96902603 0.18870689 4.2372976e-06
-0.069959655 -0.13760665 0.77096128 -0.10235184 0.9521063 0.28812793 0.0059184851
-0.013765388 -0.15012963 0.8281979 nan nan nan nan
-0.021544132 -0.15990429 0.82312983 nan nan nan nan
0.011016718 -0.18984053 0.84329134 -0.10919803 -0.51908058 0.8477211 0.040929578
-0.037184939 -0.18158399 0.81324381 -0.79614472 0.014467724 0.60493326 0.0050383336
-0.080587983 -0.16172445 0.77674162 -0.63159186 0.140729 0.76242185 0.001261058
-0.014681118 -0.21029064 0.83065063 -0.20876215 -0.16929848 0.96320111 0
-0.02950014 -0.297831 0.82330358 -0.58814836 0.025195066 0.80836052 0.001759105
-0.081576407 -0.13727836 0.75535047 -0.082437232 0.99081093 0.10722788 0.002587267
0.0094211232 -0.23982373 0.84151447 0.09238039 0.045738164 0.99467278 0
-0.096079968 -0.33540541 0.76863319 -0.7108947 -0.048694577 0.70161074 0
-0.088700041 -0.39390942 0.77549714 nan nan nan nan
-0.088689394 -0.37943882 0.77514899 -0.64832032 0.017110361 0.76117539 0
-0.080084607 -0.24397878 0.77978337 -0.6236428 0.10625367 0.77445453 0.0097334748
-0.11357626 -0.3815622 0.75221729 -0.68988466 -0.028934395 0.72334087 0.00068571168
-0.066973135 -0.33801249 0.79282844 -0.67775434 0.039896846 0.73420525 0.0021900111
-0.087501027 -0.26095811 0.77300227 -0.74629611 0.0045464267 0.66559863 0.0051151672
-0.13520922 -0.33076316 0.73178756 -0.94761628 -0.053590734 0.31488329 0
-0.12166423 -0.39883897 0.74387902 -0.72359073 -0.0073139421 0.69019043 0
-0.14732754 -0.23543847 0.71913242 -0.27499789 0.097799405 -0.95645779 0.089062408
-0.12765557 -0.26504332 0.74049735 nan nan nan nan
-0.1084502 -0.40414217 0.7565344 nan nan nan nan
-0.11397657 -0.35934281 0.75206125 nan nan nan nan
-0.11184378 -0.23451507 0.75468713 -0.68656278 -0.013044245 0.72695351 0
-0.1143743 -0.23285677 0.75218433 -0.68656278 -0.013044245 0.72695351 0
0.0078460574 -0.12773395 0.70637059 -0.047204841 0.9988777 -0.0038870072 0
0.04655024 -0.12726921 0.67322057 -0.016230628 0.99744934 -0.069508091 0.00047280628
-0.013429505 -0.12877749 0.69766146 -0.040293086 0.99918681 -0.0014778425 0
-0.088397734 -0.13217521 0.66846073 -0.092383951 0.99499148 -0.03817378 0.0022852798
0.022398703 -0.1283984 0.74305868 nan nan nan nan
0.012437216 -0.32678255 0.84317791 nan nan nan nan
0.094948471 -0.13014245 0.6565299 -0.0063645686 0.96571308 -0.25953385 0.0003063475
-0.084755257 -0.19377886 0.77563429 -0.82811344 -0.05636771 0.55771935 0
-0.064782619 -0.2468583 0.79380077 -0.69231933 -0.051630158 0.71974182 0.00052027992
-0.022670155 -0.2236543 0.82671386 -0.71046877 -0.1016757 0.69634485 0.0053200182
-0.132765 -0.41627377 0.7303068 -0.91627479 -0.076901183 0.39309883 0.010769252
0.0039151334 -0.2297544 0.83775729 -0.26651904 -0.17799002 0.94725239 0.0028309801
-0.051183943 -0.21745132 0.80409628 -0.6682685 0.044096969 0.742612 0.0018075462
-0.051422637 -0.18891406 0.80163747 -0.58835971 0.098380253 0.8025921 0.0016970178
-0.074154794 -0.1326232 0.72313982 nan nan nan nan
-0.10415708 -0.13464774 0.65952575 -0.42457566 0.68584967 -0.5910548 0
-0.14529455 -0.14245678 0.71001482 -0.73714966 0.596111 0.3182171 0.068685032
-0.13176464 -0.3575646 0.73469508 -0.7289632 -0.040757716 0.68333846 0.0016226058
0.0063877893 -0.12974906 0.78643125 -0.12747611 0.99039239 -0.05359783 0.00065423636
0.085245132 -0.12942518 0.74601674 0.15518935 0.96775335 0.19841826 0.0014271439
-0.018287687 -0.1301852 0.72862446 nan nan nan nan
-0.038020708 -0.19418299 0.81364405 -0.64428669 0.078038618 0.76079208 3.0911237e-05
-0.11433749 -0.29954752 0.75137788 nan nan nan nan
-0.01382312 -0.30409175 0.8332845 -0.49271968 0.030557692 0.86965144 0.0017499374
-0.006334817 -0.32558915 0.8391698 nan nan nan nan
-0.061543453 -0.13202563 0.71893406 -0.069354706 0.99758416 -0.0039646137 0.0001210199
0.1012501 -0.13252449 0.72514045 0.56056619 0.77010012 0.30448535 0.02566994
-0.052730445 -0.30539438 0.80479389 -0.62042552 -0.003663304 0.78425682 0.003117251
-0.013393262 -0.12887247 0.67203456 -0.038678966 0.99907655 -0.018709589 0.00019486823
-0.14590208 -0.16563892 0.72342563 -0.66637498 -0.02101987 0.7453205 0.006416603
-0.031491131 -0.38382465 0.82188392 -0.68783927 -0.027716052 0.72533369 0.0035399692
-0.07883919 -0.27073631 0.78116703 -0.72499615 0.010706719 0.68866974 0
-0.010774525 -0.22294669 0.83231306 -0.4663054 -0.53436738 0.70498991 0.0056263874
-0.12659313 -0.32521352 0.74095041 -0.68594152 0.0057668216 0.72763371 0
-0.13165382 -0.29622918 0.73604882 -0.6759643 0.058989301 0.73456967 0.0014372588
-0.12323561 -0.37061527 0.74254882 -0.99832755 -0.034425087 -0.046444189 0
-0.0072653126 -0.29954433 0.83735806 -0.54038763 0.024517737 0.84105897 0.0033733454
-0.10378691 -0.37702689 0.76115829 nan nan nan nan
-0.14985053 -0.32681596 0.70744723 -0.96641409 -0.087956205 0.24146971 0
-0.11326529 -0.15414135 0.74838942 0.43708229 0.42927623 0.79036766 0
-0.1241334 -0.16396938 0.74402785 nan nan nan nan
-0.009081562 -0.35587955 0.83637357 -0.44593567 -0.015754782 0.89492637 0.0033429665
-0.13067795 -0.41637379 0.73375076 -0.91627479 -0.076901183 0.39309883 0.010769252
-0.027780393 -0.38568658 0.82528234 -0.68783927 -0.027716052 0.72533369 0.0035399692
-0.023375154 -0.12932207 0.69454843 -0.046933614 0.99882561 0.012027537 0.00013606754
-0.12513958 -0.28136924 0.74145091 -0.6354782 7.2617663e-06 0.77211887 0.0011747634
-0.097301967 -0.22888698 0.76630038 nan nan nan nan
-0.11449174 -0.19359951 0.75194842 -0.62781161 -0.0021518208 0.77836227 1.6251521e-05
-0.023093019 -0.33744663 0.82859701 -0.58785039 0.0031374774 0.8089636 0.00066887884
-0.14588177 -0.31555358 0.71468312 -0.91742802 -0.11713423 0.38027009 0.00034298381
-0.038072523 -0.27057058 0.81610572 nan nan nan nan
0.018086411 -0.12877665 0.60512799 0.2939322 0.95459938 -0.048415214 0.0045113307
-0.002284294 -0.12779802 0.60022521 nan nan nan nan
-0.1400881 -0.35412085 0.72619921 nan nan nan nan
-0.09641327 -0.16928011 0.76582927 -0.57117367 0.0085428124 0.82078469 0.000761409
-0.044187404 -0.3796272 0.81235337 nan nan nan nan
-0.082446419 -0.16959614 0.775989 -0.63163972 0.077610418 0.77136749 0.0016196488
-0.0071811196 -0.12814261 0.64119732 nan nan nan nan
-0.028057236 -0.12940331 0.67149568 -0.023296973 0.99972588 0.002322607 5.3413896e-06
-0.031469658 -0.12883414 0.62305659 0.0025182771 0.99997109 0.0071799038 4.7937938e-05
-0.13402824 -0.3870675 0.73173308 -0.7280153 -0.0030717829 0.68555415 0
0.010231188 -0.35694599 0.8404932 0.30624053 0.060301632 0.95004237 0.0002656646
-0.055282325 -0.2704666 0.80321342 -0.67123455 0.014207698 0.74110889 0
-0.1463844 -0.24548562 0.72119129 -0.33913559 0.45378375 0.82405537 0.0010464491
-0.12824129 -0.3304601 0.73937839 -0.66866207 -0.036329474 0.74267828 0.00090410758
-0.12913385 -0.16873905 0.740798 nan nan nan nan
-0.12811343 -0.15326607 0.73861754 -0.57459116 0.38989863 0.7195999 0.0018198494
-0.061973643 -0.17011018 0.79334283 nan nan nan nan
-0.045945611 -0.40983555 0.81222284 -0.019937204 -0.68902224 -0.72446591 0.037930429
-0.09847232 -0.13266747 0.70899403 -0.035944641 0.99742371 0.062079329 0
-0.14083862 -0.20539862 0.72686797 -0.75070655 -0.092833504 0.65408075 0.0091646966
-0.098989546 -0.15625963 0.75831395 -0.46880424 -0.050598226 0.88185173 0
-0.11463088 -0.18532027 0.75184804 nan nan nan nan
-0.13599914 -0.13927673 0.72241628 0.050401006 0.89307863 0.44706872 0.022046164
-0.13726889 -0.13837691 0.71247256 -0.13925315 0.98934805 -0.042415198 0.056957845
-0.14593644 -0.15832175 0.72466606 -0.7146439 0.081128687 0.69476777 0.0066777761
-0.1194722 -0.32595038 0.74748546 -0.67132765 -0.032205626 0.74046069 0.00063074869
-0.14760745 -0.1530502 0.72027045 -0.78776419 0.29128584 0.54275239 0.0012705787
-0.1454749 -0.3605417 0.71405429 nan nan nan nan
-0.1519497 -0.24904552 0.70796233 -0.83901334 -0.16227837 0.51934808 0
-0.065998726 -0.41056666 0.79638332 nan nan nan nan
-0.15680811 -0.4254421 0.69508618 0.66853064 -0.56066942 0.48858628 0.056429297
0.026701288 -0.12769783 0.65447867 -0.029166723 0.99953508 0.0088790972 0.00050250074
0.030718945 -0.13606335 0.82038152 0.62587905 0.77516228 0.086017437 0.040484536
0.030574229 -0.34617904 0.83099896 0.99568504 -0.085991152 -0.034881089 0
0.14183556 -0.41327441 0.70589334 0.60091364 0.043827664 0.7981115 0.0042594448
0.030624064 -0.13154694 0.79733598 0.025159286 0.9973219 0.06867215 0.00013014182
0.12364347 -0.16675393 0.72158539 0.65487367 0.14759625 0.74118543 0
0.14780319 -0.36294651 0.68335158 0.98417103 -0.047437333 0.17075461 0.0046935133
0.095927641 -0.38950944 0.75969642 nan nan nan nan
0.068986684 -0.13453148 0.76930022 0.41170153 0.82762361 0.38149834 0.003070177
0.14346579 -0.41363186 0.705109 0.60091364 0.043827664 0.7981115 0.0042594448
0.13352853 -0.24154158 0.7109623 0.87212735 -0.088671468 0.481177 0.0022446516
0.12142404 -0.1339003 0.71071541 0.54344368 0.44986823 0.70872247 0.015121994
0.097327329 -0.34942627 0.75865924 nan nan nan nan
0.058888942 -0.13164163 0.78056312 0.46974322 0.77656639 0.41986409 0.055665873
0.15236945 -0.39739802 0.68569785 0.58872008 -0.65280229 -0.47671562 0.014624869
0.074968994 -0.39993918 0.78599411 nan nan nan nan
0.026667584 -0.22480898 0.83580422 0.44398472 -0.19511524 0.87453282 0.0054540057
0.13959269 -0.36083499 0.7052542 0.9135651 -0.11027389 0.39145687 0
0.12704132 -0.22219332 0.72013623 0.79367363 -0.024154123 0.60786414 0.0032359683
0.1374048 -0.2350311 0.70560145 0.84941995 -0.055434849 0.52479768 0.0013837676
0.13486782 -0.19650754 0.70636898 0.88089007 0.03358677 0.47212771 0.00084185717
0.14773561 -0.32890645 0.68350577 0.94769186 -0.31483024 -0.052556232 0.0014011922
0.1253124 -0.15504223 0.7163828 0.6289801 0.25280917 0.73516774 0.0035042926
0.1113304 -0.12917256 0.69369709 0.11059777 0.90470892 -0.41142425 0.00039436811
0.14952737 -0.298706 0.68333751 0.95505601 0.097752176 0.27984384 0.00065101904
0.12450737 -0.40696847 0.72702736 0.75240618 -0.082951449 0.65345544 0.0032907571
0.13392241 -0.27234489 0.71177089 0.7958194 0.0052945148 0.60551089 0
0.031496342 -0.38188002 0.83130604 nan nan nan nan
-0.059214383 -0.13045655 0.69143003 nan nan nan nan
0.010992849 -0.1285122 0.73785442 -0.01669045 0.99833614 0.055194858 0.00048915303
0.12301611 -0.16515298 0.7219162 0.6464119 0.12218873 0.75314116 0
0.14354825 -0.20016959 0.68560827 0.95412117 -0.2705982 0.1281772 0.026044674
0.11212673 -0.12909931 0.707546 0.45092562 0.39178574 -0.80197877 0.0026148695
0.1387971 -0.31142947 0.70488399 0.83029956 -0.0099055758 0.55722934 0.0006196319
0.062737219 -0.12711371 0.66553086 0.010442987 0.99974179 0.020182824 0.0001039055
0.09422785 -0.13039809 0.65577334 -0.011259036 0.95785868 -0.28701904 0.00025598434
0.13026972 -0.39844993 0.72059041 0.84154344 -0.3898572 0.37391961 0.00018090018
0.13687652 -0.19691679 0.7034834 0.88033903 0.035721898 0.47299793 0.002475526
0.016880322 -0.21682154 0.84110403 -0.10121571 0.042148367 0.99397135 0.001419141
0.016218005 -0.37881866 0.83797127 0.41717854 0.11739461 0.90121067 0.00010776647
0.14264521 -0.15729119 0.68296421 0.83573461 -0.098672852 0.5401957 0.0013188894
0.02156467 -0.36792821 0.83726937 0.15874393 0.003346748 0.98731411 0.0024457243
0.13633175 -0.36562967 0.71097445 0.86216962 0.020131705 0.50621945 0
0.058422565 -0.40058228 0.80991048 0.33930308 0.19053437 0.92117864 0.022914454
0.11302029 -0.39699447 0.74049038 0.90505725 -0.16015056 0.39398384 0.0009975835
0.0044237962 -0.12963685 0.74718052 -0.10845163 0.9939571 0.016957033 0.00032913595
0.054001123 -0.12704919 0.659235 -0.0012056357 0.99995726 -0.0091628907 3.3472559e-05
0.13743204 -0.13476308 0.68943316 0.39931244 0.90914708 0.11832673 0.024246333
-0.0061319643 -0.13075301 0.78497821 -0.041140687 0.99913192 -0.0065366221 0.00033919365
0.094357975 -0.12849844 0.66760755 -0.034632418 0.99902004 -0.027560839 9.7068769e-05
0.00073715876 -0.12789638 0.61080313 0.07703308 0.9969905 -0.0087124752 0
0.14408787 -0.20272873 0.68202239 0.9332304 -0.3247118 0.15376408 0.026380643
0.062136289 -0.14314061 0.78474462 0.78710854 0.29615954 0.54106343 0.0078429496
0.062625065 -0.13851866 0.78158128 0.50058538 0.43491194 0.74850911 0.023058238
-0.0087229991 -0.1296131 0.73581553 -0.051794838 0.99862301 0.0083403355 0
0.082661837 -0.12876521 0.66350949 0.064852789 0.99050832 -0.12119237 0.0013200659
0.12734196 -0.25299862 0.72007793 nan nan nan nan
0.055375084 -0.13306232 0.78340816 0.46805674 0.78292197 0.40982443 0.032763001
0.016714999 -0.13169223 0.80228269 0.12937811 0.98792851 0.085197262 0.0020659443
0.04761631 -0.12940364 0.78156286 0.41652662 0.90783656 0.048357781 0
0.013988511 -0.18525775 0.84367049 -0.015176034 -0.31358704 0.94943815 0.035038836
0.029162528 -0.4258422 0.82860011 nan nan nan nan
0.046096005 -0.12745392 0.74791694 0.030010816 0.99921966 0.025677662 1.8237539e-05
0.056682747 -0.12751028 0.7467075 0.070313334 0.99176508 0.10704222 0.00043222791
0.0025576397 -0.12809961 0.60376376 0.070482537 0.99744976 -0.011231046 0
0.036147706 -0.13185535 0.79832864 0.10719594 0.97224921 0.20794365 0.0074325781
0.11504225 -0.30013835 0.73654008 0.72959286 0.14707237 0.66788024 0
0.07832665 -0.37049443 0.77902174 nan nan nan nan
0.062732235 -0.1934301 0.79146969 0.78685755 0.032263566 0.61629069 0.0025778408
0.077238642 -0.34058356 0.77943927 0.54561383 0.43652928 0.71536553 0
0.08131852 -0.19482659 0.77061659 0.76572049 0.054527558 0.64085788 0
0.11374556 -0.30118525 0.73824239 0.79396242 0.0023452081 0.60796225 0
0.079272024 -0.28083366 0.77603799 0.75857985 -0.12578103 0.63932449 0
0.09480451 -0.26776445 0.75666404 nan nan nan nan
0.11444239 -0.36259541 0.7404018 0.7967037 0.093263835 0.5971306 0.0013653715
0.088013463 -0.23332842 0.76380908 nan nan nan nan
0.10383993 -0.32679313 0.75053531 nan nan nan nan
0.10595274 -0.37487671 0.75025487 nan nan nan nan
0.074769944 -0.13366359 0.762164 0.43438125 0.73248327 0.52419579 0.015543289
0.1243036 -0.32693306 0.72625875 0.67114478 -0.39375895 0.62810713 0.0098561682
-0.038545251 -0.13049769 0.7128799 -0.045865811 0.99871844 0.021393407 4.3338925e-05
0.05906995 -0.12921196 0.75644183 nan nan nan nan
-0.026095761 -0.12935764 0.68410063 -0.080726579 0.99639928 -0.025916765 6.0838007e-05
0.061734527 -0.13428941 0.77784723 0.43912548 0.78648943 0.43428478 0.039297413
0.046087846 -0.12686816 0.69574094 nan nan nan nan
0.11812246 -0.25434369 0.73152268 0.78264332 0.051782954 0.62031275 0.0055372897
0.12080739 -0.12908594 0.69582099 0.10777733 0.90976506 -0.40088856 0.00047664202
-0.055190824 -0.13018735 0.66124815 nan nan nan nan
0.11773761 -0.25108901 0.73174608 0.78264332 0.051782954 0.62031275 0.0055372897
-0.0082357638 -0.13830997 0.82723081 -0.13418752 0.88105321 0.4535847 0.0085902931
0.045622647 -0.43579292 0.82041353 0.43080857 -0.89489168 0.11650248 0.00097769999
-0.10204457 -0.13435556 0.72135204 nan nan nan nan
-0.04826742 -0.12996124 0.65290487 -0.053047247 0.99010831 0.12989077 0
0.0056646965 -0.12860465 0.73713487 -0.06239213 0.99402201 0.089596421 0.00027225894
0.076052576 -0.12856321 0.7477001 0.11046879 0.97730285 0.18076451 0.003328522
0.079049915 -0.33794761 0.77647769 0.54561383 0.43652928 0.71536553 0
0.14899538 -0.31852332 0.68440938 0.95229661 0.23248191 0.19769509 0.00398596
0.12532714 -0.37116057 0.72759646 0.80232644 -0.021712946 0.59649032 0
0.11703438 -0.22114037 0.73155385 0.76251954 0.13173506 0.63341135 0
0.10362606 -0.24652438 0.7468878 nan nan nan nan
0.13216883 -0.28302044 0.71475774 0.9783774 0.20631425 -0.014563707 5.3316031e-05
0.10322162 -0.130675 0.72101855 0.41506341 0.8114816 0.41136357 0.0042927726
0.083862431 -0.12941779 0.74842697 0.14569576 0.95834792 0.24564591 0.0010219951
0.064193219 -0.12600894 0.70946562 -0.0089475373 0.9960795 -0.08800929 0.00066664093
0.13321732 -0.36525205 0.71622658 0.84750503 0.042345472 0.52909553 0
0.053145919 -0.1264092 0.73801214 -0.01841864 0.99732894 0.070680737 0.00094939442
0.044886518 -0.12654562 0.71866238 nan nan nan nan
-0.074160814 -0.13260496 0.73264813 -0.034189872 0.99941432 -0.0014038166 2.5383042e-05
0.0794615 -0.12620951 0.70048451 -0.03949796 0.99918377 0.008457181 9.2632945e-05
0.10517239 -0.13264042 0.65589309 -0.17117603 0.16595717 -0.97116274 0.034194235
0.028269203 -0.12706122 0.70566452 -0.053004093 0.99749941 -0.04674831 0.00044130482
0.04993891 -0.13074154 0.78666335 0.39190528 0.84267759 0.36919481 0.017786974
0.1030334 -0.13608138 0.72922951 0.49374521 0.73043293 0.47189337 0.00090614927
0.0051691514 -0.13388455 0.82013863 -0.061504073 0.96160412 0.26745996 0.0021266835
0.05298138 -0.4033047 0.8128587 0.33930308 0.19053437 0.92117864 0.022914454
0.058053941 -0.12708142 0.73974377 0.075939745 0.9928481 0.092118658 0.0004272238
-0.018289793 -0.12897891 0.69356745 -0.052328929 0.99862307 0.0037006657 0
0.12912185 -0.13330515 0.67433012 0.68221694 0.67111641 -0.29014274 0.003148654
-0.070713148 -0.13100992 0.68725652 0.040003974 0.99039108 -0.13238305 0
0.14482507 -0.24901393 0.68808132 0.96676141 0.1591924 0.20007569 0.00032362857
0.13080567 -0.22555093 0.71410155 0.83117533 -0.0099765342 0.55592084 0.0012275295
0.020065682 -0.2742556 0.8390618 nan nan nan nan
0.059347987 -0.26146504 0.80245185 nan nan nan nan
0.00026831115 -0.12797321 0.63319898 nan nan nan nan
0.058347695 -0.12632473 0.71928281 -0.038123347 0.99925691 0.0056865457 2.5355119e-05
0.064638302 -0.13113716 0.76803851 0.35699099 0.86193234 0.36004177 0.004618932
0.13389914 -0.31553301 0.71182621 0.81752455 0.0027051643 0.57588756 0.00077025476
0.14297199 -0.1352347 0.68761885 0.41932043 0.90087479 0.11222727 0.019427571
0.13544904 -0.30493352 0.70944095 0.73749417 -0.10515126 0.66711736 0
0.14394975 -0.23351985 0.69077468 nan nan nan nan
-0.046105221 -0.13316306 0.76093739 -0.07585226 0.99269378 0.093837924 0.00066045573
-0.026083704 -0.13737087 0.81437171 -0.65650982 0.65374655 0.37631151 0.036582179
-0.11773603 -0.13537404 0.68623132 nan nan nan nan
-0.045754913 -0.13067628 0.70771116 -0.044924524 0.99838495 0.034775525 8.9640353e-06
-0.0080545805 -0.13756007 0.82914102 -0.1005891 0.86294115 0.49519143 0.0058026845
-0.036182005 -0.1376325 0.80181736 -0.14084926 0.91025555 0.38935357 0.0038771934
0.010435987 -0.13049668 0.80536973 0.058108531 0.99801815 0.024149548 0.0052249944
0.04693364 -0.26255152 0.81384462 0.71647996 -0.019932983 0.69732291 0
0.027855515 -0.12727465 0.71628141 nan nan nan nan
-0.040140066 -0.13040523 0.70457488 -0.043957371 0.99851036 0.032321963 9.3519331e-05
0.11071821 -0.13145176 0.65618187 0.16662213 0.46903995 -0.8673169 0.03493518
-0.086132623 -0.13169885 0.67156136 -0.12195189 0.99202168 -0.031949949 0.0021693138
0.074635401 -0.13111435 0.76044381 0.39848211 0.68879622 0.60561681 0.018241873
0.084338002 -0.41731712 0.77207184 0.94333565 -0.22558892 0.24336676 0
0.14498284 -0.25317127 0.69073957 0.96578681 0.098982565 0.23970464 0.0019371916
0.11996239 -0.37263733 0.73484838 0.80409265 0.0085665686 0.59444225 0.00088462525
0.027797958 -0.1319398 0.82187277 0.24899592 0.88930243 0.38359129 0.056621801
0.13043362 -0.37387246 0.72050565 0.81802392 -0.037111558 0.5739857 0.00094802497
0.031161562 -0.12661123 0.70965356 -0.039000813 0.99923241 0.0036916595 0.00081004814
0.10116617 -0.37831593 0.75501901 nan nan nan nan
0.12020671 -0.31237149 0.73057681 nan nan nan nan
0.14590541 -0.36886671 0.69338691 0.93895584 -0.058256682 0.33906949 0.022394562
0.12299945 -0.26818597 0.72505635 nan nan nan nan
0.093153089 -0.37489864 0.76457727 nan nan nan nan
0.13049319 -0.12926161 0.70196199 nan nan nan nan
0.084967911 -0.1335263 0.63850731 0.24151099 0.88787311 -0.39160407 0.0025141339
-0.046754848 -0.13121866 0.72592074 -0.059492998 0.99791622 0.024972856 1.3757322e-05
-0.00045731963 -0.13038051 0.77345991 nan nan nan nan
-0.096495315 -0.1365228 0.73467314 -0.11677589 0.97464275 0.19087921 0.0039661517
-0.058297873 -0.13216828 0.73129928 -0.048588425 0.99876225 0.010632691 0.00020110981
0.12862062 -0.19551717 0.71645945 0.80003846 0.049166221 0.59793067 0
-0.10004434 -0.13266309 0.70773256 -0.054250896 0.99775511 0.039263409 2.8545642e-06
0.03810617 -0.39081937 0.8258068 nan nan nan nan
0.13477935 -0.13236569 0.68527824 0.37134686 0.92092758 0.11829591 0.015591903
0.096352689 -0.12814504 0.73594248 0.71494657 -0.69915086 0.0062939972 0.00011237026
0.13185544 -0.20073782 0.71259081 0.84593582 0.15187545 0.5112009 0
0.12824628 -0.1559881 0.71408051 0.6230585 0.14239448 0.76910454 0.00046636644
0.1412573 -0.2030175 0.69447196 0.97048813 0.017934684 0.24048108 0.0031950814
0.14018726 -0.18546423 0.6944502 0.98053014 -0.083941378 0.17752333 0.00039084966
0.082255058 -0.42582083 0.7669372 0.97978896 -0.13645197 -0.14626844 0.00051642186
0.070379309 -0.42487535 0.79587686 nan nan nan nan
-0.08076033 -0.1318077 0.66946113 -0.076510683 0.99239182 -0.096459538 0.0007034142
-0.0077499701 -0.13104352 0.78572136 -0.041140687 0.99913192 -0.0065366221 0.00033919365
0.13610016 -0.16679727 0.70338696 0.93576759 -0.30466798 0.17752877 0.019122893
0.12357288 -0.16398735 0.72080797 0.64686406 0.1186609 0.753317 0
0.1354308 -0.16890073 0.70682895 0.93576759 -0.30466798 0.17752877 0.019122893
0.063525133 -0.18960248 0.79019183 0.78685755 0.032263566 0.61629069 0.0025778408
0.08205796 -0.19378966 0.76980901 0.84173697 -0.53501809 0.072349377 0.0060401061
0.14716589 -0.26304424 0.68109584 0.85185093 0.41771877 -0.31600806 0.053444337
0.14786813 -0.2864452 0.68793029 0.91570073 -0.041798491 0.39968127 0
0.13484551 -0.24194033 0.70915979 0.86398268 -0.068121433 0.49889216 0.0017579398
0.093410425 -0.21449599 0.75813627 nan nan nan nan
0.080637343 -0.19583745 0.77166867 0.76572049 0.054527558 0.64085788 0
0.13454179 -0.26591009 0.71096838 0.77855599 0.0018539857 0.62757242 0
0.027438933 -0.22420962 0.83544588 0.44946095 -0.48153901 0.75239956 0
0.016865131 -0.24790491 0.83917332 0.41588005 -0.02981863 0.90893042 0.004626866
0.1483175 -0.30779919 0.68997586 0.78511429 -0.053132351 0.61706758 0
0.086787708 -0.25805718 0.76494408 0.68934697 0.074536927 0.72058648 0.00060451787
0.060013611 -0.13666916 0.7839312 0.50529069 0.48903733 0.71100187 0.034210078
0.096828744 -0.18860179 0.75297987 0.70791453 0.039084539 0.70521581 0
0.064833365 -0.15247908 0.78442544 0.75215095 0.2204942 0.62100816 0.0011407634
0.058204003 -0.17792486 0.7959038 0.73073214 0.030016961 0.68200403 0
0.060391378 -0.18652163 0.79394639 0.7458728 0.019009322 0.66581702 0
0.12442064 -0.1522553 0.71629846 0.6230585 0.14239448 0.76910454 0.00046636644
0.040558547 -0.173815 0.81703639 0.57795382 0.056667369 0.81409967 0
0.081665032 -0.13288231 0.75892889 0.44402471 0.64770275 0.61913109 0.034930475
0.039722003 -0.17382638 0.81776923 0.57795382 0.056667369 0.81409967 0
0.11285501 -0.2281028 0.73781592 nan nan nan nan
0.12637301 -0.22056113 0.7208215 0.79367363 -0.024154123 0.60786414 0.0032359683
0.018133758 -0.24980566 0.83891088 0.42332506 -0.04252439 0.90497929 0.0053436528
-0.061644044 -0.13786152 0.77796334 -0.39315465 0.7918247 0.46737906 0.017306378
0.13079388 -0.15194386 0.71110851 0.6230585 0.14239448 0.76910454 0.00046636644
0.13641612 -0.1871237 0.70362103 0.8798067 0.02345608 0.47475258 0.001108193
0.13239518 -0.18905185 0.71080542 0.85695839 -0.012190479 0.5152415 0.00056705024
0.13300303 -0.20121489 0.71093374 0.84653157 0.13666494 0.5144968 0.0011470424
0.025861138 -0.18323305 0.83405113 -0.29126057 0.93250352 -0.21355194 0
0.080128469 -0.15833622 0.76503992 0.8084206 0.22861937 0.54239219 0.00018998024
0.076968819 -0.14707801 0.76586998 0.86143261 0.1992676 0.46714684 0
0.14401004 -0.13784321 0.68845093 0.41773576 0.9010464 0.11667181 0.027300043
0.14674251 -0.13756996 0.6869455 0.43836397 0.89263982 0.10502938 0.037425425
0.024921227 -0.18341769 0.8346715 -0.29126057 0.93250352 -0.21355194 0
0.12174389 -0.17591131 0.72510177 0.81026918 0.057139188 0.58326584 0.001256885
0.11556787 -0.19901697 0.73233491 0.80712551 -0.33644617 0.48513117 0.00097951095
0.063354872 -0.13419908 0.78023732 0.58351713 0.66200387 0.47038126 0.052084565
0.12380867 -0.17182469 0.72191972 0.67671037 0.13989687 0.72283608 0
0.080064625 -0.13787787 0.76172036 0.31318209 0.34985521 0.88290334 0.0031112882
0.074829765 -0.146624 0.7696324 0.86143261 0.1992676 0.46714684 0
0.05045167 -0.15459998 0.79994321 0.59289485 0.222853 0.77382958 0.0012980605
0.067785002 -0.15291435 0.78106761 0.743595 0.25472927 0.61820662 0.0011489427
0.079870947 -0.16731128 0.76921433 0.80677021 0.22959621 0.54443324 0
0.016142648 -0.16120563 0.83575505 0.56585014 0.82006764 0.085455164 0.00013550397
0.04567188 -0.14247669 0.80171794 0.73798937 0.4055362 0.53936267 0.0023418257
0.099196211 -0.191457 0.75039506 0.47550088 -0.30458099 0.82530558 0.0028499197
0.078103721 -0.18520752 0.77420646 nan nan nan nan
0.11762001 -0.15722075 0.72511059 0.6632486 0.16571696 0.72982132 0.00067317439
0.11705515 -0.16210902 0.72644556 0.69438833 0.21931767 0.6853646 0.0015220438
0.062785514 -0.15654269 0.78856051 0.74410129 0.25516877 0.61741579 0.0011560021
0.079470396 -0.27917275 0.77673161 0.85478956 -0.2800827 0.43690792 0.0002427407
0.12639645 -0.4020946 0.72533971 0.75969321 -0.063528106 0.64717108 0.00031979787
0.12979525 -0.3983556 0.72197139 0.84104711 -0.27980724 0.46297693 0.00028421264
0.11260958 -0.35504618 0.74216872 0.93973964 0.15844055 0.30296209 0.00025656226
0.11438967 -0.36557898 0.74140328 0.78473032 0.10606023 0.61069596 0.00075259898
0.11241552 -0.33857217 0.7426753 nan nan nan nan
0.096358739 -0.31563881 0.75673997 nan nan nan nan
0.10940664 -0.30482951 0.74384129 0.75749046 0.087829649 0.6469112 0
0.016008906 -0.29506594 0.84298539 0.10004708 -0.050948311 0.99367738 0.0091885552
0.020479979 -0.24747673 0.83804715 0.42332506 -0.04252439 0.90497929 0.0053436528
0.015889233 -0.16162598 0.84124285 0.56585014 0.82006764 0.085455164 0.00013550397
0.017909277 -0.30813441 0.84060997 0.47570288 0.14919932 0.86686003 0.0054155849
-0.0014457069 -0.41790718 0.83941561 0.03484688 -0.086265907 0.99566251 0.015137373
0.027054414 -0.20780349 0.8345086 nan nan nan nan
0.028097412 -0.22483742 0.83484656 0.44946095 -0.48153901 0.75239956 0
0.027697098 -0.26442906 0.83152443 nan nan nan nan
0.026138121 -0.18323742 0.83386856 -0.29126057 0.93250352 -0.21355194 0
0.028427877 -0.29805428 0.83022505 nan nan nan nan
0.040233396 -0.17461379 0.81751055 0.57795382 0.056667369 0.81409967 0
0.044792533 -0.29890785 0.81410366 nan nan nan nan
0.044814523 -0.27212983 0.81566691 0.83227307 -0.29374772 -0.47014245 0
0.045021955 -0.25648928 0.81579822 0.78521794 0.052269306 0.61700946 0.0030544756
0.048892617 -0.36670223 0.81341356 nan nan nan nan
0.11249956 -0.39754805 0.74100256 0.90505725 -0.16015056 0.39398384 0.0009975835
0.030504467 -0.34698033 0.83106816 0.99568504 -0.085991152 -0.034881089 0
0.054252196 -0.4320015 0.81764239 0.43080857 -0.89489168 0.11650248 0.00097769999
0.11370108 -0.35898754 0.74112147 0.90489441 0.12223119 0.40770781 0.0001664071
0.034269448 -0.41168538 0.82789892 nan nan nan nan
0.042551611 -0.21661155 0.81564331 nan nan nan nan
0.11578429 -0.29994237 0.73556191 0.72959286 0.14707237 0.66788024 0
0.12481322 -0.29332653 0.72473007 nan nan nan nan
0.11364123 -0.22720906 0.73686832 0.76534414 0.11593555 0.63309342 0.0001386568
0.14180627 -0.41093123 0.70619076 0.60091364 0.043827664 0.7981115 0.0042594448
0.12383185 -0.40534469 0.72794354 0.75240618 -0.082951449 0.65345544 0.0032907571
0.12566775 -0.40339479 0.7260592 0.75969321 -0.063528106 0.64717108 0.00031979787
0.12641796 -0.37080419 0.72611511 0.80345798 -0.037646443 0.59416997 0
0.12148944 -0.36061916 0.73194683 0.77260768 0.06497623 0.63155007 0.0019786449
0.13013858 -0.3671473 0.72108024 0.82170749 0.00049233058 0.56990921 0.0004188423
0.11588398 -0.19859928 0.73195195 0.80712551 -0.33644617 0.48513117 0.00097951095
0.12678081 -0.21920064 0.72011119 0.79367363 -0.024154123 0.60786414 0.0032359683
0.11765367 -0.25021732 0.73172659 0.78264332 0.051782954 0.62031275 0.0055372897
0.12217056 -0.22053519 0.72520757 0.75016981 0.082785971 0.6560424 0
0.12402028 -0.16480258 0.72092479 0.6464119 0.12218873 0.75314116 0
0.022782531 -0.24141937 0.83697116 0.61991358 -0.17476913 0.76495945 0.019235596
0.1505104 -0.29650545 0.67983472 0.94843876 0.02810739 0.31571162 0.001436008
0.14965662 -0.32192639 0.68037832 0.99164885 -0.12386113 -0.03592987 0.0056903148
0.1417336 -0.27136442 0.70033818 0.78714621 -0.0013659236 0.61676484 0.0029274211
0.1136084 -0.30282241 0.73851258 0.79396242 0.0023452081 0.60796225 0
0.11588001 -0.20926869 0.73435211 nan nan nan nan
0.12312175 -0.16264066 0.72101206 0.68587148 0.1776462 0.70570683 0.0022360936
0.13406996 -0.23954333 0.71081185 0.87212735 -0.088671468 0.481177 0.0022446516
0.13839507 -0.30727056 0.70560074 0.84445918 0.0087324381 0.53554863 0.0032175679
0.15247431 -0.39574039 0.68506914 0.58872008 -0.65280229 -0.47671562 0.014624869
0.14772111 -0.35858926 0.68495703 0.98058844 0.0088186599 0.19587922 0.0042781429
0.14801316 -0.35929075 0.68235314 0.97603863 -0.05558208 0.2103788 0.0065635974
0.15330717 -0.41296604 0.68705016 0.95344967 0.13732173 0.26847073 0
0.13968478 -0.35695013 0.70549965 0.97063899 -0.038745329 0.23739986 0.0024300099
0.14638734 -0.3491337 0.69172633 0.52750254 -0.39310977 0.75313061 0
0.12012542 -0.40153363 0.73273951 0.75240618 -0.082951449 0.65345544 0.0032907571
0.14250107 -0.27621478 0.69934553 0.78714621 -0.0013659236 0.61676484 0.0029274211
0.12541302 -0.15250243 0.71529955 0.6230585 0.14239448 0.76910454 0.00046636644
0.14567381 -0.30222771 0.69401163 0.76247978 -0.10308804 0.6387468 0.0017848553
0.13715954 -0.23072499 0.70614499 0.77776545 -0.057230875 0.62594366 0.0037822223
0.14364722 -0.25854534 0.69518042 0.96062356 0.0096930228 0.27768394 0.0016131662
0.16016713 -0.42569986 0.67525429 nan nan nan nan
0.13509271 -0.16806436 0.70722437 0.93576759 -0.30466798 0.17752877 0.019122893
0.13490798 -0.26957211 0.71036017 0.77855599 0.0018539857 0.62757242 0
0.14540033 -0.25620499 0.69059747 0.97178537 0.067648284 0.22595769 0.0017158404
0.14865826 -0.30652905 0.6894694 0.88563973 0.19625334 0.42086434 0.0025698149
-0.011970315 -0.13897507 0.82984668 -0.16659859 0.98521858 0.039866414 0.0046700812
-0.069134578 -0.13200279 0.70938617 nan nan nan nan
0.024879334 -0.25651744 0.83306313 nan nan nan nan
0.025622992 -0.1392758 0.83657676 -0.078269705 0.98992503 0.11799321 3.6698355e-05
0.028303718 -0.13853781 0.83194172 -0.49824035 0.85641456 -0.13531719 0.00027684728
0.14768943 -0.32807866 0.68053329 0.90802485 -0.39887112 -0.1280338 0.0035858792
0.09308625 -0.12756583 0.72313935 0.28070909 0.95922291 0.033074014 0.028990075
0.11598386 -0.13464646 0.71542686 0.42760575 0.50125152 0.75226337 0.011033787
0.14606996 -0.25080907 0.68280935 0.97675455 0.12695499 0.17272259 0.0011166268
-0.042998172 -0.13210143 0.59695303 -0.44325495 0.89565921 -0.036327999 0.013117477
0.098839439 -0.12816767 0.71734077 0.36681312 0.85650092 0.36311749 0.0042228163
0.11122654 -0.16172087 0.73294103 0.72285682 0.23520041 0.64973748 0.00018032652
0.14491744 -0.34496093 0.69548035 0.52750254 -0.39310977 0.75313061 0
0.13363673 -0.36938438 0.71562839 0.8492046 -0.0017168671 0.52806121 0
0.1178755 -0.22152141 0.73060971 0.76251954 0.13173506 0.63341135 0
