# .PCD v0.7 - Point Cloud Data file format
VERSION 0.7
FIELDS x y z
SIZE 4 4 4
TYPE F F F
COUNT 1 1 1
WIDTH 1462
HEIGHT 1
VIEWPOINT 0 0 0 1 0 0 0
POINTS 1462
DATA ascii
-0.3224481 -0.26384121 1.0472029
-0.32160431 -0.33768579 1.076408
-0.021471919 -0.1352165 1.261887
-0.30179739 -0.27742219 1.01389
-0.26859829 -0.1625201 0.98572022
-0.3028692 -0.1749094 1.035583
-0.099018693 -0.28044069 0.94381702
-0.320802 -0.40886819 1.093228
-0.3062624 -0.17276271 1.056749
-0.084174573 -0.3054654 1.225632
-0.31251639 -0.2110959 1.053193
-0.28461379 -0.1545659 1.017037
-0.2110956 -0.1648674 1.131157
-0.33537701 -0.31435901 1.03374
-0.1731621 -0.302322 1.166931
-0.3038235 -0.32615891 0.99183041
-0.041218519 -0.13323461 1.02828
-0.33862111 -0.3581295 1.060189
-0.35803169 -0.43788591 1.047794
-0.052095588 -0.15341119 1.254227
-0.056814011 -0.23353259 1.198066
-0.31753799 -0.29918629 1.014624
-0.31246221 -0.3988167 0.98827702
-0.2879658 -0.17590681 1.0118541
-0.34302911 -0.37260389 1.037742
-0.29733759 -0.45067191 0.95520622
-0.32557589 -0.297135 1.039212
-0.3349663 -0.36726549 1.018535
-0.036883231 -0.2679325 1.22753
-0.1047872 -0.14600579 1.211368
-0.28052729 -0.44397911 1.140318
-0.1247218 -0.1326634 1.0192879
-0.079003327 -0.13459919 1.123397
-0.02315104 -0.32644469 1.307343
-0.1629063 -0.15864681 1.16989
-0.076811373 -0.1306483 1.139482
-0.27509731 -0.1296261 1.024357
-0.31814131 -0.4347066 0.97850001
-0.27906609 -0.2254246 1.087275
-0.084266603 -0.129122 1.158116
-0.27821091 -0.3333371 0.96496379
-0.2777822 -0.46635911 0.9399662
-0.35317779 -0.45092961 1.027748
-0.0068323021 -0.33241159 1.318727
-0.17045739 -0.1559304 1.164668
-0.33704451 -0.4328813 1.012082
-0.34199461 -0.37497869 1.028402
-0.3156198 -0.2417569 1.059165
-0.26147401 -0.29869679 1.000541
-0.1212018 -0.3550337 1.230036
-0.28787759 -0.3765876 1.126693
-0.2871497 -0.1705413 1.016561
-0.3053734 -0.268866 1.0292259
-0.31421989 -0.38964409 1.099172
-0.27260491 -0.1737431 1.005066
-0.2830753 -0.2216931 1.017079
-0.153365 -0.2984091 1.174116
-0.068591297 -0.1332498 1.107679
-0.1672111 -0.14742281 1.158426
-0.2076814 -0.1301371 1.110402
-0.2453748 -0.2995792 0.99526882
-0.091741383 -0.28724009 0.94960862
-0.104284 -0.1340462 1.043327
-0.26338241 -0.30108079 0.98918313
-0.2942414 -0.2035954 1.068653
-0.3427285 -0.3682791 1.044162
-0.3600198 -0.44243309 1.048507
-0.34778309 -0.3728818 1.060179
-0.3444736 -0.39594191 1.036715
-0.3180398 -0.2524946 1.0376019
-0.3400324 -0.39440411 1.025596
-0.29370999 -0.27727121 1.007471
-0.34643319 -0.44214949 1.00763
-0.3233225 -0.3151682 1.01211
-0.0022161601 -0.13728 1.276373
-0.27974579 -0.32756391 0.9563911
-0.286504 -0.32615131 1.102453
-0.3145456 -0.40645149 0.97573948
-0.30640709 -0.43666109 1.114033
-0.30100691 -0.43063921 0.96348327
-0.063658647 -0.28681949 1.2210979
-0.2744498 -0.30432799 0.98395967
-0.1791002 -0.2959708 0.98849052
-0.1038818 -0.1357128 1.0411021
-0.2353707 -0.27388251 1.007754
-0.25737989 -0.247811 1.013463
-0.21887679 -0.24489699 1.008725
-0.196477 -0.45925659 0.83187222
-0.19974589 -0.31319329 0.88856822
-0.2257296 -0.30904359 0.89415318
-0.19347849 -0.2938351 0.90757787
-0.1731617 -0.29377651 0.94588941
-0.1851594 -0.31274551 0.86884719
-0.15677559 -0.31051239 0.80953407
-0.1880109 -0.2988511 0.91857213
-0.1135176 -0.35071051 0.74617481
-0.086437553 -0.2870833 0.73791909
-0.088112243 -0.30462191 0.72899091
-0.27277961 -0.29795301 0.96702588
-0.094276667 -0.30679119 0.73412979
-0.064861827 -0.1853569 0.74457109
-0.125256 -0.148947 0.81763053
-0.067727603 -0.2231289 0.73695582
-0.064977653 -0.2701205 0.72924072
-0.1718104 -0.2982837 0.88341433
-0.066856436 -0.22844701 0.73792559
-0.06585151 -0.2514621 0.73212701
-0.054063451 -0.38136959 0.70657498
-0.1086405 -0.44773009 0.72311091
-0.04385123 -0.39378729 0.70316672
-0.2466047 -0.15814251 0.9748565
-0.22916649 -0.38696241 0.89143741
-0.02290222 -0.27177471 0.75556082
-0.072121501 -0.4021624 0.69809687
-0.084793732 -0.232465 0.74584329
-0.073817253 -0.4062942 0.69811052
-0.067733839 -0.19462509 0.74797899
0.047646839 -0.14733779 0.82602441
0.063453399 -0.36153081 0.79479688
-0.002336323 -0.41153061 0.73481083
-0.01302013 -0.29958031 0.77435261
-0.1794765 -0.40374559 0.82350183
0.072848931 -0.45836121 0.78576612
0.037522878 -0.3645165 0.77743852
-0.058916342 -0.32594001 0.72165918
-0.3134515 -0.28313711 1.032974
-0.01024538 -0.35067809 0.74050981
0.017945981 -0.4612394 0.7420572
-0.039855361 -0.44199231 0.70514172
0.01023485 -0.40994909 0.74631917
0.097882181 -0.3602075 0.82569909
0.01142821 -0.4031111 0.74364817
-0.017077141 -0.4636845 0.71606928
-0.2627109 -0.37890649 0.93085188
-0.1704604 -0.44740611 0.80488908
0.082978457 -0.4433257 0.79175723
0.023714321 -0.40971151 0.74024761
-0.15942369 -0.30043831 0.8587482
-0.25086251 -0.30257019 0.97151822
-0.062291 -0.39923871 0.7029736
0.032126099 -0.38939649 0.76744932
0.062304851 -0.44876871 0.78574032
-0.00087222463 -0.29816309 0.7840656
-0.057319108 -0.34437111 0.71039951
-0.1138282 -0.35084611 0.74589223
0.027539371 -0.1474157 0.8143785
-0.03290328 -0.3213025 0.72471392
0.0095511079 -0.34704369 0.76742113
-0.00084745878 -0.42081329 0.73340923
-0.1897846 -0.1477668 0.89832377
-0.2332086 -0.46734241 0.88091618
-0.12738959 -0.45531249 0.74080282
-0.054584712 -0.34336221 0.71273828
0.04015949 -0.160809 0.82280701
0.090454161 -0.1525206 0.86886239
0.09061785 -0.37743711 0.8102693
-0.018116999 -0.31521589 0.77455622
0.1254168 -0.21811099 0.96495253
-0.0092576742 -0.1539458 0.78850472
-0.041420441 -0.2166886 0.77157909
-0.049901161 -0.38872111 0.70133263
-0.1802008 -0.36696309 0.82741851
0.055655818 -0.1664483 0.84864849
-0.2824904 -0.4086929 0.95150298
0.003137961 -0.1635372 0.78904521
0.084181502 -0.26540059 0.96579629
-0.01080362 -0.29532969 0.82912338
-0.2066388 -0.29874161 0.96565312
-0.25773039 -0.29834309 0.99813282
-0.2147956 -0.29170421 0.97992498
0.0042721182 -0.43651351 0.74022901
-0.0097221434 -0.4134506 0.73247719
-0.022039181 -0.3466416 0.7319082
0.076066077 -0.1555752 0.8496666
0.031520251 -0.23499151 0.95629919
0.044432011 -0.32793209 0.78727633
-0.092870891 -0.1827651 0.77962708
0.098698907 -0.14393599 0.86951649
0.01479066 -0.2204878 0.9582026
0.1168406 -0.1470522 0.88378268
0.02401435 -0.46685311 0.75019968
0.034043439 -0.3815102 0.76290119
0.01612699 -0.41599539 0.73728311
-0.1222566 -0.29925311 0.78717673
0.077902287 -0.36584401 0.80256802
-0.039459649 -0.45226201 0.70455962
0.035069481 -0.29648051 0.92322749
-0.21181799 -0.31186631 0.88997298
-0.16528501 -0.3048692 0.81663358
-0.33027861 -0.31334859 1.045199
-0.26865181 -0.33645859 0.94942802
-0.01133793 -0.45043719 0.72311747
-0.16527431 -0.1238703 0.87903053
-0.2749826 -0.35708341 0.95902288
0.046279199 -0.34431979 0.78998607
-0.1314292 -0.30966371 0.78383142
0.05690505 -0.45635051 0.79328352
-0.077105314 -0.2322437 0.73844171
0.091556378 -0.1613133 0.85659021
-0.0146713 -0.3385421 0.73969603
-0.035925329 -0.23422161 0.75425178
-0.072647527 -0.377538 0.70879948
0.002540939 -0.3062495 0.79097873
0.030115491 -0.1585401 0.80332732
0.03150484 -0.2883217 0.96503699
-0.097051442 -0.3916589 0.71489328
0.05550443 -0.2977564 0.91643709
0.008427918 -0.2366699 0.94781768
0.036789179 -0.28107011 0.95732081
-0.029469989 -0.1334286 0.81154609
0.1086694 -0.1416537 0.87773901
0.0083673298 -0.28871831 0.95411181
0.097539186 -0.31457621 0.83813077
-0.030622341 -0.4529624 0.70310992
-0.02007186 -0.148413 0.77219129
0.099104263 -0.1311671 1.117031
-0.3089689 -0.2165612 1.04329
-0.2435663 -0.1342404 0.99896449
0.0080201924 -0.15853751 0.79493481
0.017077791 -0.2477603 0.95340377
0.01527307 -0.2284409 0.96123099
0.083748922 -0.37175709 0.81673402
-0.01268226 -0.3001309 0.78530169
-0.00189577 -0.4152877 0.73346722
0.1076439 -0.31844431 0.83450162
0.091457613 -0.37005469 0.82044291
0.0082221031 -0.41546649 0.73610371
0.05157451 -0.35791591 0.79849398
-0.077504583 -0.3913531 0.69971102
0.069468498 -0.3565625 0.81066263
-0.27592289 -0.3200298 0.96324551
-0.1033008 -0.36043999 0.74097741
-0.34145471 -0.4727014 1.004848
0.082673341 -0.29853609 0.93563992
-0.1247168 -0.15873989 0.8042928
-0.1482287 -0.45360449 0.77131879
-0.0080009848 -0.45718771 0.73186141
-0.015658259 -0.1642998 0.7900396
0.02232446 -0.2945421 0.95879138
-0.1487105 -0.44788799 0.77579248
-0.026447151 -0.22174069 0.80430639
-0.1178259 -0.3997936 0.74548942
-0.14602821 -0.1629613 0.84192979
-0.03607291 -0.36540419 0.72217941
-0.062915042 -0.1778667 0.74974239
-0.1442651 -0.3743661 0.78158033
0.027200891 -0.23818859 0.96191388
-0.0085096965 -0.29438469 0.86211759
0.019755561 -0.30120069 0.9453125
0.019453179 -0.34333929 0.76909238
0.049927048 -0.1345121 0.93260157
-0.01256174 -0.30266729 0.80547148
0.12926801 -0.4149372 0.84811038
-0.048079401 -0.2449782 0.73168367
-0.1484722 -0.30388999 0.86564952
0.019190449 -0.4101862 0.74159998
-0.05338145 -0.25177589 0.73215997
-0.1867836 -0.2960352 0.88409799
-0.22216681 -0.30237329 0.90762579
-0.27421641 -0.44843331 0.93521953
-0.28152391 -0.41321149 0.9559691
-0.32832479 -0.3071391 1.037521
-0.24138001 -0.2964249 0.91617441
-0.30965051 -0.32592341 1.005525
-0.3336536 -0.34853479 1.0271569
-0.043005262 -0.43447891 0.70486629
-0.098055229 -0.30664361 0.74406803
-0.03017029 -0.29781449 0.8570143
-0.030676231 -0.32244501 0.77785671
-0.18534429 -0.44674751 0.81594688
-0.37058061 -0.46955371 1.0453
0.1116906 -0.4598324 0.82617038
-0.02179208 -0.24054021 0.80375832
-0.041497242 -0.13154121 0.94698387
-0.02447051 -0.2541787 0.77124912
-0.0077537452 -0.4543916 0.72577387
-0.094698161 -0.22017699 0.76541692
-0.05649811 -0.30728629 0.72516412
0.089059234 -0.40262511 0.8126899
0.007282048 -0.26319149 0.9552567
0.084581718 -0.39665759 0.80389249
0.12731519 -0.4676154 0.82986432
0.033456501 -0.32416499 0.79304749
-0.1359698 -0.2960366 0.77456212
-0.142561 -0.30145359 0.81099927
-0.1120603 -0.34344271 0.74006832
-0.092652202 -0.30328169 0.72802383
-0.084357858 -0.28317621 0.73509967
-0.1895382 -0.2438805 1.000664
-0.1258038 -0.2312382 0.98954183
-0.1275216 -0.30140451 0.82935822
-0.1163299 -0.39390191 0.73647738
-0.1241963 -0.2288228 0.98595548
-0.1327609 -0.45502701 0.74638551
-0.09247911 -0.19040629 0.759745
-0.14381769 -0.43939421 0.76230282
-0.13146099 -0.1455237 0.80525118
-0.23736119 -0.30639169 0.89767623
-0.1057855 -0.2952618 0.82600278
-0.16156641 -0.29437611 0.85669023
-0.168341 -0.2978054 0.94617409
-0.1895344 -0.45938411 0.82136732
-0.1825759 -0.30086821 0.90361339
-0.1200142 -0.29566389 0.8845638
-0.1467292 -0.4139182 0.78958303
-0.1795547 -0.4010711 0.82285953
-0.2182454 -0.29790929 0.87122101
-0.1665381 -0.46381399 0.79646093
-0.19554611 -0.4031665 0.84690422
-0.19356009 -0.2940605 0.96643013
-0.093712747 -0.21714599 0.75651288
-0.1971755 -0.1453245 0.89828938
-0.1607741 -0.30999419 0.79911113
-0.1215481 -0.29830161 0.76550752
-0.1034592 -0.28478301 0.96860868
-0.1183264 -0.30180699 0.81957531
-0.097613871 -0.2155579 0.77196169
-0.1961706 -0.16040459 0.88690013
-0.1626666 -0.43189809 0.78629398
-0.22912601 -0.4290286 0.87586057
-0.1233773 -0.44360059 0.73013312
-0.088696957 -0.18813661 0.79454643
-0.16767199 -0.36634001 0.81276178
-0.19506539 -0.145547 0.89496207
-0.1409144 -0.31466049 0.78944528
-0.1625721 -0.3031233 0.82059097
-0.1723537 -0.29604071 0.88024622
-0.2103412 -0.29689309 0.96205288
-0.204878 -0.43018249 0.84403068
-0.093283363 -0.2217406 0.74646431
-0.089511693 -0.235366 0.84170252
-0.2122359 -0.42941561 0.85391432
-0.087572873 -0.2442286 0.89533412
-0.092205517 -0.32275021 0.71587598
-0.1217378 -0.32710409 0.74989277
-0.069366872 -0.31360909 0.71230322
-0.093849659 -0.2095143 0.9022181
-0.096262038 -0.2168318 0.76771188
-0.092775233 -0.1879126 0.80399632
-0.084550798 -0.2570532 0.88646382
-0.1105189 -0.43533641 0.72412151
-0.092751801 -0.27262071 0.8687048
-0.16987421 -0.29694349 0.86647183
-0.088054001 -0.25539339 0.86702281
-0.1976283 -0.39840481 0.84389043
-0.092612922 -0.23529109 0.83194458
-0.086313553 -0.2698276 0.88914847
-0.083966307 -0.24223749 0.88446343
-0.082979083 -0.25585759 0.90263802
-0.1362702 -0.43727449 0.74590242
-0.1606735 -0.29261771 0.95673132
-0.1481719 -0.36934111 0.77313608
-0.090089262 -0.2808893 0.80189478
-0.144154 -0.44325361 0.76348829
-0.085006773 -0.2201649 0.85941821
-0.095936537 -0.43634 0.69670582
-0.109639 -0.44543791 0.71245098
-0.096548259 -0.36824861 0.71551609
-0.092895269 -0.2371024 0.85839927
-0.1114797 -0.2980316 0.84503388
-0.1804187 -0.4214274 0.81182551
-0.1193804 -0.2972123 0.8706311
-0.1429866 -0.36859429 0.7666204
-0.100959 -0.31212509 0.72859031
-0.1041821 -0.35729179 0.73313588
-0.0865646 -0.2154426 0.85955852
-0.099182248 -0.29540101 0.78758281
-0.055008709 -0.1350922 0.75540441
-0.1309711 -0.3691906 0.75550282
-0.1018799 -0.35689491 0.72048348
-0.1327869 -0.47154269 0.73534012
-0.1059185 -0.36366341 0.7223323
-0.1681529 -0.36386281 0.79382181
-0.13218661 -0.39058501 0.7481488
-0.073202372 -0.22319859 0.73233968
-0.1191367 -0.42412081 0.72404408
-0.1038243 -0.38019079 0.71913099
-0.063738823 -0.33068049 0.7105853
-0.059588131 -0.3336859 0.71017981
-0.054793891 -0.30347931 0.71945208
-0.05718505 -0.31432199 0.70376611
-0.1201369 -0.46851259 0.72240841
-0.087399013 -0.26941851 0.905792
-0.1298403 -0.1441447 0.81165481
-0.1041192 -0.15275329 0.79085141
-0.1119305 -0.2925534 0.94876039
-0.25819829 -0.3772113 0.92150271
-0.26940081 -0.37311369 0.92483222
-0.25248739 -0.37717271 0.91584313
-0.24080171 -0.27282229 0.99637753
-0.2230355 -0.42326361 0.87127203
-0.2300228 -0.3090511 0.91836351
-0.2336783 -0.42805079 0.88173789
-0.2610164 -0.41762209 0.91979933
-0.21482959 -0.33997059 0.87410021
-0.24398419 -0.42994651 0.8938213
-0.1286841 -0.29208949 0.92027009
-0.24597821 -0.29758471 0.97705442
-0.26880881 -0.42555359 0.92414111
-0.24003009 -0.41287211 0.89389151
-0.27427599 -0.4158684 0.93653852
-0.086623192 -0.2887176 0.93332279
-0.17851511 -0.30728051 0.87591332
-0.16038319 -0.28244969 0.84384233
-0.21210679 -0.42254081 0.85552251
-0.2330346 -0.42056289 0.88373739
-0.23254649 -0.3384628 0.89494407
-0.26232961 -0.42980179 0.9182936
-0.1244441 -0.27415961 0.98479891
-0.27636659 -0.4302015 0.93751317
-0.1799041 -0.12864161 0.88929862
-0.1865557 -0.41760209 0.82181829
-0.25593761 -0.29821011 0.99862438
-0.1616727 -0.2514894 0.98502088
-0.1957728 -0.2466207 1.009347
-0.1249211 -0.3713074 0.74056947
-0.25772479 -0.33736569 0.93286628
-0.29751599 -0.47253811 0.94674617
-0.1720681 -0.26173171 0.98921603
-0.2567693 -0.3236683 0.93092787
-0.28697029 -0.46970189 0.9398331
-0.25338209 -0.3166098 0.91667908
-0.27884379 -0.3254742 0.95444238
-0.25700861 -0.34287259 0.91975713
-0.1423388 -0.40551221 0.75769627
-0.1499892 -0.2449943 0.98469692
-0.2844635 -0.33900419 0.95626712
-0.1075536 -0.28044 0.97309351
-0.171647 -0.2304351 0.99238938
-0.098790877 -0.27650169 0.93914771
-0.092523627 -0.28522199 0.94618332
-0.12709551 -0.37746799 0.73664379
-0.083293021 -0.38055399 0.70263809
-0.1025249 -0.39086631 0.71607262
-0.12916911 -0.43076801 0.73672801
-0.113089 -0.37014091 0.73698193
-0.1279193 -0.40791309 0.723162
-0.055867549 -0.35054979 0.70648801
-0.27377871 -0.14754599 0.99495822
-0.25149319 -0.1541131 0.97492337
-0.1385625 -0.31375721 0.78623921
-0.1713406 -0.47132531 0.78477621
-0.21799929 -0.3120935 0.88452017
-0.28022459 -0.42257759 0.93569249
-0.22730009 -0.41112211 0.87382698
-0.2195053 -0.40946719 0.86143589
-0.1682791 -0.4474743 0.77810591
-0.23798449 -0.41023409 0.88536292
-0.2118011 -0.40846339 0.8501631
-0.1748433 -0.4243004 0.79666632
-0.1958598 -0.4089348 0.83043307
-0.15014119 -0.42142341 0.75985008
-0.183835 -0.30497071 0.95653409
-0.25381011 -0.41929811 0.90310657
-0.29404151 -0.45063221 0.9537254
-0.17480101 -0.40782031 0.80049932
-0.1605479 -0.3232483 0.78709751
-0.2043651 -0.42886579 0.85504538
-0.1154997 -0.29117319 0.89520341
-0.16407759 -0.36640039 0.80897617
-0.28308511 -0.32743001 0.94803971
-0.2595796 -0.33148661 0.93506128
-0.1513121 -0.3824164 0.76900899
-0.30078501 -0.4699845 0.9556073
-0.27785969 -0.2996051 0.99577969
-0.28448671 -0.31699789 0.96080291
-0.1816318 -0.1471788 0.87511259
-0.2495942 -0.155375 0.95904022
-0.2008795 -0.30282319 0.85776818
-0.30308291 -0.4244594 0.95926058
-0.3154144 -0.43334591 0.97558391
-0.1868763 -0.2351903 0.99500519
-0.25306499 -0.3327212 0.91964018
-0.1568435 -0.43441421 0.76692021
-0.1744478 -0.25503051 0.98765951
-0.28392729 -0.1698156 0.99689567
-0.23142029 -0.41512191 0.88130689
-0.1747347 -0.41822419 0.80819392
-0.30989999 -0.2031493 1.042395
-0.3171899 -0.23761579 1.0432349
-0.34025279 -0.34556541 1.039728
-0.080066077 -0.30799869 0.72271001
-0.33753029 -0.35222831 1.0588419
-0.2588737 -0.1431614 1.086036
-0.037755068 -0.2706334 1.229093
-0.049674351 -0.26524279 1.2257529
-0.1707062 -0.3033022 1.161589
-0.26555279 -0.15686791 1.078359
-0.240623 -0.45390019 1.160663
-0.20419531 -0.37920219 1.1796401
-0.32058781 -0.36573389 1.0803289
-0.1971018 -0.4464733 1.191061
-0.25529149 -0.32718849 1.136297
-0.2193394 -0.3033525 1.102744
-0.1599637 -0.42701089 1.225443
-0.13049041 -0.41732469 1.239904
-0.19195861 -0.32683939 1.178183
-0.211163 -0.42452529 1.171106
-0.33388761 -0.4204011 1.082359
-0.2209816 -0.45493531 1.180308
-0.29954791 -0.410956 1.113094
-0.1801749 -0.4097324 1.205532
-0.1489251 -0.4005881 1.220516
-0.2415114 -0.4367058 1.162153
-0.26849371 -0.33606949 1.124128
-0.23033559 -0.15477429 1.1144871
-0.054685771 -0.21655869 1.201503
-0.053890921 -0.21609829 1.207307
-0.1400639 -0.3428089 1.227343
-0.098113783 -0.39829311 1.255502
-0.046844009 -0.40522429 1.309545
-0.203096 -0.37667131 1.185621
-0.170193 -0.3517628 1.203464
-0.1629702 -0.43183449 1.22585
-0.074118108 -0.28660911 1.0833499
-0.224611 -0.44262749 1.171888
-0.055249572 -0.22196759 1.11111
-0.3625834 -0.45677319 1.049825
-0.2759518 -0.33665121 1.11791
-0.05681831 -0.24432521 1.115263
-0.29689479 -0.3940942 1.107174
-0.27950349 -0.38368961 1.12159
-0.1243851 -0.34865811 1.226233
-0.34099501 -0.3698965 1.035751
-0.31819531 -0.40844861 1.0890059
-0.1420427 -0.41675919 1.228233
-0.04927453 -0.2361902 1.178071
-0.29162791 -0.2196133 1.072317
-0.31094569 -0.2846489 1.020758
-0.15997361 -0.29781401 1.104279
-0.14939681 -0.39566401 1.217576
-0.3088741 -0.42622381 1.10762
-0.3013837 -0.17436589 1.051284
-0.1105496 -0.14205571 1.213359
-0.051316381 -0.23196331 1.132071
-0.26826251 -0.44648221 1.1355799
-0.05983999 -0.232371 1.1197
-0.05622828 -0.2469182 1.148981
-0.22323 -0.45839089 1.182175
-0.1837254 -0.37943569 1.193584
-0.054013278 -0.23336519 1.1620899
-0.1439759 -0.30196559 1.168736
-0.30491331 -0.43895569 1.109344
-0.04520243 -0.16712239 1.244187
-0.1772923 -0.1455961 1.154402
-0.2282277 -0.2988095 1.083735
-0.1807579 -0.45316601 1.193571
-0.1828545 -0.40946609 1.200706
-0.30972019 -0.3952142 1.095696
-0.310635 -0.24822851 1.057935
-0.057443708 -0.25143749 1.1507
-0.073088929 -0.27828029 1.088818
-0.1282264 -0.15546981 1.191993
-0.1252656 -0.4183526 1.24561
-0.2319809 -0.30204341 1.096936
-0.1891555 -0.2135466 1.078081
-0.1513067 -0.30283439 1.164782
-0.29800859 -0.2148986 1.068086
-0.061776008 -0.32091841 1.2881989
-0.168075 -0.1570427 1.162557
-0.2153738 -0.1617478 1.124895
-0.31129909 -0.2111536 1.0526429
-0.19711231 -0.1739742 1.1396509
-0.1213983 -0.30114099 0.7948063
-0.080073357 -0.33246499 1.257651
-0.1051202 -0.3393397 1.248654
-0.32095939 -0.25284731 1.0461611
-0.29752919 -0.2452504 1.0710911
-0.1148188 -0.39304969 1.257439
-0.3543143 -0.40878919 1.048319
-0.2881926 -0.36849871 1.117201
-0.34174049 -0.42616731 1.077948
-0.31237549 -0.36831379 1.093891
-0.054046661 -0.30317941 1.250295
-0.077987999 -0.30078059 1.225356
-0.050383091 -0.1450711 1.251444
-0.039197091 -0.15559641 1.262765
-0.2255531 -0.21804839 1.071339
-0.023518261 -0.2305057 1.164112
-0.049856931 -0.2164482 1.149431
-0.051828951 -0.2209959 1.150388
-0.088345438 -0.2963981 1.163606
-0.18804771 -0.16576239 1.14702
-0.29323331 -0.157443 1.063026
-0.30528429 -0.23562001 1.062242
-0.28071651 -0.1575546 1.0685199
-0.31319809 -0.2270598 1.051722
-0.31003469 -0.2427129 1.053492
-0.28331569 -0.2163112 1.077799
-0.099577218 -0.28382799 1.071283
-0.1671367 -0.2980307 1.116205
-0.2002461 -0.16520409 1.13719
-0.078800857 -0.2323305 1.075335
-0.088250943 -0.29233581 1.084725
-0.3231039 -0.356251 1.080448
-0.32255819 -0.3489843 1.080011
-0.1120207 -0.2982721 1.116448
-0.28274721 -0.2400794 1.077933
-0.097063899 -0.24457 1.0681159
-0.04531258 -0.21088611 1.21534
-0.2276105 -0.29263929 1.075184
-0.32671851 -0.33444461 1.0748301
-0.1117092 -0.1435696 1.211406
-0.2401392 -0.45209181 1.1631
-0.2214167 -0.4414551 1.1742049
-0.23357271 -0.44260481 1.15311
-0.26881361 -0.3503828 1.1245019
-0.2680819 -0.16181511 1.063319
-0.1155949 -0.1612832 1.209167
-0.2495926 -0.31695369 1.137539
-0.048407018 -0.25551859 1.170454
-0.1869936 -0.2324035 1.071098
-0.16658799 -0.2122103 1.067535
-0.057023961 -0.1539102 1.256359
-0.1649304 -0.29800931 1.148693
-0.2938042 -0.2299459 1.073809
-0.054487761 -0.37416121 1.289214
-0.224911 -0.1562029 1.108133
-0.077347457 -0.28020319 1.0758671
-0.2419031 -0.29899019 1.082588
-0.05958423 -0.30040511 1.273478
-0.1126328 -0.2284787 1.064672
-0.3224456 -0.41006541 1.088178
-0.28393999 -0.3783198 1.119758
-0.28888851 -0.33500579 1.104696
-0.2054656 -0.2226146 1.068351
-0.1402822 -0.1608846 1.190165
-0.20090529 -0.2972509 1.0925241
-0.22064009 -0.28198919 1.0723979
-0.040444609 -0.2077446 1.215328
-0.07428813 -0.29638919 1.120344
-0.26494819 -0.18379781 1.075413
-0.28427851 -0.3203772 1.107337
-0.063921779 -0.2159944 1.108632
-0.0419783 -0.2610032 1.259992
-0.1654928 -0.1365023 1.163741
-0.30451319 -0.1659926 1.045206
-0.3637403 -0.47322541 1.047356
-0.27360931 -0.1934513 1.079802
-0.304876 -0.38244209 1.097026
-0.1125509 -0.2296606 1.060222
-0.1608199 -0.40353581 0.79641789
-0.05428597 -0.22174411 1.116253
-0.2380852 -0.2024136 1.075819
-0.23218849 -0.13402811 1.087629
-0.1389993 -0.36626789 0.77362418
-0.3294301 -0.31981799 1.032275
-0.36047879 -0.43894029 1.04993
-0.064612329 -0.1473203 1.2447881
-0.21036939 -0.29913011 1.07857
-0.045802619 -0.2365288 1.19011
-0.1547887 -0.41619501 1.216354
-0.1772168 -0.2028174 1.066444
-0.1841895 -0.2405581 1.072468
-0.067046277 -0.3584443 1.2880501
-0.30208001 -0.32169989 0.98594493
-0.1722158 -0.30040759 1.102127
-0.2547434 -0.1321163 1.0905451
-0.071483247 -0.37601069 1.286729
-0.16219001 -0.198524 1.05627
-0.1069078 -0.3452163 1.240442
-0.1550744 -0.1338634 1.168849
-0.3065699 -0.2097832 1.062802
-0.090554766 -0.29387581 0.754439
-0.31261769 -0.21685091 1.0472749
-0.14431959 -0.1291244 1.03012
-0.255169 -0.31260759 0.92525119
-0.35375291 -0.47146729 1.026423
-0.28450909 -0.22770999 1.0767111
-0.2987912 -0.45953569 1.1433491
-0.1479746 -0.1347844 1.051625
-0.25790811 -0.2269095 1.0769579
-0.29739529 -0.46137261 1.110643
-0.3417967 -0.3464343 1.042671
-0.30208409 -0.2253423 1.06154
-0.076838426 -0.1311674 1.029817
-0.1980246 -0.2089337 1.065793
-0.1791137 -0.1364294 0.93891412
-0.15079591 -0.128371 0.8951261
-0.27693859 -0.1448953 1.0645519
-0.28717461 -0.15065131 1.066341
0.20937631 -0.34122151 1.073702
-0.01198602 -0.26375219 1.3039711
0.21104731 -0.41922039 1.092145
-0.17859919 -0.1447788 1.155934
-0.0022919029 -0.3551921 1.326055
-0.23283461 -0.1541585 1.109323
-0.2014852 -0.4159503 1.1849149
-0.1790773 -0.44706029 1.200506
-0.31021991 -0.39813 1.092712
-0.058564991 -0.302241 1.262499
0.1818599 -0.35797229 1.115572
0.1855381 -0.36816981 1.116152
0.15344471 -0.32696041 1.139732
0.092015132 -0.41305441 1.246825
0.069660127 -0.42482769 1.275278
0.042359591 -0.37571141 1.289193
-0.1055336 -0.39127821 1.256459
0.070326507 -0.28388801 1.047667
0.1172977 -0.2924538 1.032815
0.148157 -0.35211471 1.155997
0.14846779 -0.1311302 0.9965986
-0.088791221 -0.37852699 1.273447
0.02606618 -0.1902954 1.212057
-0.3255704 -0.40926501 1.090872
-0.23641001 -0.4544276 1.151566
-0.2438675 -0.45613429 1.153493
-0.2230982 -0.45337081 1.182776
0.17242859 -0.2381039 1.0257241
0.19351681 -0.2093202 1.019194
0.1171717 -0.27375841 1.029219
0.15752611 -0.1532162 1.082515
0.1339706 -0.1340539 0.98055118
0.1791005 -0.205713 1.019361
0.1436307 -0.33841231 1.160364
0.15588041 -0.4708674 1.168615
0.14643531 -0.33437741 1.156641
0.06542182 -0.45502281 1.2912
0.117348 -0.3717443 1.209602
0.1233094 -0.36926571 1.213109
0.06929642 -0.457358 1.285861
0.1083796 -0.34680319 1.193378
0.13564511 -0.38922209 1.168766
0.1114083 -0.4017064 1.2147321
0.1101996 -0.40744171 1.2081929
0.1387278 -0.46111891 1.181595
0.1789365 -0.30314499 1.05846
0.1272521 -0.3403613 1.173993
0.1572286 -0.45460981 1.170154
0.1560736 -0.35232159 1.163386
0.0001169592 -0.44619831 1.338495
0.12740991 -0.4023971 1.1900491
0.101264 -0.43195269 1.235417
0.19178741 -0.36035669 1.11138
0.123106 -0.41755229 1.1956249
0.17535651 -0.36573419 1.119805
0.1338492 -0.3465437 1.1627851
0.1456517 -0.38787481 1.1756279
-0.2346622 -0.47335681 1.185611
0.1279076 -0.22281919 1.037726
-0.37106669 -0.46493271 1.057389
0.1684846 -0.1515484 1.087392
0.172162 -0.40074119 1.137364
-0.3807326 -0.46637121 1.05335
0.14038581 -0.44248411 1.167608
0.1328304 -0.41767961 1.191334
0.1152424 -0.43165311 1.21965
0.1831222 -0.2436737 1.026134
0.1187757 -0.22421961 1.033355
0.0056752558 -0.46734181 1.344761
-0.29907629 -0.2319968 1.065462
-0.29579279 -0.20740341 1.064647
-0.236515 -0.2692211 1.078287
-0.11372 -0.1443582 1.208185
-0.27597171 -0.198966 1.050131
-0.174108 -0.2112349 1.08479
-0.25644311 -0.19387791 1.075873
-0.1685176 -0.2034348 1.0915231
-0.22591411 -0.2178722 1.067858
-0.31119889 -0.26672149 1.053041
-0.2167519 -0.2296018 1.07507
0.1031811 -0.1591652 1.165221
0.2275663 -0.1812069 1.021143
0.1417937 -0.4552376 1.1912349
0.028084669 -0.4189305 1.320488
-0.0016938749 -0.35534999 1.325826
-0.00777775 -0.1973038 1.288895
-0.2491965 -0.188732 1.0970041
0.00095623732 -0.1998411 1.295164
0.01325142 -0.14629351 1.25796
-0.0096074343 -0.14457279 1.28239
-0.0126521 -0.1487388 1.277553
0.02881771 -0.1433644 1.260381
-0.2835561 -0.22893681 1.082914
0.018983839 -0.28609729 1.280007
0.029740389 -0.43261471 1.314358
-0.0083171129 -0.36816749 1.325075
0.01907998 -0.23306461 1.263986
0.01929092 -0.26294661 1.252018
-0.34651431 -0.31618261 1.045763
0.03804386 -0.36180171 1.292076
0.04031885 -0.37334189 1.293591
0.01374686 -0.2338396 1.27938
0.2160849 -0.14855631 1.024166
0.083120942 -0.14551631 1.1803
0.16886529 -0.2387725 1.031489
0.1707603 -0.2360936 1.0288939
0.1650954 -0.1455292 1.083865
0.038105369 -0.1528499 1.241562
0.01420945 -0.27710891 1.0969599
0.24451239 -0.39295939 1.0448951
0.2745021 -0.41862401 1.018375
0.23656391 -0.2193062 1.011207
0.27187961 -0.33670771 1.0050679
0.25144199 -0.2576192 0.99418032
0.27538899 -0.36745051 0.99023628
0.29790631 -0.4512246 0.98010308
0.26676899 -0.30606309 0.97893709
0.016011 -0.2229095 1.140412
0.27822739 -0.35755211 0.98199362
-0.022689041 -0.2426056 0.80970341
-0.01543975 -0.2210485 0.82140911
0.2544626 -0.3438969 1.028895
-0.01701659 -0.2122335 0.86715728
0.30031851 -0.46762031 0.98011738
0.083889186 -0.165398 0.86423129
0.1069788 -0.1659779 0.887088
0.1024435 -0.1538185 0.86450672
-0.01868975 -0.21111859 0.82728642
0.25387439 -0.25411639 0.98894292
0.2073736 -0.30264071 1.044801
0.28233129 -0.40542081 0.99201512
0.03843433 -0.36095551 0.77320248
-0.026747519 -0.2448587 0.80045682
0.2059868 -0.46568349 0.89640439
0.27069011 -0.33084011 1.001514
0.29184431 -0.4691214 0.98241729
0.1932022 -0.40542069 0.89891559
0.070645273 -0.44163641 0.78353918
0.23295841 -0.1675446 0.98952448
0.1000633 -0.1454542 0.87235898
0.2785778 -0.36173421 0.99309021
0.248476 -0.32991889 0.94912207
0.2352699 -0.34507239 0.94597203
0.2456097 -0.43243909 0.93711132
0.16001689 -0.1622031 0.92305511
0.2700409 -0.32868329 0.98396969
0.26906371 -0.31705669 0.99584198
0.2737841 -0.3646172 0.98595399
0.2226454 -0.35391289 0.92965108
0.02345556 -0.1596628 0.80824649
0.2286734 -0.1472443 0.99116421
0.1858045 -0.31515121 0.90268707
0.1662066 -0.3432335 0.89344323
0.12598699 -0.46006361 0.83524108
0.19764601 -0.38289869 0.90022671
0.1623408 -0.33605161 0.88150311
0.2307332 -0.44274479 0.9174819
0.26028299 -0.37136671 1.0232511
0.1934339 -0.3027108 1.057667
0.0104143 -0.20438109 1.17029
0.095380537 -0.29696631 0.91369492
0.24304231 -0.2279098 0.97969443
0.2490532 -0.32996449 0.94296861
0.033873498 -0.382267 0.77232438
0.017238971 -0.42186469 0.74919069
0.1956785 -0.38845599 0.89823568
0.19906341 -0.3520208 0.91706723
0.2257923 -0.35562271 0.92752099
0.2352096 -0.34802821 0.94966048
0.1366507 -0.34267199 0.86685163
0.069460452 -0.44150481 0.77890557
0.01624978 -0.40029031 0.74986649
0.2220647 -0.1830952 1.019345
0.2194988 -0.1452229 1.01884
0.2505936 -0.38444439 1.038914
0.2355444 -0.1935712 0.98419368
0.1911747 -0.1456259 0.94592851
0.1254033 -0.1517373 0.88289529
-0.0154801 -0.29772991 0.89557868
0.17300279 -0.43354541 0.8795988
0.1608225 -0.33497071 0.88947201
0.1904954 -0.3218655 0.90682578
0.1995672 -0.41290081 0.89926642
0.15612601 -0.40314189 0.86954129
0.1078974 -0.1457765 0.88241589
0.045255061 -0.32706019 0.78993481
0.041634079 -0.1625085 0.8230449
0.208152 -0.1760239 1.030961
-0.036125962 -0.45128819 0.70588839
0.1062443 -0.30315229 0.94119698
0.05274808 -0.34422159 0.78864908
0.23199899 -0.28541031 1.023953
0.20928501 -0.1786283 1.024219
-0.0018746851 -0.15468059 0.78529829
-0.019959209 -0.1509629 0.77852082
0.044291262 -0.1515936 0.83293867
-0.02453506 -0.2462613 0.77060407
0.1312388 -0.30350149 0.91931093
0.0176025 -0.4244737 0.75276649
0.1280532 -0.38885149 0.8507272
0.01411039 -0.45895749 0.73575681
0.02689427 -0.4626554 0.7470063
0.247898 -0.32357791 0.94723582
0.2230358 -0.36720651 0.92181629
0.01208407 -0.4292762 0.73664868
0.15024079 -0.1596248 0.92812371
0.0090201497 -0.4087238 0.74574959
0.23309021 -0.1651911 0.99991798
0.234926 -0.17467371 0.99890769
0.27288979 -0.3960782 1.0158449
0.03041303 -0.1502737 0.81718361
0.23358171 -0.17259391 0.98648387
0.0087249884 -0.2251256 0.95903701
0.01179945 -0.4180564 0.74174511
0.03419435 -0.40891951 0.77025491
0.2288374 -0.1656269 0.98243552
0.2321218 -0.1756378 0.98031121
0.248595 -0.26870781 0.98181158
0.25568289 -0.271009 0.97527248
0.013394 -0.29504281 1.1802191
0.0126487 -0.2298048 0.95826018
-0.066616237 -0.31406611 0.72260761
0.02392727 -0.30605361 0.80410898
0.28567809 -0.41249669 0.99684173
0.22639111 -0.17085931 0.97821862
0.2287419 -0.23704191 0.96918827
0.025397239 -0.29690239 1.163864
0.20977379 -0.1390924 0.97452158
0.01837128 -0.2415089 0.97124612
0.02026695 -0.46040919 0.74165148
0.1630363 -0.33429971 0.87605911
0.04968828 -0.3441869 0.78269309
0.02103484 -0.28991681 0.96683681
0.023628591 -0.2570008 0.96581489
0.07226181 -0.16228101 0.85402918
0.18948039 -0.1477983 0.95400411
0.01392031 -0.29226029 0.95679641
0.1918069 -0.1517453 0.94797927
0.1575484 -0.1627937 0.91139787
0.1559922 -0.1657258 0.91657507
0.01088685 -0.287606 0.94801128
0.1095457 -0.2930719 0.93110281
-0.02065051 -0.2444658 0.75787979
0.1282656 -0.34363329 0.87203592
-0.02607787 -0.2251727 0.78774631
0.0068637729 -0.2387588 0.94763899
0.01147741 -0.28358769 0.94307208
0.2609894 -0.40986809 1.031325
0.0056573749 -0.24001931 0.9505856
0.2371009 -0.32809979 1.044378
0.2659165 -0.3106308 0.98918539
0.2338818 -0.2524133 0.96950799
0.18936101 -0.1491452 0.9443931
-0.06206286 -0.30990389 0.71988052
0.1890476 -0.46508929 0.88845181
0.2241926 -0.2281016 1.0213619
0.02701485 -0.3942661 0.76212472
-0.038212001 -0.2351834 0.74290651
0.22336841 -0.34332731 0.93778241
0.2007719 -0.1745138 0.95858997
-0.049122751 -0.38250169 0.70537019
0.0054461961 -0.4394511 0.73220861
-0.03038675 -0.3706359 0.72162271
-0.0092394352 -0.36114711 0.73807508
0.21760491 -0.1593889 1.024491
0.23096889 -0.1437352 0.99369138
0.28091511 -0.40874511 0.99658042
-0.01697254 -0.3540948 0.74084067
0.015799459 -0.3679755 0.76630908
0.2784799 -0.3676565 1.002104
0.0024799111 -0.4508504 0.72647548
0.005120337 -0.33525431 0.75272608
-0.064612389 -0.31884861 0.73291892
0.26079229 -0.34418359 1.020293
0.2211322 -0.1447926 0.97848189
0.2108957 -0.143847 0.96313828
-0.046825171 -0.3927474 0.70877469
0.1841947 -0.30752411 1.029616
0.2053699 -0.1576018 1.036695
0.08297798 -0.29843429 1.105907
0.1654584 -0.1536029 1.078776
0.023498209 -0.20600431 1.129032
0.2269827 -0.32628861 1.059906
0.2324153 -0.2230404 1.014881
0.21177161 -0.3010737 1.033596
0.2137748 -0.3289434 1.062706
0.026338341 -0.28785011 1.09554
0.1749011 -0.144458 1.073283
0.16418859 -0.1543075 1.08788
0.162809 -0.1566461 1.09408
0.026122021 -0.27279559 1.092862
0.21482749 -0.34934321 1.077153
0.032741219 -0.2840372 1.076072
0.02809885 -0.27822229 1.080929
0.02647287 -0.21063191 1.193156
0.23601741 -0.4373768 1.07432
0.2092775 -0.34318289 1.0803649
0.2330979 -0.4544909 1.083185
0.2277226 -0.1453052 1.008239
0.087179959 -0.1600692 1.190889
0.2449182 -0.2181268 1.003247
0.2492888 -0.4553225 1.06354
0.1835552 -0.30026251 1.059077
0.2027096 -0.41794419 1.108474
0.1279991 -0.20109589 1.0259759
0.2039693 -0.4301863 1.108973
0.12854449 -0.1992455 1.01389
0.2387578 -0.27287471 1.015765
0.1117636 -0.1596774 1.1572109
0.2335012 -0.183981 1.011031
0.0191142 -0.20309681 1.203612
0.1910041 -0.3546223 1.111376
0.073033839 -0.2704646 1.041674
0.19888879 -0.20723321 1.022233
0.1502993 -0.45320851 1.180244
0.1977659 -0.36220929 1.103741
0.096883707 -0.33342439 1.220904
0.2375111 -0.2159619 1.011656
0.1633317 -0.4243874 1.154687
0.1348327 -0.43131399 1.194526
0.096808814 -0.2802147 1.041283
0.096963577 -0.1468479 1.1715029
0.04828921 -0.1556358 1.230562
0.032981601 -0.18728571 1.204669
0.1573835 -0.1360168 1.088751
0.084632717 -0.1642292 1.185253
0.1519905 -0.33735651 1.151464
0.1685421 -0.46931589 1.161564
0.084044188 -0.31805849 1.236447
0.095087737 -0.3811309 1.238791
0.1188034 -0.34154561 1.197136
0.1207189 -0.34153131 1.193422
0.032464001 -0.2237168 1.201932
0.084689677 -0.32071659 1.234558
0.069526233 -0.28248331 1.040193
0.1469219 -0.3378396 1.157259
0.1005145 -0.4244028 1.239068
0.02975571 -0.28648189 1.178913
0.094389893 -0.2649866 1.034351
0.18198539 -0.3994064 1.130589
0.1525512 -0.4621819 1.177623
0.2455166 -0.2816568 1.013706
0.1405696 -0.2336742 1.0242749
0.1849197 -0.3618874 1.11992
0.2544156 -0.39025161 1.037927
0.1867497 -0.2070649 1.023654
0.26198739 -0.3366366 1.019374
0.17211489 -0.2327264 1.027509
0.1115557 -0.43124041 1.2263269
0.15157031 -0.39135709 1.165419
0.090307526 -0.2282051 1.033693
0.110999 -0.41253531 1.221684
0.15058389 -0.34441629 1.158887
0.1524232 -0.4308475 1.173038
0.1094026 -0.2455056 1.0306031
0.1269677 -0.37327659 1.196489
0.1718543 -0.41759649 1.144917
0.035123911 -0.2848976 1.27065
0.034922421 -0.25712249 1.241403
0.078914434 -0.4238331 1.2684309
0.075441271 -0.45560941 1.278087
0.019018169 -0.28014451 1.292588
0.036826041 -0.2303624 1.262346
0.1295484 -0.27395561 1.03347
0.174716 -0.43022701 1.144963
0.053293262 -0.28441149 1.050088
0.181575 -0.23644949 1.02354
0.1007975 -0.4082382 1.237736
0.20715161 -0.4110359 1.1042531
0.056958441 -0.3492626 1.2761821
0.14154109 -0.34043711 1.168533
0.2354164 -0.2890709 1.02213
0.1486005 -0.41377449 1.172225
0.056590829 -0.32510871 1.271383
0.031884819 -0.40148959 1.31362
0.063358217 -0.40036929 1.2789969
0.02984363 -0.28316069 1.281341
0.1449748 -0.4320851 1.183105
0.054821368 -0.37362021 1.283203
0.037886951 -0.23105121 1.2564369
0.034048501 -0.1465597 1.251279
0.1029519 -0.40211749 1.229568
0.052843209 -0.35775059 1.281436
0.053458381 -0.27905309 1.061455
0.16080581 -0.41208071 1.156706
0.03026258 -0.34788331 1.31121
0.03406525 -0.39758521 1.312565
0.0078918487 -0.36474761 1.322709
0.032613929 -0.2335458 1.275066
0.071650118 -0.2283617 1.037827
0.026138309 -0.3256357 1.3059191
0.051025659 -0.35081789 1.281091
0.04062942 -0.28490469 1.260465
0.034239318 -0.29034749 1.171598
0.045446809 -0.43852621 1.309787
0.022773501 -0.46646261 1.334265
0.039769951 -0.41744411 1.309134
0.1639934 -0.3209067 1.142356
0.037158791 -0.26260549 1.243937
0.16947789 -0.43088731 1.151544
0.1573025 -0.41352791 1.162515
0.1153071 -0.42108601 1.217932
0.1254876 -0.36297411 1.195179
0.25881481 -0.25584629 0.99011528
0.13398901 -0.2965278 1.052873
0.2090006 -0.42814481 1.103657
0.03628147 -0.23830611 1.251855
0.1365934 -0.43087661 1.193025
0.036871191 -0.2258568 1.252887
0.1496727 -0.43268391 1.1750081
0.2198557 -0.38223869 1.0883
0.123163 -0.43225041 1.208887
0.056085169 -0.29697901 1.096891
0.098504163 -0.33000481 1.217639
0.066699617 -0.28654429 1.048739
0.1182196 -0.41682661 1.21401
0.13081481 -0.22582179 1.024835
0.12562171 -0.43067849 1.210264
0.1652272 -0.3363232 1.136883
0.053682029 -0.3065241 1.237103
0.033373799 -0.29543641 1.215719
0.026953639 -0.22166599 1.140018
0.03594375 -0.1472667 1.248956
0.046107352 -0.1545561 1.232461
0.04469258 -0.30057099 1.234601
0.1228605 -0.47196621 1.225026
0.039329499 -0.4254925 1.309966
0.045872211 -0.29225671 1.068005
0.17587949 -0.41390431 1.1386991
0.091278881 -0.23054069 1.037616
0.02794734 -0.2683709 1.07174
0.1780002 -0.24522039 1.031899
0.18861809 -0.2440331 1.02344
0.2329206 -0.20958319 1.015113
0.04015461 -0.29724661 1.196363
0.062627293 -0.3972975 1.2803791
0.072456449 -0.2972334 1.171984
0.1668838 -0.23480441 1.031649
0.089966893 -0.22198629 1.03327
0.071340866 -0.24641331 1.037473
0.1111608 -0.1552451 1.1573631
0.027239921 -0.23097409 1.1692621
0.053814199 -0.4436065 1.298002
0.1251945 -0.2261401 1.028736
0.1134245 -0.24575029 1.027675
0.02920508 -0.2344318 1.17187
0.05789819 -0.2490133 1.038424
0.1306635 -0.43358469 1.229013
0.1029381 -0.43729049 1.2392631
0.13280199 -0.41367191 1.192876
0.094381511 -0.38318521 1.239477
0.079942018 -0.42124689 1.266763
0.092053652 -0.39083621 1.24643
0.1720257 -0.46737871 1.157413
0.04582322 -0.42065689 1.303812
0.04796353 -0.44146839 1.3019921
0.1538645 -0.34148389 1.1517
0.1213644 -0.40309781 1.205021
0.087103643 -0.29649359 1.108382
0.02655679 -0.28392011 1.084741
0.1615148 -0.4000439 1.153278
0.036244869 -0.29342479 1.2035249
0.1607817 -0.4309333 1.161976
0.24226931 -0.4402675 1.072039
0.25327331 -0.45952019 1.05805
0.25037691 -0.46429601 1.0621769
0.1969627 -0.40030381 1.112059
0.16655201 -0.41493329 1.152367
0.1798594 -0.4306362 1.138891
0.21784469 -0.41305959 1.096032
0.1913911 -0.2508021 1.0273581
0.088506699 -0.1622382 1.180439
0.0335561 -0.28952241 1.193002
0.092364788 -0.30897549 1.113537
0.1175551 -0.28790799 1.036899
0.1112556 -0.4288072 1.227011
0.1113992 -0.4150843 1.223778
0.109923 -0.1683885 1.159772
0.24336711 -0.19281401 1.003796
0.1138784 -0.1512582 1.157859
0.055465069 -0.32620579 1.271665
0.02461395 -0.2038449 1.160279
0.181036 -0.2203667 1.02635
0.0402711 -0.26682901 1.237329
0.034185261 -0.2213103 1.260136
0.27350631 -0.3269085 0.9988457
0.003908522 -0.1423168 1.27844
0.0033328829 -0.2731958 1.292797
0.032537699 -0.32989979 1.303073
0.053249959 -0.4357717 1.297554
0.068728298 -0.29516959 1.090652
0.080535829 -0.30464491 1.1635441
0.1984985 -0.21224891 1.021997
0.22227199 -0.2351705 1.0228209
0.041014221 -0.27059099 1.0608031
0.20640039 -0.208985 1.026598
0.1874965 -0.20424999 1.026566
0.16150521 -0.3249647 1.14182
0.2183737 -0.2988537 1.040725
0.1701269 -0.4471975 1.176311
0.088901967 -0.29681769 1.10633
0.1969938 -0.40004441 1.112362
0.2154787 -0.3418183 1.073342
0.1534427 -0.422916 1.170783
0.1568709 -0.3317785 1.148108
0.035115872 -0.2420916 1.261863
0.15214451 -0.39048111 1.1625021
0.034191132 -0.27444839 1.270344
0.04480562 -0.37449059 1.294171
0.278054 -0.3874447 1.008835
0.043737318 -0.3572762 1.292794
0.051662121 -0.33224899 1.275685
0.1418941 -0.4178074 1.182736
0.25893831 -0.26687089 0.97673208
0.1256979 -0.2148641 1.032733
0.031219419 -0.3253386 1.2978441
0.05868781 -0.30093631 1.154013
0.038124051 -0.44186169 1.309937
0.24016669 -0.1828212 1.007998
0.044544131 -0.35356 1.288077
0.05924568 -0.40044281 1.2844959
0.039586071 -0.30038401 1.2432719
0.2266738 -0.2194885 1.0213391
0.1533878 -0.16485441 1.106572
0.066256173 -0.30058119 1.1976269
0.2269285 -0.13881519 0.96690297
0.1441123 -0.1359909 1.09086
0.2096366 -0.29884201 1.0412149
0.196945 -0.33006981 1.100268
0.1065104 -0.29645091 1.075556
0.1913182 -0.38841751 1.11208
0.042947769 -0.33160809 1.286051
0.2161043 -0.42631751 1.1017179
0.21060289 -0.2254684 1.024485
0.02027661 -0.24800719 1.1416219
0.02360603 -0.26969901 1.118523
0.23396149 -0.16397931 1.026967
0.25476739 -0.33173531 1.0348051
0.1680956 -0.1324649 1.081846
0.15797891 -0.34813511 1.154442
0.1976703 -0.2330405 1.029218
0.042831872 -0.33916941 1.275355
0.018658459 -0.46327549 1.3369271
0.2298886 -0.17544851 1.01273
0.225563 -0.34202319 1.07759
0.01288432 -0.1655165 1.2727979
0.02552798 -0.33375669 1.306511
0.0248954 -0.4690268 1.333956
0.18339349 -0.1551147 1.076285
0.222454 -0.2312361 1.024961
-0.28414479 -0.22563919 1.068346
-0.2106709 -0.21488491 1.074993
-0.195669 -0.40912941 1.181185
-0.21475071 -0.44217291 1.165814
-0.288196 -0.20291591 1.0595959
-0.3204295 -0.41120109 1.079748
0.01323007 -0.46852979 1.332952
-0.098315552 -0.32166189 1.240581
0.01405056 -0.4681161 1.332922
-0.098663554 -0.32259119 1.235979
0.2473025 -0.28404161 0.98249471
0.1899976 -0.2397512 0.98703378
0.16002209 -0.3420139 1.127377
0.13796639 -0.38418981 1.165704
0.13786221 -0.28190669 0.97967952
0.1173417 -0.3457877 1.184835
0.16898561 -0.1514034 1.067894
0.220654 -0.4012545 1.086208
0.26097581 -0.46652409 1.031534
-0.31180769 -0.22807731 1.022054
0.2033104 -0.20704439 1.008798
0.1345461 -0.1992825 0.99498957
0.13043331 -0.2756258 0.99422842
0.1660597 -0.33099931 1.119626
0.1400584 -0.38664359 1.163252
0.142078 -0.1977247 0.97567731
0.093928874 -0.1588746 1.157758
0.1921217 -0.20369031 0.99769533
0.091061041 -0.1619653 1.161847
0.1867732 -0.1524449 1.0458061
0.1347726 -0.39398539 1.176378
0.17169189 -0.46005401 1.149472
0.2050408 -0.40854731 1.084421
0.21612599 -0.3015357 1.01886
0.14070299 -0.34124529 1.157059
0.1216936 -0.2520431 0.97145498
0.1274685 -0.2490603 0.98606843
0.1977191 -0.2463354 0.99763149
0.1346101 -0.2274625 0.99177438
0.1141973 -0.14794239 1.133423
0.240154 -0.4626556 1.061859
0.17792469 -0.37259269 1.092203
0.2282712 -0.42705169 1.051672
0.2296818 -0.38790381 1.062959
0.1765805 -0.3434214 1.112934
0.004307508 -0.36595491 1.31828
0.16238341 -0.465992 1.1673191
0.085349247 -0.29682839 1.098068
-0.245395 -0.33177271 1.121673
-0.2336462 -0.2742672 1.060995
-0.23235559 -0.45285609 1.157174
-0.1640487 -0.4118337 1.197818
-0.087507486 -0.33504531 1.243228
-0.03430647 -0.40955469 1.306742
-0.01970589 -0.41588619 1.305343
-0.21345159 -0.45699009 1.175994
-0.1357002 -0.39746699 1.209115
-0.071046107 -0.43127409 1.280677
-0.03996313 -0.23698179 1.179569
-0.17472491 -0.47408101 1.2011271
-0.2352151 -0.297865 1.074883
-0.1980239 -0.38036081 1.176837
-0.1920228 -0.38325611 1.1792409
-0.27449259 -0.2409943 1.066643
-0.2252629 -0.4351474 1.153662
-0.1672744 -0.47750619 1.2070791
-0.065769911 -0.4317334 1.264939
-0.2192125 -0.2183073 1.062999
-0.21422011 -0.15821899 1.105159
-0.1686324 -0.2061718 1.051688
-0.044677138 -0.1426968 1.239748
-0.03171372 -0.15768801 1.2551529
-0.03949463 -0.23671021 1.121909
-0.1272728 -0.4181715 1.239435
-0.099098563 -0.1487911 1.200994
-0.083879232 -0.33042201 1.248297
-0.03792071 -0.21780249 1.196062
-0.26748589 -0.47598541 1.133707
-0.1898931 -0.44749081 1.193019
-0.1579961 -0.2104006 1.057831
-0.1598718 -0.35791239 1.194086
-0.14611199 -0.43105671 1.220445
-0.141225 -0.40001699 1.21206
-0.1172444 -0.1548413 1.184469
-0.119943 -0.35070819 1.217728
-0.099438667 -0.2311949 1.045846
-0.177754 -0.4492017 1.195931
-0.1016083 -0.39840439 1.249985
-0.1012928 -0.1608825 1.1965539
-0.056104179 -0.14801881 1.231982
-0.04191554 -0.2520085 1.140038
0.001682997 -0.47939581 1.3337539
-0.097522847 -0.33757049 1.239121
-0.027779579 -0.3540515 1.295029
-0.15178099 -0.43786249 1.220968
-0.03509802 -0.2691296 1.22167
-0.051644441 -0.32041281 1.279693
-0.040591002 -0.21965531 1.1372859
-0.1743577 -0.41377041 1.180831
-0.077012777 -0.29269651 1.068477
-0.07451582 -0.27762029 1.065385
-0.048218969 -0.24714141 1.112156
-0.1153041 -0.41859239 1.244458
-0.2236817 -0.3055937 1.081189
-0.072933443 -0.2343304 1.063338
-0.1249891 -0.28171739 1.048151
-0.20140541 -0.4222919 1.162403
-0.041232709 -0.21668421 1.188989
-0.046935558 -0.2205579 1.106702
-0.27663609 -0.47696519 1.1242369
-0.099476993 -0.4558132 1.271104
-0.25243229 -0.4771806 1.142433
-0.032697681 -0.41033539 1.303349
-0.29358631 -0.2445277 1.058172
-0.2122007 -0.44332939 1.174194
-0.2019992 -0.42488131 1.168685
-0.25701559 -0.18444701 1.0558079
-0.29248899 -0.2147536 1.053867
0.023267031 -0.33215979 1.300342
-0.2382693 -0.2034279 1.064384
-0.04901123 -0.25726721 1.141935
-0.25254959 -0.33682251 1.114372
-0.33384949 -0.3535139 1.0537781
-0.27673751 -0.38290539 1.122173
-0.32844409 -0.42145011 1.076201
-0.2810652 -0.37623709 1.112704
-0.03636897 -0.2661556 1.213954
-0.26602969 -0.33868259 1.10987
-0.33477649 -0.34523219 1.0360121
-0.043601509 -0.2136649 1.137715
-0.31288061 -0.33530429 1.070151
-0.31807789 -0.3638247 1.074749
-0.03881276 -0.2063501 1.212007
-0.30002341 -0.1752611 1.045719
-0.3225877 -0.41243619 1.077018
-0.24781039 -0.3298364 1.1267509
-0.31943509 -0.40827551 1.083515
-0.2761609 -0.1929957 1.068387
-0.24733309 -0.33025309 1.126241
-0.2222006 -0.44048509 1.1644469
-0.04941893 -0.2331176 1.151347
-0.095778704 -0.2815325 1.056326
-0.07346952 -0.2854118 1.078204
-0.3568497 -0.45419291 1.0469871
-0.038169861 -0.2600919 1.249768
-0.31764221 -0.3580308 1.071864
-0.16649251 -0.30101931 1.150969
-0.079953611 -0.29830849 1.156918
-0.28425381 -0.3700439 1.103325
-0.31477579 -0.25555789 1.039409
-0.34959209 -0.40699551 1.041135
0.0046890969 -0.1343468 1.259968
-0.049511671 -0.164361 1.234053
-0.18497869 -0.23366509 1.0605299
-0.1646857 -0.1558481 1.153587
-0.05823851 -0.2311704 1.106873
-0.236562 -0.2016038 1.06555
-0.2621679 -0.16526631 1.071135
-0.1207134 -0.33958969 1.2305551
-0.30141431 -0.22454581 1.050095
0.01326323 -0.33186939 1.291851
-0.19533581 -0.17333309 1.1294791
-0.30758241 -0.2019511 1.036436
-0.30422831 -0.23602501 1.0539171
-0.3058998 -0.4259454 1.09639
-0.060251001 -0.36828491 1.2814341
-0.1406222 -0.4166891 1.217536
-0.320499 -0.35086089 1.069308
-0.1364167 -0.29947779 1.1361769
-0.1251695 -0.1641603 1.175478
-0.30395961 -0.2479721 1.051421
0.01537085 -0.30952141 1.2986161
-0.3520267 -0.4366512 1.042673
-0.30949879 -0.3704454 1.083375
-0.22443689 -0.36569911 1.144931
-0.1097016 -0.39558581 1.242756
-0.14966349 -0.30668491 1.137032
-0.005748034 -0.15789311 1.269706
-0.31616211 -0.2467903 1.036625
-0.2924566 -0.4104853 1.110972
-0.2496234 -0.36133859 1.127028
-0.1053629 -0.45183951 1.2627079
-0.1391349 -0.3003056 1.161907
-0.1686125 -0.2968173 1.093909
-0.063961148 -0.23388819 1.086866
-0.036446329 -0.230878 1.2504081
-0.30058691 -0.17477959 1.0362411
-0.181284 -0.3262057 1.177588
-0.34183291 -0.3671861 1.030171
-0.3486813 -0.4145382 1.042731
-0.34157529 -0.34721369 1.032804
-0.31756511 -0.46531501 1.098806
-0.045612451 -0.23383 1.178936
-0.1457404 -0.2995165 1.156275
-0.1244062 -0.1587308 1.198542
-0.18483061 -0.37606481 1.186316
-0.039298888 -0.4214063 1.303648
-0.041019559 -0.2285452 1.120239
-0.3081902 -0.25061741 1.047724
-0.1607855 -0.29287091 1.097465
-0.28359231 -0.1563478 1.0611711
-0.1971723 -0.1633884 1.124177
-0.30953109 -0.2123279 1.040015
-0.01454544 -0.27346519 1.294525
-0.29486141 -0.3945328 1.096018
-0.1915175 -0.1617057 1.143814
-0.31280789 -0.240429 1.0392931
-0.073085189 -0.29224569 0.76945639
-0.3010017 -0.17049611 1.035735
-0.30802351 -0.199674 1.036518
-0.26054409 -0.14258359 1.08464
-0.28808919 -0.2047385 1.055486
-0.20052031 -0.29969519 0.8919282
-0.35445219 -0.43706301 1.040359
-0.048640251 -0.1542882 1.24132
-0.044341329 -0.155604 1.2407759
-0.03058088 -0.3983351 1.3052109
-0.1208029 -0.41972631 1.2973599
-0.28016099 -0.15995771 1.0574
0.0071297879 -0.14770541 1.252843
-0.30219769 -0.44104341 1.096999
0.001083136 -0.17713369 1.270242
-0.31581381 -0.3750973 1.078972
-0.35394749 -0.45444301 1.054234
-0.3089436 -0.244233 1.049166
-0.2330834 -0.3050333 0.89419651
-0.048727751 -0.18188269 1.207726
-0.039297819 -0.2085648 1.2039551
0.32849589 -0.3234632 1.222265
-0.2158235 -0.1620051 1.117694
-0.1759095 -0.1446763 1.143623
