# .PCD v0.7 - Point Cloud Data file format
VERSION 0.7
FIELDS x y z normal_x normal_y normal_z curvature
SIZE 4 4 4 4 4 4 4
TYPE F F F F F F F
COUNT 1 1 1 1 1 1 1
WIDTH 603
HEIGHT 1
VIEWPOINT 0 0 0 1 0 0 0
POINTS 603
DATA ascii
-0.04264712 -0.21895394 1.1481802 -0.59816402 0.79832822 -0.069799006 0.11298499
-0.044759024 -0.22251078 1.1493201 -0.68958509 0.72420353 -0.0012909572 0.11802103
-0.18717439 -0.16600467 1.1461053 -0.40466222 0.81981546 0.40515575 0.10480873
-0.28532922 -0.16127874 1.0561644 -0.86914569 0.39758387 0.29413047 0.091615349
-0.30159378 -0.23597351 1.0586655 -0.54447079 0.047040585 0.83745974 0.1407122
-0.27739817 -0.15794754 1.0654823 -0.80689073 0.41189528 0.4234024 0.098709628
-0.30838504 -0.22802213 1.0489261 -0.95202726 0.30593392 0.0069581228 0.12376917
-0.30702925 -0.24277736 1.0510966 -0.89196193 0.22412089 0.39264968 0.14247432
-0.27979231 -0.21770422 1.0717643 -0.44643998 0.053859096 0.89319122 0.15817182
-0.16790706 -0.29993212 1.1162771 -0.18935123 0.872931 0.44959706 0.041400306
-0.19830844 -0.16557497 1.135167 -0.64371407 -0.42877674 0.63386333 0.10806395
-0.078031763 -0.23548555 1.0760852 -0.8733772 0.24770863 0.41934782 0.020803135
-0.31991866 -0.35701999 1.0776893 -0.79259533 0.23201486 0.56388092 0.016269593
-0.31885362 -0.34944603 1.0770587 -0.79621834 0.26425567 0.54424739 0.021703102
-0.28040385 -0.24007688 1.0743624 -0.41002819 -0.029990653 0.91157967 0.11547522
-0.097534783 -0.24337365 1.0682362 0.4141047 0.81460369 -0.40612572 0.022101182
-0.049322866 -0.20820007 1.2107558 0.99827838 0.023324331 -0.053818062 0.039504286
-0.2278778 -0.28985631 1.0782658 -0.038620494 0.43004107 0.9019829 0.030976741
-0.32121626 -0.33556017 1.0708318 -0.81625718 0.26727599 0.51214039 0.029875452
-0.11013894 -0.14682174 1.2121445 -0.15820414 0.94859588 0.27411175 0.023371644
-0.23617332 -0.45227283 1.158841 -0.40599591 -0.6532076 0.63913006 0.080282629
-0.21906243 -0.44327787 1.1718974 -0.55304086 -0.30433127 0.77558249 0.075679161
-0.23501316 -0.44115677 1.1547493 -0.57395196 -0.32524332 0.7515291 0.080716982
-0.26706865 -0.35105941 1.1212475 -0.56358409 0.42483935 0.7084381 0.037468642
-0.27380726 -0.16186148 1.0680882 -0.7589528 0.42299029 0.49504524 0.085874945
-0.11622392 -0.15107773 1.2037152 -0.14351709 0.95165348 0.27158508 0.026884031
-0.24887222 -0.31988105 1.1397887 -0.54761076 0.64733934 0.5301643 0.037056934
-0.054648284 -0.24525593 1.1669476 -0.9839769 0.11754937 0.13405812 0.043441329
-0.18910593 -0.22697045 1.0635614 -0.73841149 0.35990438 -0.57027823 0.19850676
-0.17121199 -0.20880978 1.0657196 -0.59338522 0.65979069 -0.46105343 0.13342907
-0.054544587 -0.14724372 1.2535535 -0.33818245 -0.62861806 0.70033705 0.13931523
-0.16564867 -0.2997919 1.1482929 -0.125117 0.89205492 0.43426231 0.056745116
-0.28953916 -0.2301729 1.0679829 -0.47976154 -0.0085026231 0.87735772 0.1433868
-0.22539984 -0.15304953 1.1106795 -0.58179295 -0.3215251 0.74708676 0.061520893
-0.24192004 -0.29770416 1.0841345 -0.073246807 0.46536115 0.88208503 0.047029439
-0.32170397 -0.41019356 1.0873147 -0.77576834 0.090201356 0.62453765 0.011357786
-0.2817623 -0.37870786 1.1168461 -0.64594233 0.16917081 0.74440563 0.0039279638
-0.28791559 -0.33565807 1.1031353 -0.58692449 0.45884505 0.66706878 0.029727546
-0.20561405 -0.22277671 1.0698571 -0.27181551 0.24142374 -0.9315744 0.19664048
-0.13560602 -0.16038392 1.1839223 -0.25987148 0.94557017 0.1958673 0.018577138
-0.20070662 -0.29855612 1.0918181 -0.33114031 0.65725482 0.67702442 0.045243617
-0.22061114 -0.28229061 1.0720642 -0.21658383 0.53182864 0.81868786 0.17122279
-0.045453001 -0.20439005 1.2096028 0.99766308 -0.044207763 -0.052095912 0.047459647
-0.26328707 -0.18371044 1.0698982 -0.69863218 0.31681651 0.64151412 0.11228971
-0.28255197 -0.32497516 1.10163 -0.55552399 0.48042414 0.67866468 0.033294439
-0.060596194 -0.21533261 1.1066053 -0.90474635 0.31686604 0.28465742 0.025140053
-0.036889888 -0.260506 1.2597085 -0.39323625 0.50792271 0.76640707 0.058554485
-0.16246814 -0.13790266 1.1598072 -0.28196061 0.92115146 0.2682876 0.01385166
-0.29533783 -0.17150535 1.0466114 -0.88691926 0.37743381 0.26630422 0.079513118
-0.35647073 -0.47089282 1.052284 -0.83170408 -0.50000942 0.24136896 0.15700915
-0.27032045 -0.19496152 1.0708348 -0.70619655 0.28936064 0.64618641 0.12257037
-0.30515778 -0.38237163 1.0973121 -0.75550401 0.19892058 0.62421501 0.012037776
-0.16248818 -0.4032841 0.79518503 -0.81037885 0.037637118 -0.58469605 0.002820842
-0.054089889 -0.2217139 1.1162 -0.92742634 0.27121758 0.25752938 0.021831889
-0.23990074 -0.2047893 1.0713441 -0.33709753 -0.30311987 0.89133817 0.14155197
-0.23218499 -0.13404687 1.0876112 -0.65951204 0.26032722 0.70517629 0.051356483
-0.14265957 -0.36546424 0.77079117 -0.78088474 0.19288671 -0.59414959 0.0069269123
-0.32944441 -0.31981465 1.0322673 -0.9549008 0.18692976 -0.23069841 0.050685029
-0.35604993 -0.44004047 1.0490196 -0.95806408 -0.11139311 0.26401663 0.11931917
-0.061145645 -0.14364585 1.2423326 0.066581771 0.98237139 -0.17468035 0.14727965
-0.21082562 -0.29438025 1.08383 -0.18637705 0.53219837 0.82585019 0.044273388
-0.044294044 -0.23654909 1.1900558 -0.97656024 0.18292238 0.11344386 0.088422008
-0.15603356 -0.41432303 1.218364 -0.539352 -0.015764605 0.84193283 0.018679742
-0.17385659 -0.20692153 1.0711111 -0.52477747 0.52904069 -0.66687673 0.11449672
-0.18441048 -0.24008486 1.068604 -0.97437018 0.22491169 -0.0041894149 0.23158416
-0.30024347 -0.32350454 0.98768246 -0.72158819 0.38877246 -0.57285815 0.024120532
-0.17314145 -0.3015857 1.1037167 -0.36994264 0.70236504 0.60813302 0.039585553
-0.25399369 -0.13203639 1.0896773 -0.67668742 0.26547846 0.6867426 0.04672474
-0.16137762 -0.20511641 1.0558394 -0.63198394 0.58005947 -0.51393312 0.18493681
-0.10579532 -0.34543377 1.2386063 -0.61403757 0.27890503 0.73835611 0.021627594
-0.15189119 -0.14479378 1.1613204 -0.26619676 0.9375571 0.22388829 0.013905384
-0.29976931 -0.21144533 1.0561913 -0.86990869 0.34592375 0.35156178 0.13629313
-0.090109572 -0.29467946 0.75464547 -0.65277088 0.29572713 -0.69744939 0.092975035
-0.30822051 -0.21772663 1.045025 -0.9500258 0.31069374 0.030335577 0.13591395
-0.14412308 -0.13533233 1.0305208 -0.29181424 0.62406176 0.72483885 0.096411154
-0.24962917 -0.31620133 0.92821419 -0.58529031 0.67594337 -0.44781229 0.052095257
-0.3458392 -0.4697488 1.0315933 -0.73701912 -0.64361799 -0.20629746 0.15018252
-0.28194574 -0.22799823 1.0724504 -0.40716803 -0.019341363 0.91314846 0.14045919
-0.14752591 -0.13781168 1.0511264 -0.5193482 0.28499284 -0.8056404 0.091298096
-0.25843179 -0.22688955 1.0724491 -0.2472432 -0.018989261 0.96876734 0.11634563
-0.29637855 -0.46100008 1.1092933 -0.5851236 -0.48341432 0.65110743 0.10322351
-0.33588833 -0.34694356 1.0414174 -0.98058295 0.18337023 0.069515087 0.070676044
-0.29924265 -0.22588323 1.0589198 -0.79577428 0.21880342 0.56468439 0.16176358
-0.076670125 -0.13321173 1.0296284 -0.021865448 0.99897808 -0.039556079 0.00056454737
-0.19808398 -0.20850286 1.0681006 -0.061711304 0.71995789 -0.69126868 0.091882199
-0.27424353 -0.1466357 1.0631105 -0.76767832 0.51270223 0.38445601 0.082208432
-0.28051171 -0.15537494 1.0621847 -0.85137492 0.40321407 0.33552825 0.085879564
0.21349452 -0.34002322 1.0769217 0.73054534 0.29364988 0.61650085 0.010528671
0.21413684 -0.41882271 1.0946609 0.83215678 -0.023279406 0.5540517 0.031356465
-0.17542267 -0.14585671 1.1520914 -0.33767715 0.83405071 0.43627229 0.012430585
-0.0030701775 -0.35557121 1.3238512 0.29538292 0.37989751 0.87659961 0.074740417
-0.23286921 -0.1539772 1.1094856 -0.57457113 -0.26030359 0.77595747 0.063775286
-0.19945568 -0.41609341 1.1822832 -0.54015118 -0.098159909 0.83582377 0.02694991
-0.17909096 -0.44706023 1.2005199 -0.4894678 -0.26817352 0.82976156 0.075203806
-0.31127548 -0.39785454 1.0939006 -0.76069343 0.14734353 0.63216722 0.0095393769
-0.054959767 -0.30546257 1.2608943 -0.5682857 0.49890336 0.6543293 0.0276876
0.18116787 -0.35802704 1.1148409 0.76370394 0.16043283 0.625314 0.0012368598
0.18400395 -0.36865962 1.1148697 0.76342648 0.16049846 0.62563592 0.0012727518
0.1569203 -0.32665697 1.1420311 0.78128886 0.13639995 0.60908359 0.0016319155
0.092851825 -0.41293687 1.2474213 0.77344614 0.046813503 0.63213092 0.0062506124
0.045723174 -0.37491155 1.2920566 0.63740122 0.17924498 0.74939364 0.021916242
0.070849106 -0.28346169 1.0488129 0.46866453 0.30504504 0.82903624 0.033397634
0.11796466 -0.29183358 1.0359811 0.14508088 0.37608576 0.9151563 0.037291609
0.14851762 -0.35208115 1.1563333 0.78060406 0.14711006 0.60746676 0.00099600176
0.14816734 -0.13625707 0.99623144 0.080116302 0.98933482 0.12164752 0.10334155
-0.32218796 -0.4097521 1.0868194 -0.78460103 0.088541053 0.61364633 0.013562413
-0.23964196 -0.45455584 1.1549443 -0.39811364 -0.70747095 0.5839439 0.08127258
-0.2416717 -0.45609722 1.1514794 -0.39447671 -0.72003633 0.57090795 0.081919745
-0.21663341 -0.4543246 1.1748109 -0.51789194 -0.36834541 0.77208138 0.084770948
0.17266229 -0.23812048 1.0265859 0.10059254 0.18887147 0.97683609 0.03789103
0.19374879 -0.20906638 1.022324 0.3040489 -0.027871825 0.95224863 0.093606696
0.11786482 -0.27317885 1.0325017 0.17119041 0.23665883 0.95639241 0.01937913
0.16105074 -0.14915672 1.0863879 0.55360174 0.81133944 0.18775944 0.013964801
0.13397014 -0.13403894 0.980551 0.025329527 0.99967742 0.0018880478 0.086922422
0.17904629 -0.2059979 1.0184665 0.30306524 -0.034701873 0.9523378 0.10778126
0.14323688 -0.3385455 1.15996 0.77963775 0.13819705 0.61079168 0.00047478275
0.14611845 -0.3344714 1.1563368 0.77912909 0.13932733 0.61118382 0.00045681803
0.11413077 -0.3721548 1.2075356 0.79713959 0.15333836 0.58399981 0.0005482678
0.11532056 -0.37121662 1.207467 0.79713959 0.15333836 0.58399981 0.0005482678
0.11482476 -0.34383634 1.1967614 0.74947655 0.21282354 0.62689 0.0079610981
0.14134523 -0.38792908 1.172994 0.7828902 0.15178826 0.60336 0.0009100716
0.11406375 -0.4013516 1.2166017 0.80118942 0.1577328 0.57724857 0.00099239743
0.1165806 -0.40610746 1.2126698 0.79888111 0.10705553 0.59188515 0.0037529592
0.12860011 -0.3394897 1.1753336 0.74045503 0.19503364 0.64318609 0.0082437145
0.15430988 -0.45426977 1.1680616 0.83693892 -0.074161865 0.54224831 0.026287125
0.14924276 -0.35350344 1.1569414 0.78057259 0.14759853 0.60738879 0.00098993559
0.130044 -0.40188453 1.191942 0.79373336 0.13960929 0.59202749 0.0018771075
0.10493201 -0.43042618 1.2381479 0.77491921 -0.057805981 0.6294114 0.030665161
0.18814468 -0.36084479 1.1078682 0.77014679 0.18019292 0.61188596 0.0032250681
0.12738203 -0.41558206 1.1986891 0.79773277 0.033261895 0.6020931 0.011382599
0.17765725 -0.36515623 1.1215541 0.7622751 0.16033156 0.62708086 0.001191996
0.13898467 -0.34564999 1.1674138 0.7807619 0.14201418 0.6084758 0.00039729904
0.1428608 -0.38821685 1.1733309 0.7828902 0.15178826 0.60336 0.0009100716
0.12596899 -0.22408307 1.0277433 0.12179063 0.19492464 0.97322732 0.027499074
-0.37122914 -0.46639428 1.0489484 -0.92131066 -0.38051823 0.079953156 0.14771211
0.1668483 -0.153433 1.0855939 0.5301795 0.82387048 0.20036745 0.017886681
0.17333883 -0.40044278 1.13833 0.76391715 0.1570999 0.62589943 0.0010686371
0.15099488 -0.43991548 1.1765996 0.81989688 -0.042655077 0.57091999 0.013365635
0.13292783 -0.41765678 1.1914061 0.80248654 0.032592833 0.59577942 0.011293158
0.11723562 -0.43088716 1.2210504 0.7909891 -0.049217727 0.60984731 0.033802211
0.1803571 -0.2427405 1.0231155 0.18812148 0.16586405 0.96803898 0.061498374
0.11800215 -0.22472392 1.0293716 0.10950524 0.22673951 0.96777987 0.02307193
-0.2967234 -0.23218012 1.0632057 -0.54577094 0.053352643 0.83623415 0.14287828
-0.29310855 -0.20806263 1.0618004 -0.80443829 0.32800815 0.49526727 0.14939624
-0.23970564 -0.27411079 1.0710657 -0.13526182 0.4279311 0.89363259 0.18829946
-0.11190747 -0.14812452 1.2091722 -0.14843526 0.95327574 0.26312032 0.022916961
-0.28400704 -0.19463617 1.0595022 -0.80416656 0.33055788 0.49401179 0.1369874
-0.17954032 -0.2045999 1.0772449 -0.22694375 0.59369689 -0.77202362 0.12881142
-0.25563166 -0.19342488 1.0711106 -0.64364457 0.20480251 0.73741275 0.14478841
-0.16734621 -0.2057925 1.0915651 -0.086508155 0.69821703 -0.71064007 0.065324143
-0.22572285 -0.21741992 1.0715789 0.077675425 0.51771635 -0.85201907 0.1343399
-0.30705383 -0.2660867 1.0502832 -0.98766553 0.15656464 0.0020941102 0.15088697
-0.21645278 -0.2292615 1.0687704 0.15638417 -0.022601614 0.98743761 0.23215038
0.22196601 -0.18099366 1.016111 0.63131106 0.19177742 0.7514438 0.12723728
0.13746303 -0.45456055 1.1874694 0.76933253 -0.13514628 0.62439007 0.049763501
-0.0024618581 -0.35571688 1.3239174 0.29538292 0.37989751 0.87659961 0.074740417
-0.24639355 -0.18329266 1.0931844 -0.45541871 -0.1364975 0.87975132 0.073352523
0.01210105 -0.14883104 1.2540675 0.11212011 0.88792747 0.44610974 0.05031677
-0.2784234 -0.22955209 1.0754917 -0.38840738 -0.042773057 0.9204945 0.092415787
0.021290084 -0.28412157 1.2822167 0.54133469 0.33998057 0.76900584 0.084447414
0.024065917 -0.23608941 1.2682441 -0.036265679 -0.083272405 0.99586666 0.16947976
0.033904705 -0.26263818 1.2563001 0.80593127 0.59194398 -0.0087799579 0.23827702
-0.3314808 -0.32030231 1.046651 -0.97235185 0.23115329 0.033168655 0.064719729
0.039989661 -0.3612943 1.2939699 0.63590288 0.26202425 0.72592759 0.029501654
0.042409863 -0.37284464 1.2953712 0.61571741 0.18855667 0.76507413 0.024313306
0.014993921 -0.23372847 1.2805345 -0.0075267074 0.081591189 0.99663746 0.11442485
0.2123004 -0.15013607 1.0210103 0.76638049 0.55506486 0.32336345 0.11590754
0.16883864 -0.23921289 1.0276278 0.081065759 0.19338648 0.97776794 0.030989807
0.17070843 -0.23631741 1.0273414 0.060263015 0.20534913 0.97683173 0.03514326
0.16355306 -0.14730559 1.0821702 0.48952025 0.84947717 0.19687158 0.016160363
0.038203992 -0.15124804 1.2411205 0.32374024 0.77370495 0.54458511 0.065268956
0.017516203 -0.27563506 1.0987244 0.35834503 0.88656402 0.29256314 0.042897984
0.23307577 -0.21951215 1.0078419 0.53832448 0.026906557 0.84230798 0.067895837
0.27077672 -0.3371267 1.0044003 0.6955319 0.39462253 0.60042346 0.015150695
0.24538709 -0.25992125 0.99295992 0.59172291 0.18206981 0.78531182 0.052374884
0.26926073 -0.30411923 0.98126352 0.68969554 0.41737342 0.5917089 0.018682867
-0.023514703 -0.24268913 0.80974036 0.89989394 0.32212594 -0.29398263 0.016259372
0.25524595 -0.34370562 1.0294687 0.67277539 0.40798569 0.61718792 0.011337247
0.24650979 -0.25541514 0.98895597 0.58284587 0.16033746 0.79660696 0.057309546
0.20740372 -0.30259717 1.0448496 0.57535934 0.47378895 0.66669756 0.015860876
0.036592484 -0.36193839 0.77633047 0.51839721 0.34789297 -0.78117526 0.026332567
-0.023798369 -0.24457486 0.80031353 0.70094389 0.084828652 -0.70815372 0.10955228
0.27011526 -0.3311336 1.0011597 0.68377686 0.37953612 0.62321872 0.014405102
0.23017685 -0.16859011 0.98937416 0.77655971 0.38434768 0.49923122 0.15098433
0.15736334 -0.16076589 0.92718065 0.13937105 0.95144403 -0.2744633 0.054605935
0.26747602 -0.31854707 0.9942283 0.68257004 0.40093732 0.61102158 0.017204752
0.22178477 -0.15110236 0.99144739 0.46805492 0.65235752 0.59611607 0.13928792
0.19319223 -0.30297238 1.0573673 0.43830663 0.54781836 0.71258849 0.032850396
0.0104143 -0.20438109 1.17029 0.75196093 -0.55780208 0.35129985 0.078915469
0.23775963 -0.22985278 0.98102504 0.56840903 0.079535455 0.81889272 0.081041314
0.035507623 -0.3817445 0.77080977 0.60553288 0.19267939 -0.77214283 0.0098347412
0.020388059 -0.42100453 0.7452206 0.68454349 -0.037512723 -0.72800618 0.030588767
0.017457787 -0.40001646 0.74832815 0.61999047 0.12483793 -0.77461427 0.0037218586
0.2197165 -0.18287167 1.0166236 0.70042801 0.15902281 0.69578183 0.12768143
0.21427977 -0.14740016 1.0160807 0.73105979 0.59591651 0.33231783 0.12583688
0.23698865 -0.19326958 0.98435932 0.88533437 0.2224922 0.40826491 0.11939167
0.18921252 -0.15129407 0.95352441 0.41036052 0.91191745 -0.0032720873 0.066164076
0.044107553 -0.32772794 0.79170978 0.49651518 0.44741672 -0.74383533 0.040212106
0.2063325 -0.17491318 1.0271734 0.83075213 0.11454377 0.54472983 0.11631516
-0.036402654 -0.45121333 0.70633012 0.32947367 -0.23878719 -0.91347021 0.058970422
0.052123781 -0.34431496 0.78975135 0.46176431 0.37786934 -0.80248892 0.034597345
0.23228523 -0.28570572 1.0240505 0.62181938 0.37354174 0.68833655 0.037492581
0.20909522 -0.17854415 1.0238726 0.79233575 0.13516742 0.59492332 0.12607065
-0.026120558 -0.24684274 0.77085841 0.64593565 0.21003969 -0.73392814 0.076390609
0.022441778 -0.42341778 0.74701971 0.70548207 -0.070609249 -0.70520157 0.035252638
0.012538137 -0.45872831 0.73821336 0.62147319 -0.346212 -0.70278609 0.074981466
0.020965805 -0.46250716 0.75020844 0.58387506 -0.36013502 -0.72759378 0.09077286
0.011552452 -0.42938048 0.73767114 0.65445685 -0.11027228 -0.74801487 0.049936801
0.15038095 -0.15957832 0.92834496 0.078241318 0.99191445 -0.09991955 0.13123514
0.012338475 -0.40860561 0.74186897 0.62499964 0.056058004 -0.77860969 0.012079088
0.22833779 -0.16688874 0.9990983 0.70759332 0.42133269 0.56726569 0.1367902
0.23136267 -0.17547491 0.99818224 0.80394351 0.30195415 0.51234609 0.14693731
0.23242478 -0.17283802 0.986417 0.80394351 0.30195415 0.51234609 0.14693731
0.01234844 -0.22541842 0.95404792 0.57436752 -0.025337905 -0.8182053 0.0020869791
0.01301075 -0.41738662 0.739824 0.63227254 0.019224105 -0.77450746 0.017508537
0.032276832 -0.40842479 0.77122855 0.70573419 0.016745292 -0.70827866 0.014840382
0.22558798 -0.16636832 0.98390526 0.6879462 0.53038406 0.49540171 0.15835609
0.22691831 -0.17573664 0.98291624 0.81554282 0.35338929 0.45826402 0.15540853
0.25113046 -0.2669324 0.98271424 0.6544593 0.24210772 0.71628684 0.052552525
0.25176856 -0.27265704 0.97928023 0.70446807 0.28592029 0.6495955 0.053887408
0.014421416 -0.22994806 0.95581937 0.57436752 -0.025337905 -0.8182053 0.0020869791
-0.066992216 -0.31339663 0.72106928 -0.079804257 0.35091299 -0.93300128 0.10303128
0.020674098 -0.31268805 0.80268252 0.52928048 0.38833305 -0.75436032 0.044517249
0.22452062 -0.17128611 0.97906464 0.59746915 0.50212294 0.6252225 0.16553293
0.23022099 -0.23690952 0.96780711 0.5674907 0.11887228 0.81475377 0.074271344
0.2107515 -0.138809 0.97372454 0.43581468 0.8999145 -0.014808554 0.063813135
0.024006985 -0.24196434 0.96348643 0.57436752 -0.025337905 -0.8182053 0.0020869791
0.016519584 -0.46019334 0.74426556 0.61677402 -0.36244762 -0.6987285 0.087169968
0.047274277 -0.34507397 0.78638673 0.51946402 0.3797754 -0.76545918 0.033178497
0.025903113 -0.25661114 0.9630326 0.57436752 -0.025337905 -0.8182053 0.0020869791
0.18915999 -0.14903218 0.95498282 0.41036052 0.91191745 -0.0032720873 0.066164076
0.19087157 -0.15444721 0.95160007 0.43952265 0.89791518 -0.023834482 0.067338735
-0.027103545 -0.24765353 0.76102787 0.64273667 0.23717801 -0.72844785 0.087681375
-0.030317182 -0.22689092 0.78829902 0.68949884 0.50565422 -0.51856053 0.075946167
0.0053416262 -0.23863579 0.94973481 0.57436752 -0.025337905 -0.8182053 0.0020869791
0.005913686 -0.24004002 0.95023268 0.57436752 -0.025337905 -0.8182053 0.0020869791
0.23571739 -0.32934231 1.0432719 0.6719861 0.38919368 0.63004988 0.01113225
0.26549363 -0.31098267 0.98886293 0.67736179 0.39856979 0.61832297 0.018354626
0.23433664 -0.25230467 0.9690271 0.56265855 0.10606329 0.81985724 0.062874563
0.18778262 -0.15322645 0.94849908 0.38247094 0.91998982 -0.085642353 0.057908356
-0.061841205 -0.31039628 0.7209931 -0.067591764 0.34759986 -0.93520355 0.10461803
0.22302574 -0.22754069 1.0156502 0.53827298 0.057062153 0.84083658 0.056367684
0.028820148 -0.39381385 0.76040202 0.60749149 0.16000442 -0.7780441 0.0056048888
-0.044077381 -0.23811756 0.74986607 0.53606111 0.23902763 -0.80963218 0.10759816
0.20309515 -0.17407958 0.95610654 0.84275866 0.25007561 -0.47667602 0.17007668
-0.049431037 -0.38268957 0.70645803 0.096890621 0.07836885 -0.99220484 0.052459117
0.004907487 -0.43953294 0.73308706 0.61803263 -0.21950395 -0.75488651 0.067196295
-0.030332075 -0.37062433 0.72154725 0.42102772 0.17879404 -0.88925159 0.037030239
-0.012071344 -0.36052689 0.74083948 0.58823562 0.26853424 -0.76280284 0.013485194
0.21513925 -0.160353 1.0226295 0.81918436 0.39755234 0.41338721 0.10762782
0.22091997 -0.14936322 0.9941045 0.46805492 0.65235752 0.59611607 0.13928792
-0.014103998 -0.35428578 0.73778349 0.57764792 0.2796444 -0.76689106 0.014719824
0.019729268 -0.36618537 0.76188689 0.54649067 0.32118818 -0.77342492 0.022807287
0.00026676888 -0.45088267 0.73113042 0.592273 -0.34047508 -0.73026669 0.072937906
-0.0010496728 -0.33933273 0.75763476 0.6064198 0.30689752 -0.73353183 0.018071903
-0.067318685 -0.31345671 0.7213434 -0.079804257 0.35091299 -0.93300128 0.10303128
0.26210102 -0.34371504 1.0212324 0.68162078 0.41955373 0.59947288 0.011111389
0.21880111 -0.14581539 0.9793666 0.54649872 0.77596086 0.31499821 0.11952385
0.20713419 -0.14481701 0.96657461 0.43895346 0.89824235 -0.021921964 0.065841474
-0.046027225 -0.39037496 0.70349681 0.21905805 0.085941799 -0.97191954 0.046485461
0.20341492 -0.15781626 1.0340644 0.81785643 0.31378666 0.48233682 0.078424647
0.16763513 -0.15119837 1.0805696 0.50726205 0.83545858 0.21140994 0.020617956
0.22471236 -0.3291713 1.0567248 0.68113524 0.36226383 0.63625431 0.0098957224
0.23057432 -0.22346035 1.0117513 0.53832448 0.026906557 0.84230798 0.067895837
0.21382505 -0.29804823 1.0368527 0.61725771 0.45505387 0.64180905 0.018584864
0.21444704 -0.32804707 1.0637871 0.68784523 0.35469922 0.63329095 0.011075171
0.028954072 -0.28413352 1.0966637 0.35826334 0.8866294 0.29246467 0.042921249
0.17179608 -0.1485178 1.0713024 0.71689308 0.65941221 0.22636224 0.086351126
0.16451542 -0.15393107 1.0882392 0.56272793 0.8001104 0.20775123 0.016662726
0.16236062 -0.15716252 1.0935873 0.57117087 0.75973672 0.31074774 0.017344791
0.022448607 -0.27792853 1.0903081 0.49487412 0.6249311 0.60378867 0.042595893
0.21585664 -0.34898433 1.0779819 0.73705786 0.28206369 0.61415446 0.01140439
0.035160061 -0.28060493 1.0777678 0.50357038 0.51070839 0.69684565 0.040750202
0.028556187 -0.27753705 1.0813087 0.52233028 0.50507611 0.68707293 0.043818604
0.21069852 -0.34277704 1.0814778 0.74284464 0.28499594 0.6057716 0.012101013
0.21906181 -0.149546 1.0066921 0.65356797 0.62564498 0.42593113 0.13862853
0.23977147 -0.21816762 1.0003178 0.54668266 0.041402843 0.83631569 0.067987874
0.20320147 -0.41779894 1.108832 0.80647194 -0.025165586 0.59073663 0.03155034
0.12396954 -0.20256063 1.0238874 0.071876518 0.22690262 0.9712615 0.025746103
0.20505998 -0.42985988 1.1097969 0.82183808 -0.11145991 0.55871183 0.0570524
0.12829638 -0.19928753 1.0138224 0.065418981 0.257222 0.96413547 0.027883826
0.24063757 -0.27397534 1.0161704 0.64047325 0.31842273 0.69885683 0.039227217
0.22844747 -0.18485977 1.0089003 0.65082985 0.21881905 0.72700679 0.12243279
0.18740885 -0.355232 1.1075776 0.77077085 0.18170872 0.61065054 0.0034716795
0.073430225 -0.27016082 1.0426296 0.44470873 0.21986972 0.86826926 0.03178896
0.19885166 -0.20726205 1.0216058 0.31043383 0.0040845154 0.95058626 0.093481891
0.14742801 -0.45278624 1.177047 0.81249702 -0.091906004 0.57567519 0.03001032
0.19550416 -0.36277708 1.1016507 0.77033436 0.18249039 0.61096823 0.0037507683
0.096309178 -0.33198249 1.2198119 0.67678678 0.49476957 0.54512638 0.026305227
0.2330285 -0.21594484 1.0075538 0.54643685 0.041353464 0.83647865 0.067887336
0.16466863 -0.42408317 1.1558261 0.80095553 -0.022146923 0.59831417 0.013890564
0.13490699 -0.43129066 1.1945746 0.80250698 -0.023879316 0.59616464 0.01120371
0.09693642 -0.27955252 1.0421369 0.38150525 0.24020623 0.89261115 0.035701342
0.048233621 -0.15598696 1.230679 0.43837702 0.70325738 0.55969161 0.082155675
0.15340401 -0.14060017 1.0843782 0.32670808 0.93088257 0.16346073 0.021041704
0.15140899 -0.33751434 1.1509858 0.78252465 0.14160833 0.60630214 0.0012833792
0.096329324 -0.38114119 1.2397634 0.77357781 0.18343116 0.60657269 0.00086401036
0.11607283 -0.34275666 1.1954246 0.74950278 0.21277365 0.62687558 0.0079609845
0.11824381 -0.34262905 1.1918706 0.75380224 0.20242801 0.625144 0.0079027414
0.072527058 -0.28003523 1.0467728 0.46148971 0.26143706 0.8477487 0.032630969
0.14657882 -0.33794141 1.1569296 0.77869785 0.14131448 0.61127722 0.00047156704
0.10135037 -0.42413259 1.2396774 0.78645396 -0.016539048 0.61742759 0.020625867
0.029866775 -0.28635347 1.178928 0.69890696 0.71360189 0.047972575 0.15288551
0.094941787 -0.26467878 1.036757 0.31541726 0.28658471 0.90464425 0.040206425
0.18087615 -0.39967841 1.1296157 0.76338309 0.15826713 0.62625694 0.0012252555
0.23915021 -0.27792919 1.0123329 0.63708603 0.32215145 0.7002427 0.039935596
0.1407391 -0.23232079 1.0277581 0.1247776 0.16235818 0.97881067 0.035820805
0.18130222 -0.36262122 1.1166542 0.76342648 0.16049846 0.62563592 0.0012727518
0.18669055 -0.20709725 1.023159 0.331415 -0.066507064 0.94113803 0.10975593
0.26132613 -0.33687335 1.0188993 0.6811313 0.41539547 0.60291529 0.0097817052
0.17209119 -0.23282975 1.0267918 0.059789687 0.21755257 0.97421569 0.038431045
0.11287025 -0.43072647 1.2272345 0.78930366 -0.056488439 0.61139899 0.036238428
0.15008835 -0.39160714 1.1639986 0.77857733 0.15078212 0.60916501 0.00066260219
0.09053123 -0.2283545 1.035596 0.26851165 0.23251706 0.9347927 0.027946817
0.11105776 -0.4125199 1.2217221 0.80032617 0.044447172 0.59791499 0.01014388
0.14861198 -0.34500137 1.1569936 0.78101712 0.14468461 0.60751837 0.001166596
0.15197237 -0.43096554 1.1726418 0.80345297 -0.029659258 0.59462911 0.012024905
0.10973078 -0.24544267 1.0327996 0.15407674 0.27132457 0.95007545 0.022680022
0.12269937 -0.37385276 1.1940755 0.79277796 0.15403041 0.58972692 0.00069872773
0.17192173 -0.41758317 1.1449711 0.79676634 0.0084252572 0.60422873 0.013680125
0.031756956 -0.28617322 1.2692584 0.84600282 0.29550469 0.4437975 0.10161529
0.037993316 -0.25701973 1.2423425 0.62512475 0.75525916 -0.19698368 0.21729739
0.07895752 -0.42381975 1.268463 0.68838376 -0.10679817 0.7174412 0.027253928
0.015352988 -0.28147182 1.2889031 0.25123435 0.37204799 0.89356679 0.10690843
0.034814801 -0.22925757 1.2604834 0.19475995 -0.014395944 0.98074532 0.10169341
0.12890102 -0.27449691 1.0304041 0.10452597 0.2739425 0.95604903 0.019158361
0.17567825 -0.42991698 1.1457601 0.80423498 -0.056633156 0.59160686 0.019212205
0.056954231 -0.28242278 1.0546583 0.47065547 0.34034175 0.81403369 0.032629043
0.18172534 -0.23651102 1.0237064 0.18863416 0.1612777 0.96871394 0.063212939
0.099525511 -0.40843841 1.2368861 0.79250526 0.065271266 0.60636216 0.0070936894
0.20591658 -0.41124403 1.1032079 0.80766028 0.040788773 0.58823562 0.012411302
0.05658146 -0.3493683 1.275723 0.70545375 0.27310005 0.65402699 0.0095617641
0.13980405 -0.34116676 1.1668677 0.78054833 0.13879806 0.60949105 0.00044437475
0.23268852 -0.28625557 1.0212008 0.62181938 0.37354174 0.68833655 0.037492581
0.14794026 -0.4140045 1.1716243 0.80492586 0.04819835 0.59141463 0.0075661512
0.050674811 -0.32731473 1.2679913 0.76862973 0.36372557 0.52622443 0.025759356
0.032200146 -0.40139061 1.3138995 0.56597561 0.15289217 0.81012082 0.03082885
0.063401252 -0.40035769 1.2790381 0.74042279 0.17167515 0.64984751 0.0012481908
0.026624247 -0.28591865 1.2782563 0.64254636 0.33457419 0.68934333 0.092493773
0.1442261 -0.43229795 1.1824751 0.80835921 -0.026818242 0.58807838 0.012632407
0.054102946 -0.37382352 1.28242 0.70404947 0.230471 0.67171222 0.0086490903
0.037743397 -0.23097235 1.256304 0.63294286 0.042448573 0.77303392 0.09218891
0.030138524 -0.15188588 1.2470125 0.33565873 0.67937666 0.65251869 0.082568154
0.10366023 -0.40202677 1.2300479 0.7925663 0.16052094 0.58827865 0.0011941481
0.051517773 -0.35792416 1.2803664 0.70935285 0.27580062 0.6486544 0.010594908
0.053192582 -0.27950352 1.061141 0.4823007 0.32940733 0.81171238 0.034614146
0.16029902 -0.4122068 1.1562358 0.79068381 0.0490309 0.61025822 0.0075523937
0.024242483 -0.34888536 1.304202 0.55543208 0.23720548 0.79701245 0.021955902
0.03306926 -0.39789784 1.3116821 0.5661419 0.15711646 0.80919576 0.028662743
0.0076235873 -0.36490929 1.3220233 0.53790492 0.21318476 0.81560445 0.030851586
0.026542624 -0.22979648 1.2700073 -0.00048439801 -0.028948607 0.99958074 0.10386635
0.071554087 -0.22844468 1.0365589 0.40064874 0.1404577 0.90540171 0.019199219
0.021700008 -0.32788435 1.3012085 0.60954481 0.31468239 0.72761953 0.037877366
0.05051323 -0.35090032 1.2806444 0.66496789 0.27446258 0.69461352 0.022982519
0.035727184 -0.28646132 1.2585226 0.90121776 0.28393924 0.32739133 0.10077555
0.034151722 -0.29043189 1.1715964 0.94151419 0.33322042 -0.050152551 0.024296395
0.15803646 -0.32168809 1.1387417 0.78354615 0.12892713 0.60781014 0.0017807743
0.037755933 -0.26258266 1.2440302 0.73210877 0.65857357 -0.17406219 0.22654404
0.16996168 -0.43074805 1.1519808 0.79920703 -0.061302993 0.59792155 0.017482337
0.1563901 -0.41383135 1.1617292 0.79855347 0.040830538 0.60053736 0.0078740548
0.11550361 -0.42100963 1.2180699 0.80276823 0.0012329939 0.59628987 0.011593147
0.12304261 -0.36343256 1.1939505 0.79309368 0.14886609 0.59062785 0.00056145794
0.24786413 -0.25762224 0.9879027 0.59668922 0.17377488 0.78343105 0.054649081
0.20952174 -0.42800242 1.1040288 0.80218291 -0.12182 0.58451903 0.058838349
0.037215441 -0.23880284 1.2527617 0.414579 -0.2692644 0.86926454 0.1804882
0.13622676 -0.43099141 1.1927831 0.80315059 -0.024504501 0.59527183 0.011521891
0.039450236 -0.2268323 1.2549821 0.74850374 0.062473923 0.66018116 0.046400987
0.15004539 -0.43258551 1.175337 0.8131271 -0.025685443 0.58151913 0.013344425
0.21576613 -0.38280314 1.0849218 0.74149543 0.18084292 0.64612728 0.0025956351
0.12476455 -0.43165624 1.2100414 0.78778803 -0.051645011 0.61377752 0.028617339
0.056576114 -0.2957412 1.0972184 0.28531373 0.88740897 0.3620792 0.053497281
0.099136405 -0.33159158 1.2188407 0.66879642 0.44292161 0.59710282 0.022612346
0.067829825 -0.28546798 1.0512272 0.47064897 0.34035364 0.8140325 0.032631587
0.11739006 -0.41715109 1.2134173 0.79996186 0.031734247 0.59921104 0.011318756
0.13086991 -0.22574133 1.0251036 0.13301653 0.16066651 0.97800452 0.033945456
0.12478876 -0.43098751 1.2096636 0.79808986 -0.033023119 0.60163289 0.020657992
0.16280109 -0.33688739 1.1352836 0.77179021 0.14140525 0.61995512 0.0014424081
0.046790712 -0.30949661 1.2379338 0.8773371 0.35514209 0.32272843 0.05108235
0.038926348 -0.29042476 1.2152593 0.80326301 0.59560245 -0.0051292162 0.16469812
0.032429863 -0.15205333 1.2451216 0.36131319 0.67534882 0.64292824 0.073521502
0.046037689 -0.15499614 1.2326077 0.33422425 0.78900671 0.51552171 0.071880475
0.043884281 -0.30076206 1.2347174 0.90125555 0.30823043 0.30452013 0.081854314
0.049606148 -0.28470564 1.0708537 0.49013603 0.39958081 0.77466232 0.034417145
0.17621785 -0.41382778 1.1389865 0.79033661 0.033149056 0.6117754 0.010159535
0.091016166 -0.23036523 1.0353811 0.26851165 0.23251706 0.9347927 0.027946817
0.029744266 -0.26738784 1.0731103 0.50357038 0.51070839 0.69684565 0.040750202
0.17677234 -0.23912321 1.024374 0.15111946 0.17604457 0.97271329 0.050226729
0.18807457 -0.24362139 1.0209546 0.22550274 0.14995612 0.96263272 0.065939747
0.23145668 -0.21006158 1.0119183 0.56163323 0.075836517 0.82390338 0.066883855
0.041012608 -0.29424381 1.1968006 0.84421414 0.53549922 0.023305103 0.070838168
0.061956786 -0.39747801 1.2797381 0.73192275 0.17075537 0.65964514 0.0015103893
0.16685006 -0.23547478 1.0270357 0.081424892 0.1981588 0.97678202 0.033660062
0.090356611 -0.22249334 1.036497 0.29071981 0.20421685 0.93476069 0.026998922
0.071567863 -0.24628709 1.0387698 0.43300521 0.21519664 0.87532669 0.032279655
0.027239921 -0.23097409 1.1692621 0.19582966 0.71671599 0.66930479 0.11483613
0.12279356 -0.22574419 1.0242918 0.12179063 0.19492464 0.97322732 0.027499074
0.11393922 -0.24581526 1.0314966 0.13984285 0.26074925 0.95522445 0.021208795
0.061285045 -0.24822778 1.046014 0.45707202 0.22307353 0.86100137 0.031617966
0.12042212 -0.43835306 1.2214873 0.79345948 -0.049575765 0.6066007 0.032040983
0.10445701 -0.43679675 1.2404643 0.75256956 -0.11829402 0.64780051 0.045435041
0.13162005 -0.41394922 1.1920012 0.80393356 0.048652176 0.59272575 0.010205538
0.094978832 -0.38313028 1.2399064 0.77357781 0.18343116 0.60657269 0.00086401036
0.078534886 -0.42142355 1.2656026 0.67786086 -0.11123264 0.72672689 0.026469937
0.09120556 -0.39094663 1.2458472 0.76981074 0.18006782 0.6123454 0.00085675193
0.045695607 -0.42068195 1.3036966 0.64397711 -0.088256851 0.75993693 0.029196287
0.15274131 -0.34178874 1.1507764 0.78132194 0.14600371 0.60681051 0.001275162
0.12202007 -0.40299779 1.2054442 0.79722369 0.13528419 0.58833033 0.0020894487
0.028771592 -0.28060153 1.0865798 0.49498606 0.62475699 0.60387701 0.042608123
0.16039705 -0.40040404 1.1523091 0.77377439 0.14968476 0.61552227 0.0012562094
0.036131706 -0.29382083 1.2034672 0.71756911 0.69464171 0.050670303 0.12706895
0.16095003 -0.43089101 1.1621197 0.8048026 -0.042925589 0.59198827 0.013765546
0.19552051 -0.40077633 1.1108172 0.75292623 0.17060851 0.63560587 0.0016338824
0.16589119 -0.41506082 1.1518347 0.79224139 0.035533369 0.60917234 0.0090602217
0.17969076 -0.43067095 1.1387517 0.81666207 -0.079979308 0.57154733 0.035467334
0.21483922 -0.41359207 1.0933791 0.82456177 0.017191369 0.56551081 0.019187199
0.18973577 -0.24832663 1.0202595 0.24488051 0.13723218 0.95979208 0.073065244
0.033022355 -0.29139215 1.1927156 0.62082672 0.78256661 -0.04651542 0.1401424
0.11724368 -0.28819758 1.0354207 0.18153003 0.30825356 0.93382365 0.035567194
0.11190952 -0.42854741 1.2274681 0.7972365 -0.024867637 0.60315454 0.023443893
0.11061004 -0.41531149 1.2232597 0.80225599 0.037725013 0.59578711 0.010168952
0.23401637 -0.19389214 1.0029025 0.72736144 0.15995328 0.66735321 0.11384156
0.050447259 -0.32790521 1.268821 0.75018859 0.34695396 0.56288552 0.02166635
0.02461395 -0.2038449 1.160279 -0.27811027 0.029321814 0.96010154 0.10030646
0.18073909 -0.22119299 1.0234109 0.24992356 -0.07387045 0.96544361 0.06861309
0.035624381 -0.26729307 1.2372221 0.81461555 0.57997113 0.0059129358 0.22148098
0.03342773 -0.22137782 1.2594347 0.54086542 0.15710767 0.8263061 0.033257823
0.27263629 -0.32777569 0.99790275 0.69971257 0.36794925 0.61238533 0.013574283
0.0042312918 -0.27276373 1.2939514 -0.045078684 0.4170486 0.90776557 0.10351626
0.027718106 -0.33170259 1.2985173 0.62952316 0.29419443 0.71913165 0.03278856
0.067838237 -0.29302454 1.0918531 0.4406988 0.64642304 0.62283367 0.025437027
0.19849505 -0.21225202 1.0219538 0.30009869 -0.019986397 0.95369869 0.093590014
0.22088775 -0.23505211 1.0165558 0.53577125 0.098053224 0.83865052 0.058182679
0.043125812 -0.26963788 1.0629703 0.51433778 0.31175545 0.79891503 0.044200908
0.20577647 -0.20906362 1.020653 0.42011374 0.0092373919 0.90742439 0.096964091
0.18706362 -0.20448677 1.0229439 0.33958179 -0.049177054 0.93929011 0.11092074
0.15796337 -0.32542929 1.139671 0.7817601 0.13783295 0.60815567 0.0018028785
0.21666688 -0.30132186 1.0379695 0.63565904 0.43083894 0.64055866 0.017419059
0.162369 -0.4502179 1.1686134 0.82390338 -0.083520293 0.56054217 0.026876848
0.19534768 -0.40058371 1.1109447 0.75292623 0.17060851 0.63560587 0.0016338824
0.21658158 -0.34142837 1.0742246 0.72280788 0.30009976 0.622486 0.01074994
0.15230674 -0.4232482 1.1697624 0.79944277 -0.0026307774 0.60073644 0.010030195
0.15441644 -0.33209893 1.1464026 0.78128886 0.13639995 0.60908359 0.0016319155
0.031276703 -0.24154587 1.2596731 0.054458831 -0.18330035 0.9815473 0.18480709
0.15157101 -0.39058822 1.1619569 0.77584934 0.15068462 0.61265975 0.00058947201
0.028345738 -0.27570748 1.2672819 0.7947225 0.44414723 0.41370207 0.18913043
0.044477858 -0.37455299 1.293883 0.62365538 0.18219538 0.76017022 0.02318088
0.041964263 -0.35767746 1.2910835 0.64997661 0.26192182 0.71339154 0.024349052
0.051908936 -0.33220622 1.2759202 0.7111761 0.31688386 0.62754542 0.014708131
0.1406381 -0.41813034 1.1817374 0.80721253 0.022190508 0.58984363 0.01057178
0.2529172 -0.2687968 0.98264825 0.6544593 0.24210772 0.71628684 0.052552525
0.12457295 -0.21559751 1.0269401 0.096836731 0.20894484 0.97312111 0.024918117
0.028880391 -0.32615203 1.2955096 0.60940611 0.31216264 0.72882003 0.035215665
0.23169969 -0.18505695 1.0052137 0.71982425 0.21645564 0.6595453 0.12661596
0.044288021 -0.3536154 1.2878237 0.65933734 0.2801038 0.6977222 0.026706466
0.058817707 -0.40056291 1.2841065 0.72316009 0.17144668 0.66906327 0.0014064362
0.042934909 -0.29962298 1.2433341 0.90351462 0.28179157 0.32288542 0.07634002
0.22541989 -0.21998324 1.0172348 0.53841531 0.026867732 0.84225118 0.067930244
0.15392338 -0.1642886 1.1071523 0.60378861 0.62691253 0.49236166 0.0064840131
0.066066168 -0.301263 1.197498 0.63656282 0.7640776 0.10475365 0.046767183
0.21516298 -0.14400196 0.97302002 0.49330565 0.8685196 0.048198428 0.081818826
0.14331202 -0.13686363 1.0900189 0.21120654 0.9692117 0.12657216 0.029366596
0.20920153 -0.29973006 1.0403208 0.60373437 0.45066437 0.65757608 0.017861223
0.19220443 -0.33236626 1.0956171 0.78188258 0.25211537 0.57017314 0.0067955055
0.19179644 -0.38830525 1.1124849 0.75966072 0.15934263 0.63049626 0.0012749238
0.041669253 -0.33204409 1.284781 0.62930071 0.2928986 0.71985489 0.030673089
0.21269807 -0.42724833 1.0992879 0.80597842 -0.098844856 0.58363396 0.055708777
0.20993888 -0.226263 1.0197157 0.46539092 0.046840295 0.883865 0.0583435
0.22205864 -0.16736026 1.0188125 0.8053273 0.37430188 0.45972401 0.12048673
0.25062135 -0.33284232 1.0316912 0.66873729 0.43502223 0.60294789 0.010705869
0.16167648 -0.14054132 1.0756396 0.50726205 0.83545858 0.21140994 0.020617956
0.1542476 -0.34914786 1.1513736 0.77924132 0.14798041 0.60900307 0.0011438556
0.19668347 -0.23332204 1.0231916 0.2444053 0.12092321 0.96210378 0.071158461
0.04809998 -0.33809823 1.2805882 0.65950638 0.28437391 0.69583249 0.025478125
0.22680564 -0.17612563 1.0115415 0.75864112 0.27786034 0.58928549 0.14638412
0.2190693 -0.34431916 1.0723932 0.72777683 0.29020807 0.62138575 0.010548345
0.011361381 -0.16826388 1.2683834 0.14121631 0.35705918 0.92334545 0.053053293
0.022284951 -0.33477688 1.3026721 0.62382734 0.29976323 0.72179037 0.034328103
0.17927252 -0.15874283 1.0739969 0.84061861 0.29898041 0.45163158 0.073794559
0.22062626 -0.23107977 1.0166886 0.54580182 0.084561966 0.83363646 0.058631107
-0.28530088 -0.2253335 1.0700222 -0.44155791 0.038817473 0.89639264 0.16000488
-0.2102091 -0.21438061 1.0703079 -0.095973201 0.68408185 -0.72306377 0.10873023
-0.19654249 -0.40917847 1.1823155 -0.57233739 -0.013312673 0.81991011 0.0089440579
-0.21842971 -0.4393245 1.1694201 -0.55304086 -0.30433127 0.77558249 0.075679161
-0.28925422 -0.20233865 1.0609288 -0.81830484 0.3071762 0.48581901 0.13351454
-0.32468903 -0.41058075 1.0848033 -0.79007822 0.089850716 0.60638547 0.015932575
-0.09533637 -0.32529262 1.2364933 -0.60807854 0.62782866 0.48587212 0.0090668332
-0.095800385 -0.32509494 1.2335478 -0.60807854 0.62782866 0.48587212 0.0090668332
0.25565168 -0.28120828 0.98488462 0.72896934 0.29904932 0.61577034 0.043424822
0.1949549 -0.23950462 0.98844069 0.36132738 0.12131955 0.92451298 0.091600448
0.16653395 -0.34030753 1.1319281 0.76844847 0.14130302 0.62411565 0.0014456584
0.14331789 -0.38325325 1.1700585 0.7810837 0.1503894 0.6060456 0.0009108056
0.12046984 -0.34385496 1.187344 0.75264496 0.19878547 0.62770212 0.008310644
0.17179571 -0.14772917 1.0696864 0.6978724 0.67033571 0.25223818 0.084846415
0.21952756 -0.40139917 1.0852904 0.73875278 0.18868944 0.64702439 0.002662068
-0.30378726 -0.22962214 1.0242274 -0.92125577 0.2285669 -0.31471413 0.1148096
0.20473579 -0.20664176 1.0204738 0.41525078 0.064086549 0.9074468 0.094818771
0.13402195 -0.19928177 0.99487454 0.11748508 0.4156377 0.90191048 0.066858158
0.17213589 -0.32999873 1.1243845 0.77556092 0.17555839 0.60637003 0.0051226122
0.14574985 -0.38573295 1.1683307 0.77925175 0.15067284 0.60832924 0.00064680091
0.18532577 -0.21534018 1.0058087 0.27910721 -0.0057058623 0.96024299 0.080960438
0.18690868 -0.15216818 1.045871 0.81089258 0.26102066 0.5237571 0.06965296
0.13794743 -0.39335787 1.1788621 0.78827924 0.1511458 0.59646523 0.0010962908
0.21432644 -0.40690216 1.0926173 0.81004411 0.072072685 0.58192277 0.0084862905
0.21685494 -0.302288 1.0191083 0.63249201 0.44539535 0.63370085 0.020590218
0.14366755 -0.34024277 1.1600997 0.77923322 0.14028749 0.61083144 0.00050088082
0.19617365 -0.24118337 0.99703753 0.33239913 0.17558672 0.92664999 0.086578541
0.13180211 -0.22743121 0.99174649 0.13684005 0.16216841 0.97722882 0.043464437
0.18893744 -0.36944026 1.0931956 0.76991004 0.18388942 0.61108357 0.004004153
0.18019669 -0.34388372 1.1166652 0.77116323 0.18078893 0.61042839 0.0040212972
0.0058337916 -0.36510861 1.3225504 0.52082914 0.21210344 0.82689124 0.032588024
-0.25019297 -0.32905412 1.1270264 -0.51832408 0.64216834 0.56476533 0.046353955
-0.23241647 -0.27104819 1.0683724 0.12716213 0.6614098 0.73916632 0.2302203
-0.23438266 -0.45275414 1.159305 -0.42849433 -0.62589234 0.65165287 0.085908823
-0.16847092 -0.40953165 1.2037752 -0.57596952 0.020805186 0.81720632 0.0098147783
-0.089905471 -0.33212289 1.2465183 -0.60807854 0.62782866 0.48587212 0.0090668332
-0.21316701 -0.45701328 1.1756235 -0.54702669 -0.40123972 0.73468935 0.093536004
-0.14036378 -0.39412862 1.2139654 -0.57433808 0.16005008 0.80281991 0.026491871
-0.048550677 -0.23421907 1.1794806 -0.97454602 0.17840479 0.13576417 0.081145845
-0.23582906 -0.29314494 1.0802338 -0.044069964 0.42711198 0.90312415 0.032113284
-0.20039752 -0.38057002 1.183341 -0.59893185 0.18749171 0.77854192 0.025460809
-0.19631341 -0.38365829 1.1848031 -0.60447055 0.1902741 0.77357042 0.026584407
-0.28161377 -0.2402879 1.0749429 -0.42115161 -0.022646248 0.90670753 0.10116632
-0.2265102 -0.4340083 1.1548529 -0.52895612 -0.32127982 0.78548372 0.084460236
-0.21956515 -0.21909344 1.0686681 -0.0059366222 0.62962228 -0.77687877 0.14930153
-0.21592651 -0.15214927 1.110649 -0.52940232 -0.46095601 0.71221679 0.068482593
-0.16621494 -0.20894539 1.0526102 -0.47222111 0.67861736 -0.56257075 0.16083601
-0.042170737 -0.14849351 1.2384124 -0.32044506 -0.33994445 0.88416785 0.1847906
-0.030456735 -0.1566492 1.2523395 -0.57790494 0.8160556 0.0088962559 0.21673359
-0.051611438 -0.23612487 1.1233375 -0.92141342 0.31296888 0.23032103 0.026018156
-0.10162103 -0.14470629 1.1999692 -0.11663666 0.96551037 0.23277786 0.01909853
-0.084208697 -0.33001769 1.2487534 -0.54722834 0.56171608 0.62049681 0.017973235
-0.040146496 -0.21633515 1.1943355 0.99976838 -0.016990207 -0.013211271 0.10338598
-0.18878506 -0.44774273 1.1908034 -0.48773655 -0.28304404 0.82583237 0.080919147
-0.16403566 -0.20555875 1.0558873 -0.57612002 0.57202601 -0.5838424 0.18517193
-0.16977741 -0.35337532 1.1971279 -0.56768316 0.4291918 0.70251703 0.049433038
-0.14210968 -0.39902261 1.2128783 -0.56163931 0.077996537 0.82369769 0.0055940724
-0.12064809 -0.14953026 1.1868591 -0.14631577 0.95280534 0.26599568 0.031096287
-0.12532699 -0.35041595 1.227313 -0.65041786 0.34459186 0.67691439 0.037543621
-0.10668081 -0.14968653 1.1936189 -0.12207877 0.96387911 0.23671471 0.01980366
-0.058287691 -0.15388979 1.2344527 -0.34204748 -0.38605997 0.85671538 0.16432194
-0.051136509 -0.24977611 1.1409645 0.98487192 -0.088491291 -0.14898524 0.015640082
-0.09936069 -0.33610138 1.2407699 -0.63378561 0.53330433 0.56026977 0.022478823
-0.027779579 -0.3540515 1.295029 -0.058062684 0.48375919 0.87327307 0.086484306
-0.03522741 -0.26885015 1.2215974 0.046658538 0.76638836 0.64068085 0.16274628
-0.055805065 -0.31669495 1.2815449 -0.51547408 0.50912583 0.68925858 0.020399384
-0.046452917 -0.21889533 1.1386197 -0.76937979 0.63877302 0.0048721936 0.077977017
-0.18419985 -0.41270474 1.1909095 -0.53333831 -0.063810572 0.84349179 0.019949
-0.056774378 -0.24508281 1.1148479 -0.90543163 0.32471588 0.27341023 0.023794606
-0.22423609 -0.29982188 1.0875808 -0.15068755 0.59991831 0.7857424 0.027637767
-0.073315956 -0.23335859 1.0634357 -0.84789646 0.23167655 0.4768621 0.028007599
-0.20610592 -0.41932771 1.1673232 -0.51411986 -0.24288292 0.82261086 0.066178948
-0.038866635 -0.22074977 1.191521 0.98796785 -0.14665437 -0.049111616 0.11825423
-0.055638328 -0.22208682 1.1114599 -0.90474635 0.31686604 0.28465742 0.025140053
-0.29761514 -0.24445532 1.0621437 -0.38618019 -0.066578247 0.92001748 0.13563871
-0.21428689 -0.44190067 1.1762149 -0.53159428 -0.28356692 0.79812121 0.069598287
-0.20409615 -0.42326477 1.1707151 -0.50821131 -0.24548386 0.82550526 0.062445208
-0.2606436 -0.18634872 1.0676466 -0.70913941 0.30798417 0.63424528 0.12270977
-0.29656893 -0.21354912 1.0569009 -0.86253917 0.31534928 0.39570329 0.16537823
0.023758149 -0.33197647 1.3008786 0.62382734 0.29976323 0.72179037 0.034328103
-0.23856777 -0.20491402 1.0722876 -0.27366841 -0.36146364 0.8913191 0.12432881
-0.051823217 -0.25695461 1.1417983 0.98487192 -0.088491291 -0.14898524 0.015640082
-0.25802201 -0.33374384 1.1228285 -0.49091071 0.56962174 0.65919471 0.046797045
-0.33197185 -0.35369191 1.0530254 -0.92364061 0.26100829 0.2806468 0.05486941
-0.27675462 -0.3829014 1.1221924 -0.61570251 0.13785276 0.77582669 0.0044984687
-0.32858986 -0.42147678 1.0763171 -0.81742859 -0.020140024 0.57567781 0.056933306
-0.28310862 -0.3759329 1.1155235 -0.65109664 0.17229018 0.7391814 0.004223939
-0.041824777 -0.26168892 1.2176396 0.97703773 -0.19089366 -0.094640426 0.03969657
-0.27002341 -0.33711842 1.1158261 -0.54486555 0.47450432 0.69135159 0.040892612
-0.3355504 -0.34510058 1.0360479 -0.97594923 0.20829207 -0.064323917 0.065153636
-0.046339657 -0.21347354 1.1384465 -0.89083892 0.45039237 0.059604581 0.08521077
-0.31734163 -0.33417347 1.0736129 -0.79922456 0.26392481 0.53998512 0.023451783
-0.32095036 -0.36331838 1.0771559 -0.79266906 0.23202993 0.56377119 0.016334314
-0.042696655 -0.20374872 1.2075673 0.99439859 -0.10333226 -0.022224024 0.054288827
-0.29282755 -0.17820734 1.0450072 -0.89942819 0.35796604 0.25077739 0.080919906
-0.32727095 -0.41103601 1.0814085 -0.82096916 0.092573293 0.56341797 0.025087142
-0.24840732 -0.33018532 1.1286738 -0.52127099 0.65168172 0.55098772 0.048788495
-0.32188579 -0.40775594 1.0863777 -0.79412121 0.098401397 0.59974051 0.014543066
-0.27588788 -0.19308597 1.067808 -0.71227926 0.28395921 0.64189208 0.13242669
-0.24809016 -0.33069563 1.1286798 -0.55431312 0.6561529 0.51205498 0.049052335
-0.22299768 -0.43987331 1.1651977 -0.52396554 -0.30480602 0.79533225 0.080965973
-0.047003094 -0.23370385 1.151047 -0.53760135 0.84319657 -0.0020572112 0.12211121
-0.35656229 -0.45415354 1.0472817 -0.92807537 -0.26651403 0.26008919 0.14739251
-0.037854027 -0.26007098 1.2497659 -0.41710159 0.54186165 0.72966576 0.061795533
-0.32148606 -0.35736039 1.0750233 -0.79823679 0.2566064 0.54495072 0.021272374
-0.16675641 -0.30299661 1.1501658 -0.098504111 0.89104605 0.44309583 0.065691262
-0.28954732 -0.36888885 1.1089218 -0.67017579 0.18841383 0.71788901 0.0048955958
-0.31160381 -0.25563049 1.0388846 -0.66775823 0.35597128 -0.65374559 0.080879755
-0.34887132 -0.40709612 1.0413767 -0.98114848 0.18127663 0.066980273 0.056715302
0.0029074871 -0.14656413 1.2541096 0.014541772 0.9474659 0.31952599 0.019500628
-0.048519298 -0.16231842 1.2326097 -0.40828297 -0.20032442 0.89060378 0.2003409
-0.18384656 -0.23227368 1.0698975 -0.89391398 0.33231115 -0.30081066 0.22940409
-0.16947263 -0.15422133 1.1593549 -0.32027844 0.88014269 0.35038644 0.012093754
-0.057560142 -0.23103541 1.1064596 -0.90474635 0.31686604 0.28465742 0.025140053
-0.23526908 -0.20030186 1.069914 -0.31334957 -0.34909803 0.8831436 0.13569668
-0.26702005 -0.16627719 1.0756682 -0.73689783 0.35482174 0.57539827 0.07819099
-0.12044883 -0.33957684 1.2300011 -0.66347557 0.39339566 0.63642746 0.036564209
-0.30357325 -0.22393869 1.0516084 -0.94581079 0.31253269 0.08812122 0.13357107
0.018673288 -0.3301276 1.3016067 0.41656819 0.39301908 0.81976032 0.068297103
-0.20109154 -0.16909765 1.1352748 -0.58894676 -0.5332638 0.60726553 0.10251711
-0.30299681 -0.20268723 1.0361021 -0.95635808 0.2893683 0.040560026 0.10590569
-0.30496565 -0.23592377 1.0545604 -0.83022892 0.21056215 0.51612359 0.14818069
-0.30855772 -0.425897 1.0994445 -0.6846118 -0.13940106 0.71545368 0.056403551
-0.14608389 -0.41055009 1.2225885 -0.53675538 0.031244704 0.8431592 0.0091058277
