# .PCD v0.7 - Point Cloud Data file format
VERSION 0.7
FIELDS x y z normal_x normal_y normal_z curvature
SIZE 4 4 4 4 4 4 4
TYPE F F F F F F F
COUNT 1 1 1 1 1 1 1
WIDTH 575
HEIGHT 1
VIEWPOINT 0 0 0 1 0 0 0
POINTS 575
DATA ascii
0.0057281256 -0.049793724 0.59776831 0.053043097 0.5598287 -0.82690889 0.069239214
0.057327267 -0.047859777 0.61488879 0.39520541 0.63159859 -0.66700518 0.055352457
-0.085421816 -0.22207673 0.65894008 -0.97543794 -0.17736165 -0.13062808 0.0086513003
-0.039734688 -0.35935751 0.86335635 -0.040870793 -0.99845225 -0.037718907 0.0027082886
0.064244017 -0.05268399 0.61635792 0.5042429 0.47681001 -0.71999401 0.050851561
-0.06969931 -0.31062701 0.65285093 -0.97760332 -0.17644325 -0.11471505 0.0088597666
-0.097365402 -0.054664254 0.63538045 -0.81864721 0.41327703 -0.39877176 0.077588081
-0.10944299 -0.058639634 0.6608637 -0.84832877 0.5264203 -0.056744929 0.10073478
-0.03645036 -0.080262318 0.59440756 -0.27397886 0.29854712 -0.91422379 0.071858414
-0.034178987 -0.19887136 0.79928744 -0.54562515 -0.12739533 0.82828957 0.0159868
-0.085212804 -0.19935209 0.71045583 -0.96520257 -0.11774735 0.23349412 0.01092372
-0.11308174 -0.076469176 0.6706953 -0.94486558 0.32492256 0.040674541 0.11174837
0.09505526 -0.055518039 0.72555429 0.42742977 0.87988126 0.20763615 0.033655327
0.018150577 -0.068190373 0.80136216 0.09914881 0.49749699 0.86178082 0.057975337
-0.041376997 -0.15470068 0.79738641 -0.48088109 -0.056974672 0.87493271 0.015217246
-0.021019252 -0.26112935 0.79821563 -0.57740635 -0.15558822 0.80149496 0.024079906
-0.044705655 -0.27371216 0.58612448 -0.69688809 0.055704966 -0.71501309 0.024928188
-0.16164617 -0.35839632 0.47260556 -0.039479908 -0.99855518 -0.036453195 0.0012283556
0.21001425 -0.36882418 0.93117291 -0.025823655 -0.99925941 -0.028527403 0.00068728207
0.034586597 -0.35964411 0.8207466 -0.13985687 -0.96099758 -0.23858716 0.043422684
0.077185139 -0.36521456 0.85748672 -0.03308532 -0.99925214 -0.020015134 0.002972499
-0.003363299 -0.069605403 0.79704601 -0.10569675 0.46205315 0.88053107 0.0580437
0.21970199 -0.36472419 0.76608026 -0.056452539 -0.99823815 -0.018266207 0.00049854047
0.21005967 -0.36533439 0.77652389 -0.056175914 -0.99804479 -0.027400581 0.00071455527
0.12566777 -0.36310011 0.74735135 0.69113958 0.34423685 0.63547385 0.040455796
0.034615397 -0.053362824 0.73006618 0.066675857 0.98432148 0.16329609 0.0071566603
-0.0019172039 -0.36159915 0.86050695 -0.06045527 -0.98645008 -0.1525171 0.004257346
0.014185211 -0.070208102 0.80222726 0.071530066 0.45517567 0.88752383 0.056427181
0.092070796 -0.34552273 0.76192522 -0.50634086 -0.74926049 -0.42688137 0.080615826
0.22555727 -0.36461291 0.75434536 -0.054132819 -0.99838668 -0.017134942 0.00034376379
0.04045324 -0.067520559 0.79419166 0.16716078 0.68618882 0.70795637 0.056418449
-0.071357027 -0.057415772 0.7138685 -0.3784045 0.9057554 0.190833 0.059100706
-0.071031787 -0.059973113 0.7363925 -0.41849101 0.85701698 0.30064467 0.044630487
0.12539347 -0.36728388 0.73710072 -0.55926532 -0.72263628 -0.40622544 0.039370775
0.21343039 -0.36392954 0.72007143 -0.061488457 -0.99798334 -0.015763355 0.001319034
-0.077206507 -0.060832161 0.74217808 -0.49175209 0.79257721 0.36055672 0.045767386
0.0412203 -0.068221614 0.7939555 0.168925 0.68920135 0.70460325 0.05605185
0.04608763 -0.048429556 0.66962039 0.1287332 0.99097162 0.037457462 0.033942517
0.069001652 -0.36400288 0.84545213 -0.10563646 -0.97989833 -0.16923401 0.029171102
-0.032374404 -0.062378686 0.77658504 -0.3477917 0.65645146 0.66941196 0.054899458
-0.082625769 -0.060045902 0.72416115 -0.60075384 0.74074608 0.30064946 0.063267127
0.05822888 -0.069455594 0.78741002 0.25082737 0.74513483 0.617948 0.053946398
0.067674004 -0.36295217 0.92981917 -0.039229285 -0.99919516 -0.0083786948 0.0020207807
-0.072845004 -0.35840142 0.86729014 -0.030711368 -0.99883926 -0.037107725 0.0016071603
0.063661657 -0.081637636 0.78655785 0.47221929 0.41095152 0.77982545 0.058218319
0.07411617 -0.3642523 0.78846633 -0.18830441 -0.95746142 -0.21865319 0.051808916
0.059467189 -0.36457422 0.87695664 -0.044097688 -0.99901897 0.0040644696 0.0020019212
0.058798466 -0.072419345 0.78938818 0.32378349 0.62143379 0.71343136 0.061612327
0.073679015 -0.046425149 0.63091618 0.56643379 0.65716004 -0.4972862 0.062788799
0.072119586 -0.064583503 0.76954275 0.26974016 0.87617975 0.39943627 0.032862879
0.17023024 -0.36298031 0.86338681 0.039387416 -0.99920595 0.0060051982 0.003556862
0.24210335 -0.36608607 0.7628414 -0.050875247 -0.99859107 -0.015089948 0.0003605533
0.14985736 -0.36315173 0.89789426 0.018312015 -0.99982172 -0.0045999088 0.0019363132
-0.03602466 -0.35934028 0.86564809 -0.042353146 -0.99845177 -0.036059778 0.0027344346
0.16977492 -0.36507934 0.84745568 0.0619707 -0.99788702 0.01952194 0.0021735602
0.20432553 -0.3613888 0.64170688 -0.15669584 -0.9876461 -0.0012611384 0.015771767
0.078222826 -0.064936861 0.76475501 0.30807236 0.8717612 0.3809512 0.034538232
0.080327258 -0.063266233 0.75996625 0.30164957 0.89823461 0.31965947 0.028972646
-0.072805159 -0.35950139 0.87138695 -0.026313553 -0.99907959 -0.03387608 0.0015062258
0.12658663 -0.1862901 0.66754037 0.97158855 0.2319864 -0.046882752 0.019817706
0.08057902 -0.36765647 0.87403458 -0.012825207 -0.99987197 0.0095726755 0.0025925245
-0.063638113 -0.36122209 0.94576722 0.027142383 -0.99894303 -0.037096381 0.0020565663
-0.14349583 -0.35929283 0.91804147 -0.021707179 -0.9996497 -0.015142381 0.0015032789
0.16171658 -0.36297739 0.90908897 0.03382957 -0.99935615 -0.011947886 0.0019918948
0.2682339 -0.3669253 0.74065048 -0.04069839 -0.99895495 -0.020797988 0.00026428539
-0.016784124 -0.36240995 0.95306766 -0.036365632 -0.99873036 -0.034859262 0.0023982716
0.096157081 -0.054519024 0.72157431 0.39583093 0.89883858 0.18816788 0.029440885
-0.14322971 -0.36018625 0.89141923 -0.016443223 -0.99956042 -0.024671296 0.0014160967
-0.12347154 -0.36050466 0.91157764 -0.012041707 -0.99962837 -0.024458097 0.0013885725
-0.15272708 -0.3595323 0.89270192 -0.029029856 -0.99928045 -0.024409289 0.0015817431
-0.10323164 -0.35949048 0.87760222 -0.0086692125 -0.99960858 -0.026599554 0.00096905959
-0.15792121 -0.35984758 0.87556159 -0.031548709 -0.99917936 -0.02540344 0.0013534969
0.066609077 -0.36382851 0.90124059 -0.037063051 -0.99927562 0.0086380998 0.0014266015
0.16689454 -0.3594718 0.63021231 -0.34970537 -0.93609887 0.037751243 0.076898918
-0.13389646 -0.35938129 0.92145514 -0.015958212 -0.99968421 -0.019409509 0.0015431428
0.21234351 -0.36427486 0.75483829 -0.057533607 -0.99819535 -0.017202506 0.00051037839
-0.077691048 -0.36071 0.96333045 0.025195263 -0.99857414 -0.047063809 0.0021894162
-0.09541776 -0.36023593 0.94261724 -0.00049548328 -0.99980903 -0.019536221 0.0012508535
0.21867263 -0.36323029 0.57982826 -0.044910643 -0.99893445 0.010629716 0.0015700372
0.10251676 -0.088019237 0.72902799 0.8844102 0.36085877 0.29597214 0.046458881
0.13577154 -0.3669216 0.96923536 -0.016793255 -0.99905288 -0.040141806 0.00024872663
0.049655251 -0.36576453 0.98350894 -0.058470655 -0.99600041 -0.067560829 0.0043379809
-0.017195376 -0.36254537 0.96277618 -0.039656311 -0.99858111 -0.035539392 0.0025615508
0.065400153 -0.36228731 0.95577985 -0.060951822 -0.99763685 -0.03170906 0.0049140914
-0.018231498 -0.36347249 0.97790527 -0.03756864 -0.99861979 -0.036701802 0.0030038566
0.073601447 -0.07111752 0.77524757 0.43249053 0.66388941 0.61008424 0.052101057
0.24626617 -0.36573082 0.75495219 -0.049875829 -0.9986257 -0.016100703 0.00032563054
0.28598332 -0.36806366 0.72911823 -0.0360149 -0.99910676 -0.022104027 0.00027888015
0.11102175 -0.17021294 0.73397833 0.89233029 0.23567879 0.38497031 0.019212643
0.00016249741 -0.34416801 0.78313404 -0.062115479 -0.94787753 -0.3125217 0.13966621
-0.0040545673 -0.073963955 0.80017346 -0.10790153 0.397183 0.91137421 0.051027667
0.091546699 -0.060655575 0.7383036 0.42726499 0.86057848 0.277217 0.029902874
0.29560146 -0.36852962 0.75847435 -0.031399574 -0.99941939 -0.013225919 0.00033087723
0.21478236 -0.36449641 0.73053008 -0.054870479 -0.99834949 -0.016957596 0.00044861366
0.13476305 -0.35116145 0.71440804 -0.35570493 -0.91567987 -0.18709426 0.060151543
0.091252379 -0.056933552 0.73518056 0.43775356 0.85566103 0.27607235 0.031136936
0.099356733 -0.36920193 0.8365621 0.0069473744 -0.99348199 -0.1137772 0.0080817211
0.078441218 -0.33762002 0.77093339 -0.26792035 -0.90952229 -0.3177858 0.10144429
-0.052533191 -0.058781754 0.71987522 -0.25867385 0.94646251 0.19312333 0.03412858
0.10037567 -0.06258592 0.71423131 0.62180543 0.77053332 0.14012972 0.046198998
-0.012858035 -0.31186104 0.79318136 -0.50336576 -0.17810753 0.84551799 0.094702177
0.26341444 -0.36643511 0.75408542 -0.042402007 -0.9989652 -0.016448488 0.00028637936
0.16980301 -0.35974082 0.53648216 -0.087458886 -0.99559414 0.033810198 0.0038723946
0.078384288 -0.079941966 0.77378964 0.50781435 0.56461793 0.650639 0.058114406
0.055549257 -0.36363655 0.81457114 -0.091575094 -0.96302617 -0.25336659 0.041316304
0.25119027 -0.36549956 0.74372435 -0.048379451 -0.99866366 -0.01817644 0.00030771512
0.097958453 -0.05393409 0.69469625 0.63185596 0.77305031 0.056135468 0.045460474
0.096139267 -0.053495217 0.69758642 0.60086644 0.79632163 0.069507934 0.0466839
-0.085111789 -0.062001642 0.73544312 -0.56145126 0.75576276 0.33703882 0.053904716
0.056461524 -0.36410567 0.96093553 -0.055562694 -0.99754131 -0.042710569 0.0033192544
0.095460944 -0.050631549 0.6811533 0.71492189 0.69888556 -0.02111146 0.051963981
0.32401246 -0.36822081 0.8319692 0.0094681932 -0.99995273 0.0021978691 0.00019405939
0.10833653 -0.17931338 0.74052012 0.8554191 0.12735575 0.5020346 0.019584309
0.24183083 -0.36237857 0.60046935 -0.035322282 -0.99928766 0.013281421 0.0015529738
-0.0046886588 -0.31245825 0.79407197 -0.44063491 -0.183697 0.87869006 0.10706323
0.16632827 -0.35694668 0.59962291 -0.34809974 -0.93314362 0.089830518 0.063832648
0.32313359 -0.36889273 0.85243481 0.012119374 -0.99992377 0.0023759108 0.00035605551
0.16466053 -0.35935831 0.62897742 -0.36909544 -0.92863047 0.037605338 0.082561262
0.052339654 -0.066674568 0.78667009 0.18506417 0.79375637 0.57939804 0.047684807
0.085985005 -0.06564422 0.75508243 0.32933798 0.88909858 0.31786796 0.032567646
0.23916507 -0.3650234 0.72102296 -0.052181881 -0.99842083 -0.020804217 0.00027335019
0.15023099 -0.36053002 0.51322335 -0.034745656 -0.99938744 -0.0041783811 0.0061853528
0.069763936 -0.36398232 0.89734608 -0.040353741 -0.99912643 0.010859907 0.0015478958
0.071707793 -0.068743698 0.77635735 0.36790806 0.73903316 0.56433463 0.047703221
0.065132558 -0.36570749 0.99846673 -0.0060197129 -0.9978916 -0.064622775 0.0039647277
-0.18545002 -0.35792571 0.86091197 -0.044832967 -0.99858963 -0.02844 0.0014111213
-0.16495569 -0.35924199 0.87202919 -0.032413103 -0.99914157 -0.025795991 0.0013675612
0.14015755 -0.36221442 0.70183575 -0.25949892 -0.95557517 -0.13977273 0.058741163
0.073456414 -0.36362776 0.90448976 -0.0030423563 -0.99994504 0.010031759 0.0012031879
-0.015456179 -0.051154062 0.6746369 -0.051093761 0.99746078 0.049612883 0.0018703217
0.057809472 -0.36540893 0.99612695 -0.06755656 -0.99537641 -0.06827835 0.0080012912
0.27729535 -0.36444455 0.58531517 -0.025000012 -0.99968249 -0.0031428423 0.0003573244
0.089078121 -0.061991554 0.74550563 0.33513293 0.89973992 0.2795603 0.027488699
0.079222128 -0.072839677 0.7703833 0.44774002 0.72722226 0.520266 0.048752047
0.26140997 -0.36652148 0.75109094 -0.043713849 -0.9988938 -0.01732634 0.00028747393
-0.049352322 -0.35722801 0.86687535 -0.036231477 -0.99883342 -0.031924192 0.0022383356
0.082775399 -0.045952961 0.64719957 0.67560303 0.63513243 -0.37438926 0.052212272
-0.10561972 -0.058621969 0.66883451 -0.80894512 0.58692729 0.033528674 0.10291615
-0.10109355 -0.058841739 0.6949085 -0.86811924 0.4439891 0.22190702 0.097763956
-0.10976212 -0.058915675 0.66767359 -0.83910215 0.5432176 0.028674101 0.10628868
-0.013625126 -0.29109618 0.80117148 -0.55454242 -0.21130259 0.80488133 0.039641716
0.096842818 -0.070982136 0.73381925 0.66909683 0.68025923 0.29926047 0.047660217
0.28393713 -0.36859867 0.8442477 0.013320611 -0.99990892 0.002145862 0.00031989138
0.28078732 -0.36778054 0.72510761 -0.036812514 -0.99909282 -0.021409953 0.00025343572
0.11233481 -0.17502481 0.73276329 0.91218919 0.19621296 0.35973781 0.01748614
0.089339897 -0.056715716 0.73967212 0.38673404 0.88266325 0.26710004 0.030216783
-0.1024543 -0.36036757 0.91126513 -0.0084143355 -0.99965286 -0.024968814 0.0011849597
0.098423421 -0.064834438 0.72409111 0.66110337 0.71172565 0.23746328 0.048388485
0.088262521 -0.046534952 0.66179138 0.77176774 0.59942406 -0.21228626 0.050917376
-0.018442672 -0.061052356 0.77003676 -0.19685023 0.81497616 0.5450356 0.057713378
0.063324101 -0.067496084 0.78171229 0.33205143 0.72676432 0.60129488 0.050551951
5.4957589e-05 -0.32544601 0.7889924 -0.39572713 -0.14878823 0.90623516 0.14026417
0.13314229 -0.36731476 0.97624487 -0.019294979 -0.99875468 -0.046008516 0.00023938272
0.16924703 -0.36554712 0.98246592 -0.017003929 -0.99913168 -0.038034599 0.0011202295
0.34315085 -0.36855534 0.80027896 0.0077559883 -0.99996763 0.0021326898 0.00013987282
0.32589367 -0.36880311 0.81507289 0.0068033487 -0.99997663 -0.0006806131 0.00024687615
0.20787983 -0.36506948 0.92044204 -0.025498701 -0.99945939 -0.020754825 0.00067576033
0.30590719 -0.36938304 0.8142795 -0.0044588917 -0.9999814 -0.0041578338 0.00033461838
0.32948741 -0.36850375 0.82734901 0.0087322062 -0.99996102 0.001306247 0.00020342406
0.31251153 -0.36892667 0.83655149 0.01157493 -0.99992907 0.0028127963 0.0002629071
0.30605549 -0.36864722 0.8423934 0.013548921 -0.99990624 0.0020231581 0.00025805604
-0.13952219 -0.35918725 0.87946886 -0.019337876 -0.99953079 -0.02375387 0.0011091462
0.30346468 -0.36935228 0.79040146 -0.027420973 -0.99961025 -0.0052307649 0.00030052059
0.20348494 -0.36429101 0.83103871 -0.053276844 -0.99852997 -0.0099734291 0.00048372673
-0.032742634 -0.12792055 0.80263811 -0.37713027 0.061935171 0.92408693 0.022051325
-0.0042077219 -0.31737602 0.79279941 -0.48203683 -0.11935215 0.86798358 0.14602868
0.25941479 -0.36858326 0.70339614 -0.04457552 -0.99870771 -0.024412267 0.00021353571
0.15185685 -0.36623576 0.96750259 -0.015771473 -0.99920321 -0.03666342 0.00092314894
0.16463895 -0.36341625 0.68617892 -0.21815954 -0.96179187 -0.16541712 0.04891254
0.27548239 -0.36461702 0.60171211 -0.031055255 -0.99951714 0.00096379954 0.00044814896
0.3068001 -0.36881489 0.75566435 -0.026945753 -0.99954027 -0.013898155 0.00032957579
0.29135928 -0.36766306 0.7197811 -0.034593355 -0.99918014 -0.021031056 0.00024822698
0.13348019 -0.23705707 0.69754678 0.97881007 0.14401862 0.1455662 0.0072319442
0.043621205 -0.36619037 0.9790836 -0.058470655 -0.99600041 -0.067560829 0.0043379809
0.32770282 -0.3688783 0.85132951 0.0092992717 -0.99995559 0.0015562782 0.00031048531
0.26775104 -0.36724782 0.76094288 -0.040646546 -0.99910557 -0.011659428 0.00028283725
0.2960158 -0.36861345 0.7380141 -0.031829689 -0.99930489 -0.019406674 0.0002824929
0.163911 -0.36343846 0.84618741 0.058522828 -0.99808222 0.020174719 0.0023001693
-0.055714492 -0.35985249 0.94620198 0.029384939 -0.99877894 -0.039713193 0.0021422254
0.31463149 -0.36933458 0.76257312 -0.024760615 -0.99960232 -0.013498394 0.00032464735
0.32112119 -0.36865261 0.71868849 -0.021046257 -0.99957591 -0.02012529 0.00016090889
0.33350921 -0.36932057 0.76085073 -0.0098384991 -0.99985254 -0.014070652 0.00019575331
0.29601794 -0.36496025 0.60102129 -0.028855491 -0.99952382 -0.010932726 0.00016325973
0.33789542 -0.36959136 0.76708078 -0.0049308753 -0.99992675 -0.011055096 0.0001903606
0.292853 -0.36928007 0.77469546 -0.033404466 -0.99940681 -0.0083748121 0.00032051664
0.2948778 -0.36539328 0.61748457 -0.029178657 -0.99946743 -0.014612497 0.00015981209
0.30652031 -0.36920694 0.79796404 -0.021546528 -0.99975741 -0.0045700525 0.00033122706
0.32563519 -0.36881253 0.72489339 -0.018262152 -0.99965239 -0.019015593 0.00017224519
0.31922311 -0.36704034 0.68525374 -0.016870433 -0.99956071 -0.024367042 0.00013191004
-0.019497318 -0.14673525 0.80920899 -0.33493742 -0.021733247 0.94198966 0.020398621
0.23534343 -0.36571771 0.76585585 -0.052509565 -0.99848044 -0.01671439 0.00034594189
0.22971855 -0.36506811 0.76412845 -0.053641208 -0.99840516 -0.017598232 0.00034719933
0.2410353 -0.36539963 0.75430179 -0.052035581 -0.99849045 -0.017583147 0.00034198983
0.059947249 -0.37768304 1.0080466 0.059399869 -0.99501896 -0.080055445 0.0079115741
0.066504382 -0.36358282 0.80091512 -0.13903202 -0.96056211 -0.24081239 0.049044542
0.20810637 -0.36441305 0.76885444 -0.05564053 -0.99815834 -0.024170008 0.000651123
0.031214198 -0.36197844 0.81915402 -0.14220756 -0.95891678 -0.24547029 0.042598885
0.30318058 -0.36936918 0.79839975 -0.024111642 -0.99969524 -0.0052986103 0.0003418242
0.046375819 -0.3650808 0.95505315 -0.061446279 -0.99755478 -0.033299033 0.0034822032
0.052056823 -0.36447009 0.87637073 -0.045680787 -0.99895597 -0.00046971248 0.002197054
0.049370874 -0.36767688 0.92193907 -0.048062842 -0.9988414 0.0023923959 0.0013646736
0.16317809 -0.36466897 0.9879989 -0.026882496 -0.99911368 -0.032391537 0.0012199365
-0.0002200931 -0.34004936 0.78396398 -0.023565192 -0.88476896 -0.46543375 0.16687748
0.28031215 -0.36793506 0.83878279 -0.0037134881 -0.99999285 0.00069698854 0.00052505545
0.26714534 -0.37164369 0.79733104 -0.039477747 -0.99920547 -0.0054611042 0.00027437226
0.34381482 -0.36864316 0.77013415 0.00011547088 -0.99996626 -0.0082140053 0.00014250321
0.33938894 -0.36873066 0.73922443 -0.014553957 -0.99974769 -0.017107304 0.0001310027
-0.088926017 -0.36045226 0.92450261 0.00065130868 -0.99988329 -0.015265238 0.0007550334
0.20983839 -0.36493921 0.77383816 -0.055730697 -0.99815309 -0.024178246 0.00062257383
0.31254381 -0.36916432 0.81419313 0.0026458385 -0.99999362 -0.0024003976 0.00025678641
0.16498917 -0.36463678 0.94398481 -0.011512552 -0.99932337 -0.034933344 0.00080258196
0.046848927 -0.36566439 0.95522618 -0.061354119 -0.99745208 -0.036401942 0.0035870883
0.048025295 -0.36592442 0.98345476 -0.058470655 -0.99600041 -0.067560829 0.0043379809
0.17416881 -0.36523479 0.9856832 -0.014392565 -0.99929601 -0.034647238 0.0011404352
0.15690169 -0.36611098 0.96843553 -0.015790507 -0.99920154 -0.036700726 0.000954288
0.1865025 -0.35840175 0.45082414 0.2292612 -0.96910322 0.090985022 0.0063571911
0.30408773 -0.36540654 0.61158931 -0.027928215 -0.9995122 -0.013972878 0.00017889599
0.29614678 -0.36483866 0.60272872 -0.02847972 -0.99952829 -0.01149343 0.00017845169
0.27409205 -0.36437899 0.58480936 -0.021200173 -0.99977428 0.0013944645 0.0012230022
0.21686077 -0.36323595 0.58000457 -0.05089388 -0.99865037 0.010348602 0.0016759253
0.20896888 -0.3655321 0.56372052 -0.054108039 -0.99833328 0.020075357 0.0019036675
0.30110538 -0.36875772 0.76268756 -0.029219618 -0.99948972 -0.012904072 0.00032949043
0.21344373 -0.3663235 0.58191955 -0.053158309 -0.99853259 0.010333451 0.0017396443
0.21328528 -0.36008197 0.63768595 -0.11206365 -0.99369472 0.0035348835 0.008119327
0.076909326 -0.25501817 0.57247698 0.38608053 0.053996474 -0.92088336 0.015035518
0.064418651 -0.35160774 0.56847715 0.26865003 0.43768451 -0.85805553 0.099388964
0.021812972 -0.13821006 0.58188009 0.13216141 0.20897253 -0.96894985 0.012396752
0.084296815 -0.26343238 0.57473737 0.41483337 0.038186356 -0.9090957 0.015496356
0.012351283 -0.045781344 0.60163945 0.072098352 0.69863439 -0.71183687 0.082172573
-0.0053965705 -0.053373668 0.59642416 -0.008117741 0.58055675 -0.81417936 0.080774598
0.068725005 -0.32375324 0.57644707 0.36554506 0.074976392 -0.92776901 0.043163739
0.0076266536 -0.15111521 0.58002573 -0.071660213 0.12443995 -0.98963606 0.0079364758
-0.0013392986 -0.0550621 0.59540051 0.0093176281 0.51333243 -0.85813928 0.060283892
0.036149763 -0.32700256 0.56702679 0.14895485 0.20007427 -0.96839184 0.038564693
0.02553032 -0.043912604 0.60297418 0.16480753 0.67059427 -0.72328538 0.056215513
0.0044621211 -0.14735375 0.5807088 -0.10567343 0.11566955 -0.98765057 0.0094478922
-0.013130332 -0.057772785 0.59672219 -0.048917208 0.57182825 -0.81891364 0.078499638
0.027894942 -0.17198613 0.57579029 0.075912647 0.14051579 -0.98716384 0.018621739
-0.021219252 -0.35260895 0.53525859 0.06074062 -0.88320786 0.46503177 0.10837298
-0.05789157 -0.35655144 0.48090404 0.01329247 -0.99990678 0.0031404826 0.0010993562
-0.015198043 -0.3232201 0.56678998 -0.23146504 0.441071 -0.86711031 0.10899371
0.010040157 -0.33595875 0.56245214 0.024028756 0.36730856 -0.92978871 0.073112667
-0.077041857 -0.052482016 0.61345196 -0.32647327 0.90378016 -0.27676097 0.051254295
-0.038521443 -0.049001791 0.60398978 -0.12304085 0.81659865 -0.56393933 0.095485933
-0.027648574 -0.046189174 0.60169971 -0.11695357 0.81206012 -0.57173431 0.09660133
-0.033297725 -0.044739287 0.60506338 -0.085508384 0.8840028 -0.45959488 0.091272995
-0.069122344 -0.35603735 0.43886375 -0.0047474494 -0.99998522 -0.0026449561 0.0011286617
-0.080616415 -0.18918714 0.63034636 -0.93998897 -0.13379402 -0.31387886 0.01706906
-0.06611836 -0.35646224 0.44865921 -0.0047725104 -0.99998516 -0.002647406 0.0010478196
-0.015311589 -0.049088638 0.60037339 -0.031243775 0.62907714 -0.77671468 0.088159174
-0.058734097 -0.054637384 0.6044727 -0.25217688 0.81778777 -0.51732957 0.068364508
0.0071706888 -0.26687399 0.56806922 -0.13079885 0.079531819 -0.98821372 0.014208909
-0.084539585 -0.052921019 0.61706108 -0.52860212 0.76199698 -0.37408608 0.067119248
-0.055412687 -0.31268921 0.59963334 -0.81937206 0.093287095 -0.5656209 0.087241836
-0.067422308 -0.35708559 0.55450273 0.25122085 -0.90682119 0.33847195 0.11262983
-0.06447459 -0.35444915 0.42643103 -0.0047341636 -0.99997354 -0.0055109453 0.0012732397
0.028537745 -0.3666122 0.54959154 0.099735104 0.69507635 -0.71198434 0.068664022
0.029961705 -0.13406679 0.58364689 0.22693276 0.23393595 -0.94539702 0.019761438
0.015680606 -0.23100166 0.56971675 -0.085832179 0.056242354 -0.99472094 0.0078115216
-0.04238756 -0.34890053 0.55733883 0.22571433 -0.85939312 0.45879894 0.15666704
-0.030711453 -0.13778284 0.58520198 -0.27151942 0.068501301 -0.95999205 0.013936331
0.065399967 -0.35516205 0.5679549 0.26786479 0.47079575 -0.84059489 0.1025413
0.0077691968 -0.16627577 0.57724667 -0.078439936 0.12069413 -0.98958582 0.0061243675
0.033954099 -0.1574266 0.57725728 0.18600492 0.17874373 -0.96615368 0.018452857
0.10428175 -0.16401273 0.62686425 0.77575213 0.19243799 -0.60097933 0.016537163
-0.064327888 -0.35577413 0.55804312 0.35767147 -0.86075157 0.36218476 0.135791
-0.023677776 -0.23138109 0.57674795 -0.49444017 0.14974011 -0.85621661 0.027030606
0.041169554 -0.14010268 0.58302957 0.35275084 0.2374752 -0.90508145 0.02087195
0.0156041 -0.092589915 0.58619773 0.10702056 0.26690513 -0.95776206 0.015963785
-0.011826673 -0.099769428 0.58895546 -0.10903304 0.20585269 -0.97248983 0.019979892
0.039060917 -0.042242628 0.60879666 0.28289321 0.65192014 -0.70354223 0.055723414
-0.0063966541 -0.11970876 0.58579564 -0.11291377 0.14605023 -0.98281217 0.0088700615
-0.014303583 -0.083231665 0.59244168 -0.055635989 0.29207924 -0.95477444 0.03744721
-0.012922106 -0.11744007 0.58557892 -0.15846923 0.13685031 -0.97783411 0.006695976
-0.06511879 -0.14795336 0.60288912 -0.62848544 0.051499173 -0.77611464 0.022987897
-0.0096263839 -0.09345156 0.58988899 -0.070144877 0.25000504 -0.96570045 0.030935884
0.0053190179 -0.14287625 0.58162808 -0.088344574 0.1208626 -0.98873019 0.0083083725
-0.016984396 -0.33781737 0.56142133 -0.14013304 0.48925748 -0.86080772 0.10917092
-0.024389978 -0.21113719 0.57958013 -0.44636565 0.11797904 -0.88703918 0.021541202
-0.03729663 -0.28633344 0.57913929 -0.60301942 0.15088406 -0.78332722 0.044219345
-0.040031496 -0.07085488 0.59752429 -0.29507342 0.4533889 -0.84105301 0.095270835
-0.029990815 -0.09368933 0.59448755 -0.17454639 0.22470403 -0.95866656 0.038312905
0.044464741 -0.051905759 0.60467088 0.33856058 0.5387795 -0.77142298 0.056480709
-0.026979238 -0.11358074 0.58558887 -0.19273269 0.12851241 -0.97279936 0.00741234
-0.065049887 -0.2761403 0.61368442 -0.851789 -0.041729819 -0.52222037 0.020792745
-0.062620685 -0.14278015 0.60207343 -0.58279306 0.038781252 -0.81169474 0.020383665
0.014452527 -0.13752268 0.5822705 0.053619329 0.18078859 -0.9820593 0.014313838
-0.078254446 -0.35453165 0.50203836 0.023537945 -0.9994604 0.022910373 0.0030916058
-0.018732918 -0.23768993 0.5745315 -0.4473328 0.12935913 -0.88496304 0.029461507
-0.028076438 -0.27603665 0.57416755 -0.50979489 0.12862705 -0.85062581 0.035941269
0.051613089 -0.047100052 0.61326718 0.34436467 0.68349999 -0.64361542 0.058789168
-0.038524132 -0.094597936 0.59594363 -0.22376651 0.1883695 -0.9562664 0.033751391
-0.079103835 -0.35531566 0.43167716 -0.0047507463 -0.99997383 -0.0054380526 0.0012425537
-0.15448821 -0.35657445 0.86325389 -0.032655299 -0.99913418 -0.025776569 0.0011870975
-0.11301281 -0.086553909 0.66641289 -0.98375082 0.17923021 -0.010532027 0.10076535
0.03283399 -0.16852164 0.57640982 0.094229802 0.14983013 -0.98421121 0.019338427
0.13515669 -0.35339022 0.58765173 -0.31250486 -0.89889032 0.30714336 0.11335561
-0.0062647834 -0.07169538 0.59227395 -0.010801688 0.35417888 -0.93511528 0.04661949
-0.049549643 -0.053185221 0.60435146 -0.19853309 0.8230927 -0.53207427 0.079628788
0.030637387 -0.31577688 0.56688708 0.11883316 0.12536834 -0.98496771 0.026926015
-0.015172684 -0.10858549 0.58841968 -0.16094987 0.15700568 -0.97439432 0.011465206
0.091286212 -0.35649487 0.53209794 -0.067962393 -0.96321815 0.25998467 0.046630174
0.16716424 -0.3598021 0.53558999 -0.080689311 -0.99623758 0.031621236 0.0037318133
0.14692834 -0.36039606 0.51343638 -0.021928506 -0.99975491 0.003027027 0.005543408
0.28951964 -0.36520222 0.57679009 -0.028192984 -0.9996025 4.3326581e-05 0.00025625099
0.0066505386 -0.087679692 0.58675331 0.06302122 0.28867766 -0.95534998 0.028201599
0.17942974 -0.36045426 0.4465431 0.2292612 -0.96910322 0.090985022 0.0063571911
0.13823161 -0.35984167 0.54963893 -0.12204034 -0.98034185 0.15503559 0.028780721
0.19024143 -0.3558031 0.45599082 0.18956038 -0.9797771 0.064061247 0.0067829597
-0.10725799 -0.064676553 0.69823521 -0.89796501 0.35150856 0.26476502 0.10061593
-0.075260408 -0.29146007 0.69193465 -0.97947907 -0.17720355 0.096018896 0.015811587
-0.091548122 -0.18356621 0.67919147 -0.98455113 -0.17116398 -0.036902443 0.010886025
0.0028239323 -0.36226034 0.85772532 -0.065597475 -0.97281194 -0.22211248 0.0094566699
-0.084558465 -0.061663345 0.73372608 -0.59096456 0.73134422 0.3404358 0.056453936
-0.095337883 -0.13604885 0.70655048 -0.95143437 -0.13349675 0.27740097 0.0097646704
-0.10791881 -0.058809388 0.68323499 -0.8237946 0.5555535 0.1127951 0.10299178
0.076798871 -0.36514783 0.85521537 -0.034657005 -0.99927014 -0.016064752 0.0031308911
-0.040183593 -0.15251572 0.79830617 -0.47882959 -0.050835151 0.8764348 0.014561485
-0.11162948 -0.065555051 0.67605013 -0.89288408 0.442835 0.08157967 0.11042347
-0.11034469 -0.07393793 0.69307703 -0.93200022 0.2753109 0.23575304 0.10295298
-0.10310223 -0.066461988 0.71079201 -0.88869596 0.34776255 0.29879877 0.079222046
-0.067622535 -0.076928191 0.78063017 -0.62907392 0.36476338 0.68645006 0.047432423
-0.077932529 -0.069824845 0.75980669 -0.67374396 0.4657537 0.57370943 0.046270005
-0.025003372 -0.070258476 0.79683316 -0.31695265 0.43588021 0.84234756 0.050107189
-0.045331467 -0.19574578 0.78893596 -0.58392024 -0.12548186 0.80205446 0.015011833
-0.057738878 -0.33417365 0.72012526 -0.92310816 -0.15959899 0.34985647 0.05787915
-0.078627832 -0.24595411 0.71368325 -0.95656437 -0.14437032 0.25326228 0.010800024
-0.062483724 -0.16759627 0.77628374 -0.7654174 -0.093006484 0.63677776 0.020856716
-0.070360184 -0.091210313 0.77812445 -0.68927264 0.23311162 0.68597531 0.042412732
-0.035491385 -0.17322412 0.80290043 -0.48658374 -0.093133129 0.8686555 0.022245416
-0.056717619 -0.35642135 0.48131287 0.01518053 -0.99987984 0.003139524 0.0011235849
0.061824739 -0.36408004 0.85526437 -0.059106279 -0.9971683 -0.046496514 0.0052520954
-0.034774579 -0.22513616 0.79266936 -0.59389096 -0.15895696 0.78868639 0.01866876
-0.066456787 -0.16926497 0.77132136 -0.82244211 -0.082068063 0.56289762 0.017890321
-0.077137388 -0.25531641 0.71436101 -0.94713485 -0.15114838 0.2830011 0.012145743
-0.034450378 -0.21341357 0.79505152 -0.56588161 -0.15459552 0.80986309 0.018892162
-0.080977365 -0.061215363 0.74334049 -0.52397138 0.76172411 0.38109091 0.047752861
-0.085394748 -0.059567455 0.71550226 -0.75967056 0.58794045 0.27789682 0.081541106
-0.067509197 -0.090396337 0.78220177 -0.66882962 0.24550806 0.70170701 0.044497706
-0.087673031 -0.20511493 0.7029044 -0.97696751 -0.1233045 0.17415637 0.01388839
-0.058496989 -0.18636566 0.77594829 -0.74694908 -0.1195657 0.65404212 0.022212211
-0.05632408 -0.25652781 0.75707835 -0.84079331 -0.19518456 0.50494504 0.0029998163
-0.058914125 -0.34269792 0.71500129 -0.93482596 -0.15681383 0.3186062 0.067351304
-0.074597873 -0.066121474 0.76444209 -0.56069088 0.62525636 0.54284453 0.040782012
-0.03865153 -0.18572591 0.79777384 -0.5357573 -0.10651997 0.83762622 0.018001417
-0.058026869 -0.083382152 0.7895546 -0.55634469 0.3300356 0.76259893 0.049456723
-0.037917648 -0.15331958 0.80021274 -0.47295183 -0.051255558 0.87959617 0.014521483
-0.083271228 -0.068719424 0.75297135 -0.64041537 0.58835554 0.49366581 0.043403283
-0.015135575 -0.060226563 0.77248496 -0.19617712 0.77768332 0.5972631 0.056712016
-0.10088748 -0.071200997 0.72775251 -0.88913947 0.29068539 0.35345855 0.061518088
-0.043271799 -0.34105936 0.74677712 -0.82008392 -0.11578986 0.56040615 0.085501112
-0.09813235 -0.13501705 0.69833821 -0.96646339 -0.14068244 0.21484129 0.011019107
-0.044536419 -0.18158972 0.79250878 -0.53958571 -0.11887269 0.83349663 0.018784959
-0.048305456 -0.26605847 0.76385319 -0.83263886 -0.19041762 0.5200516 0.0028501535
-0.050690167 -0.067361295 0.7919513 -0.45041829 0.50015432 0.73957354 0.054888487
-0.044222735 -0.34864438 0.74571449 -0.82718325 -0.067739196 0.55783439 0.096326858
-0.056262001 -0.27867776 0.74873602 -0.84976637 -0.16210043 0.50161797 0.0063606948
-0.089727327 -0.062911831 0.72892493 -0.76596546 0.5405196 0.34804529 0.061105143
-0.037847679 -0.17830691 0.79954606 -0.52653408 -0.10965148 0.84305304 0.020281872
-0.022893779 -0.3152695 0.77881122 -0.59736222 -0.22187355 0.77066892 0.086757071
-0.085518658 -0.065997906 0.75535971 -0.61986321 0.62659603 0.4723843 0.043449178
-0.048304204 -0.29089782 0.7546581 -0.83863258 -0.14357299 0.52543521 0.023844128
-0.060260992 -0.14960301 0.78040987 -0.68048906 -0.06130543 0.73018914 0.020414893
-0.11136752 -0.068914793 0.68445307 -0.92334968 0.3423281 0.17388736 0.10873692
-0.071435131 -0.092789404 0.77632618 -0.70068693 0.2272689 0.67630368 0.042208366
-0.097057506 -0.064120628 0.71887362 -0.87041765 0.37865305 0.31463462 0.069816343
0.12473835 -0.36105576 0.73721749 0.67230856 0.52410764 0.52279294 0.040796272
-0.070354469 -0.3095611 0.70299143 -0.96868426 -0.17371143 0.17741247 0.024339747
-0.049459074 -0.34782478 0.73796946 -0.8413896 -0.11122422 0.52885979 0.074529566
0.081449077 -0.37111187 0.77576244 -0.22921905 -0.94309497 -0.24089494 0.056444637
0.02206246 -0.045034353 0.60269791 0.13462521 0.68683028 -0.71424103 0.062585935
-0.11231216 -0.080200769 0.68478531 -0.95118958 0.22953665 0.20628001 0.10731487
-0.10080248 -0.068618886 0.7222538 -0.89246362 0.30590931 0.33155426 0.067952804
-0.052728884 -0.28713596 0.75023949 -0.85072464 -0.13836522 0.50707269 0.018703103
0.071531922 -0.28115764 0.78969043 0.37858918 -0.1005924 0.92008233 0.011983123
-0.077280179 -0.27352318 0.70396334 -0.97189152 -0.17425464 0.15831062 0.013483547
-0.0095309569 -0.072110549 0.79860467 -0.13749254 0.41780862 0.89807117 0.051181041
-0.071274094 -0.29414621 0.71058816 -0.94758713 -0.16168137 0.27556801 0.018128121
-0.089799248 -0.20709467 0.6924445 -0.98596793 -0.15482375 0.062424228 0.01562092
-0.058314148 -0.35621288 0.42330444 -0.0032834483 -0.99994522 -0.0099398289 0.0013403067
-0.10568108 -0.11888636 0.67386997 -0.99502009 -0.090134315 0.042555518 0.033581953
-0.047993612 -0.20897281 0.78108877 -0.67003298 -0.16401443 0.72398555 0.015029553
-0.039878245 -0.35648412 0.52696794 0.063611113 -0.96318191 0.26121676 0.079329059
-0.087824084 -0.17253427 0.70991904 -0.96197134 -0.11713263 0.24676134 0.0092338799
-0.022208765 -0.12781216 0.80676824 -0.33702528 0.06201335 0.93945104 0.023084972
-0.051768694 -0.18306169 0.78431344 -0.62661958 -0.11945608 0.77011567 0.020310955
-0.078067921 -0.24537486 0.71545643 -0.94739699 -0.1428495 0.28641403 0.010859113
-0.053397976 -0.34957364 0.72145015 -0.90989673 -0.13953902 0.3906621 0.080293454
0.057709347 -0.3641271 0.854536 -0.074225202 -0.99508196 -0.065593801 0.0091395928
-0.046262186 -0.34494939 0.56729424 -0.43236107 0.64872533 -0.62627429 0.16842899
-0.058283962 -0.17278858 0.77975088 -0.7128793 -0.088801123 0.69564176 0.026326722
-0.058420606 -0.20706289 0.76943868 -0.83971041 -0.16111422 0.5185833 0.007256832
-0.051702604 -0.24807163 0.76571876 -0.82884449 -0.19096474 0.52587944 0.0029461228
-0.086048707 -0.22616361 0.70155954 -0.97827882 -0.13886526 0.15390565 0.016022336
-0.050814118 -0.068088852 0.79188639 -0.45041829 0.50015432 0.73957354 0.054888487
-0.046184074 -0.062340852 0.79227728 -0.41685241 0.55016994 0.72356552 0.05638421
-0.065070853 -0.29620132 0.62211245 -0.93521184 -0.094993964 -0.34110838 0.023456797
-0.024633259 -0.09841989 0.80368716 -0.30703169 0.17355169 0.93574107 0.029703557
-0.052816007 -0.2380891 0.76726413 -0.82396847 -0.19226882 0.53301829 0.0032218827
-0.064866602 -0.31245327 0.71719718 -0.92589742 -0.14982373 0.34679517 0.042777196
-0.10040896 -0.067716934 0.72082895 -0.88911462 0.32547364 0.32177943 0.069848746
-0.022191701 -0.31886524 0.77836394 -0.60707283 -0.2165274 0.76457727 0.09526781
-0.043337297 -0.19472213 0.79089922 -0.57355863 -0.12528104 0.8095277 0.014105831
-0.052709688 -0.35295898 0.73324192 -0.85318053 -0.095763773 0.51274961 0.081654698
-0.088528626 -0.19727774 0.70055604 -0.97874755 -0.11810873 0.16764098 0.013946635
-0.06423372 -0.19091871 0.76726449 -0.85018581 -0.12294948 0.51192534 0.0095866853
-0.10616587 -0.073150739 0.71256566 -0.90488809 0.29791579 0.30401272 0.079518609
-0.088339716 -0.18992658 0.70134962 -0.97453743 -0.13093595 0.18202366 0.013105421
-0.07565929 -0.24082828 0.72243899 -0.93319231 -0.13784696 0.33188894 0.0083615677
-0.087449707 -0.22600357 0.68739802 -0.98444372 -0.17539802 0.010304991 0.014277894
-0.029548708 -0.34772801 0.75799155 -0.70151305 -0.23581305 0.67251152 0.12005821
-0.10264142 -0.058697846 0.69226509 -0.87111032 0.44376054 0.21034117 0.099873401
-0.097460471 -0.15241224 0.67160583 -0.98177546 -0.16620398 -0.092158951 0.011981252
-0.058846198 -0.29981583 0.60371375 -0.86597741 0.062151611 -0.49620584 0.058521096
-0.065199628 -0.17791918 0.77016884 -0.8354066 -0.081167564 0.54360622 0.015973559
-0.06317351 -0.3465924 0.66551489 -0.98115122 -0.18469614 -0.056830376 0.015987888
-0.07262329 -0.28753552 0.71020132 -0.95277143 -0.16810542 0.2529175 0.013948659
-0.026285795 -0.35170469 0.76158875 -0.67132324 -0.31910697 0.66895139 0.13829695
-0.099995434 -0.12980847 0.69692379 -0.9676494 -0.11583328 0.22413681 0.018301718
-0.08848206 -0.17035662 0.71264559 -0.9575488 -0.11986522 0.26216924 0.007800953
-0.056676485 -0.16499764 0.78240365 -0.65478885 -0.09970697 0.74920624 0.021313464
-0.014900575 -0.35469279 0.77015799 -0.40887648 -0.78795755 0.46037254 0.15131114
-0.071291625 -0.060426526 0.76049387 -0.51625574 0.68909162 0.50855947 0.039291091
-0.044523466 -0.25969252 0.77081877 -0.80461246 -0.2050921 0.55725759 0.0066089649
-0.03050907 -0.14211977 0.8041504 -0.39417222 -0.011382854 0.91896605 0.015290779
-0.0024945475 -0.34944442 0.77705085 -0.29771671 -0.77120858 0.56267416 0.13412943
-0.092824049 -0.065659672 0.73628938 -0.81030101 0.41684532 0.41188857 0.050455105
-0.068141155 -0.06213687 0.7729249 -0.51890701 0.63320053 0.57427573 0.045218501
-0.054323059 -0.22351316 0.76970065 -0.82868677 -0.17699289 0.53099126 0.0042081075
0.068992414 -0.36394149 0.84763086 -0.08239679 -0.98456573 -0.15440565 0.028177699
-0.075559296 -0.26589569 0.71349233 -0.94765604 -0.15469348 0.27931717 0.012033449
-0.09253139 -0.14271174 0.71014631 -0.95159918 -0.16848226 0.25704643 0.0054278709
-0.030303804 -0.27895549 0.7816388 -0.70565349 -0.19657986 0.68074197 0.01852536
-0.026407894 -0.07328143 0.79876316 -0.31877989 0.4128519 0.85318971 0.050130546
-0.04669093 -0.31691545 0.747518 -0.8277036 -0.14125912 0.54309547 0.043928478
-0.070823185 -0.30448297 0.70673347 -0.96207249 -0.16419609 0.21784435 0.02311263
-0.063018799 -0.23558365 0.75279522 -0.86920345 -0.16453521 0.46627623 0.0052397777
0.0086331293 -0.070514224 0.80006033 0.018176289 0.46475109 0.8852548 0.057192598
-0.10706694 -0.10346763 0.69333118 -0.96192735 0.038924243 0.27051935 0.086871959
-0.040949039 -0.27309147 0.77021891 -0.80609059 -0.18587378 0.56184423 0.0081342394
-0.054185841 -0.35292351 0.72581506 -0.88583189 -0.1238509 0.44717196 0.082128435
-0.082362615 -0.24681674 0.70176506 -0.97519457 -0.16930518 0.1425879 0.014887608
-0.015719688 -0.07918001 0.80216408 -0.21494754 0.31941977 0.92291307 0.041958641
-0.016893569 -0.32155511 0.78360945 -0.52711093 -0.16359322 0.83390123 0.10933839
-0.03221979 -0.16559394 0.80490077 -0.45917568 -0.070371754 0.88555378 0.021934442
-0.023166362 -0.12585376 0.80690312 -0.3322686 0.067829832 0.94074261 0.023375588
-0.023052016 -0.29964441 0.78355819 -0.6241222 -0.1919245 0.75738788 0.05246431
-0.013448392 -0.12600477 0.8099981 -0.29578006 0.073989414 0.95238632 0.0247306
0.012650172 -0.088507541 0.80652595 0.03594866 0.28933001 0.95655417 0.040233791
-0.074526764 -0.099754609 0.76966178 -0.74502438 0.16512805 0.64627498 0.04002646
-0.040446807 -0.072141975 0.79320502 -0.41195393 0.47198281 0.77943963 0.058784019
-0.065914504 -0.065608427 0.77663815 -0.52149791 0.60374582 0.60293519 0.047049515
-0.037301797 -0.12178984 0.79990518 -0.38370112 0.073123388 0.92055774 0.022586903
-0.067331672 -0.1472753 0.77389461 -0.7737031 -0.062191028 0.63048857 0.020665053
-0.038739063 -0.11569542 0.80004901 -0.39344358 0.089303054 0.91500115 0.024846436
-0.10009247 -0.064089999 0.71741301 -0.87262022 0.37815967 0.30907786 0.071523607
0.24193946 -0.36541411 0.75318503 -0.052280728 -0.99848753 -0.017010368 0.00032731757
-0.038497686 -0.16689728 0.79975271 -0.48891994 -0.077363245 0.86889142 0.019250223
-0.026004152 -0.083757333 0.80151922 -0.30751255 0.26867104 0.9128263 0.042658761
-0.026522908 -0.31706667 0.7736218 -0.67856711 -0.20362301 0.70575088 0.07961069
-0.062989667 -0.18633257 0.77072585 -0.83449847 -0.10199981 0.54148722 0.014382513
-0.086390488 -0.21701311 0.70361638 -0.97736353 -0.12003545 0.17421839 0.014320051
-0.10178591 -0.13138989 0.67755193 -0.98974323 -0.14140864 0.020296566 0.010784678
0.055379 -0.32939437 0.78192019 -0.23230946 -0.89961594 -0.36976144 0.10919099
-0.092545196 -0.092796609 0.72026193 -0.93044907 0.094865844 0.35392791 0.059675608
-0.027825342 -0.29785809 0.77827555 -0.67897522 -0.17860353 0.71210492 0.044425495
-0.049062289 -0.27689195 0.75940245 -0.84134579 -0.16687086 0.5140928 0.0081114527
0.012478318 -0.07026346 0.80227607 0.058469724 0.45112848 0.89054161 0.056895897
-0.11042576 -0.061664168 0.67057616 -0.85062391 0.52329928 0.050959688 0.1072708
0.042205825 -0.047660578 0.60711545 0.32469419 0.57398272 -0.75174296 0.057981879
-0.080266818 -0.061545499 0.74508184 -0.57009917 0.70986682 0.41361344 0.044950087
-0.16631109 -0.35638857 0.51308113 -0.032294225 -0.99947792 -0.0010382419 0.00057804573
-0.067544669 -0.31704673 0.70623064 -0.95534855 -0.1870791 0.22871494 0.027653703
-0.071221791 -0.26774588 0.63271695 -0.9426012 -0.15964001 -0.29328847 0.015739908
-0.037058067 -0.069430284 0.79260826 -0.37495103 0.51713657 0.7694034 0.057234515
-0.019720212 -0.26654327 0.79780281 -0.60178202 -0.1716349 0.77999991 0.024759168
0.061816096 -0.23695046 0.79524702 0.42691156 -0.022239413 0.90401989 0.010986208
-0.032560293 -0.18305434 0.80294502 -0.48914596 -0.10844767 0.86543363 0.024664331
-0.1098783 -0.10217424 0.67607117 -0.99265087 0.024044307 0.11860042 0.086073644
-0.028283484 -0.15956762 0.80602413 -0.43672499 -0.057795919 0.89773661 0.021576826
0.24831356 -0.36602029 0.75869662 -0.049172029 -0.99865782 -0.016269257 0.00036999944
-0.084473431 -0.18772028 0.71298277 -0.9579969 -0.11819878 0.261287 0.0087098293
0.0050665881 -0.06871669 0.79956645 -0.012629109 0.47365254 0.88062131 0.055729348
-0.094802439 -0.12484004 0.71529746 -0.93236661 -0.059833799 0.35652822 0.028155148
0.011262236 -0.065020278 0.79998326 0.061722707 0.50151038 0.86294705 0.056630917
-0.030054457 -0.17108648 0.80669749 -0.46037444 -0.081718288 0.88395554 0.022554295
-0.086635761 -0.16460215 0.71737814 -0.94846618 -0.13664481 0.28590217 0.0067847311
0.069535568 -0.31774694 0.78258079 -0.3183167 -0.7666564 -0.55759513 0.16699728
-0.0019468382 -0.068402514 0.79595798 -0.084383093 0.47681323 0.87494493 0.057201181
-0.04521592 -0.17506815 0.79292315 -0.54279423 -0.10842616 0.8328374 0.017752206
-0.063843802 -0.33857888 0.70220375 -0.95879787 -0.22405596 0.17465849 0.043290142
-0.061171047 -0.35642284 0.45034194 -0.0044828299 -0.99998868 -0.0015759048 0.00087608886
-0.078552142 -0.23459317 0.71868503 -0.94487101 -0.13309403 0.29917341 0.0090846643
-0.034297392 -0.12878139 0.80173516 -0.3846176 0.058447901 0.9212237 0.022314839
-0.096112177 -0.1629567 0.67570603 -0.98023111 -0.17346059 -0.09517552 0.0094735678
-0.070459992 -0.30282176 0.65774947 -0.98003209 -0.17468308 -0.094988592 0.0086473254
0.026505161 -0.19112392 0.80844635 0.01693462 -0.092508502 0.99556792 0.022613725
-0.0080968281 -0.35499868 0.77134103 -0.37594923 -0.74143273 0.55582339 0.13297786
0.016784521 -0.084284946 0.80557644 0.079077132 0.32095504 0.94378746 0.046578027
0.0093048271 -0.34694412 0.78376824 -0.10037654 -0.96031219 -0.26024044 0.12085126
-0.030235581 -0.22630931 0.79747409 -0.58087486 -0.15921463 0.79827011 0.019038567
-0.038645193 -0.35958067 0.86037284 -0.042629037 -0.99841988 -0.036613233 0.002934675
-0.11445484 -0.35729444 0.79260319 0.0067703626 -0.99997687 0.00070263329 0.0024048293
-0.083846651 -0.23463748 0.70517594 -0.97334909 -0.14487864 0.17776857 0.014099836
-0.086978398 -0.21667376 0.66109592 -0.97682619 -0.17610349 -0.12164776 0.0090998113
-0.10055954 -0.13991238 0.67502022 -0.98507971 -0.16843688 -0.03531374 0.0089452388
-0.055797115 -0.20880675 0.77188873 -0.82474697 -0.16280216 0.54156071 0.0099613396
-0.046745043 -0.35288316 0.76075387 -0.789617 0.010709147 0.61350656 0.1307286
-0.10176563 -0.067444451 0.71585298 -0.893471 0.32534003 0.30961841 0.074168183
-0.020749729 -0.13176723 0.80819672 -0.32504871 0.030835979 0.94519442 0.017458793
-0.020324983 -0.35679331 0.76366717 -0.6004709 -0.47735065 0.64153808 0.12330619
-0.074714877 -0.12936836 0.7632724 -0.80889934 -0.018905649 0.58764309 0.015845645
0.22982529 -0.36488008 0.75946116 -0.053676188 -0.99841297 -0.017042447 0.00032569192
-0.065600954 -0.35666552 0.76039749 0.36658782 -0.87447709 -0.31765249 0.15464528
-0.0274221 -0.25149345 0.79244995 -0.59107673 -0.17177489 0.78811282 0.02235226
-0.096313961 -0.16483146 0.66938847 -0.97652376 -0.17021404 -0.13201724 0.011380314
-0.044849008 -0.2068987 0.78603208 -0.62526178 -0.15759984 0.76433629 0.017800653
-0.044289339 -0.35715517 0.86721259 -0.038497038 -0.99872106 -0.032775044 0.0023397852
-0.11201812 -0.36048055 0.92203832 -0.0080360686 -0.99966764 -0.024494395 0.0015958765
-0.10535455 -0.36012486 0.89555848 -0.011571543 -0.99970067 -0.021555854 0.001051015
-0.10742953 -0.3602832 0.90702921 -0.0067179748 -0.99961376 -0.026967037 0.0012411128
-0.032243092 -0.35888711 0.86588389 -0.046163116 -0.99837404 -0.033440746 0.0028828287
-0.061195243 -0.33662271 0.71214062 -0.93923849 -0.18163505 0.2912727 0.057476986
-0.070110105 -0.17359374 0.76448929 -0.85137665 -0.083902195 0.51780134 0.013872708
-0.057435237 -0.31121305 0.73254126 -0.89003366 -0.13051809 0.4368124 0.041115798
0.028500913 -0.20377003 0.80802161 0.061167888 -0.078575864 0.99502987 0.0271459
-0.046755306 -0.35744146 0.86620396 -0.038105041 -0.99865919 -0.035041183 0.0023409424
-0.057678778 -0.30003622 0.73719949 -0.86683464 -0.11912847 0.48415515 0.03342285
-0.068896927 -0.20278867 0.75379354 -0.87978804 -0.14654724 0.45221329 0.0067354194
-0.067839645 -0.12586612 0.77798033 -0.73665696 0.020461382 0.67595696 0.020255283
0.32203621 -0.36678311 0.67726564 -0.014353465 -0.99959123 -0.02472383 0.00011440286
-0.067574188 -0.059425518 0.76715702 -0.49158508 0.69023681 0.53095883 0.040303934
-0.13697779 -0.35793468 0.77721131 -0.012856839 -0.99931484 0.034705445 0.0023677906
-0.025329137 -0.18895374 0.80405331 -0.48789674 -0.10003917 0.86715001 0.02274476
0.39733201 -0.3699345 0.68479341 -0.024471344 -0.99942136 -0.023626264 0.00029178394
-0.06156541 -0.2052144 0.76619321 -0.84856087 -0.15960117 0.50445211 0.0063851411
-0.14412415 -0.35731265 0.80093962 -0.028922224 -0.99940908 -0.018568017 0.0013318253
-0.016799686 -0.35013068 0.77042347 -0.60297883 -0.31990337 0.73080653 0.14852647
-0.038389251 -0.21599275 0.79030615 -0.59424233 -0.15777326 0.78865939 0.018192539
-0.13261387 -0.35835099 0.77261436 -0.009362136 -0.9994393 0.03214832 0.0027737964
-0.13653477 -0.35777026 0.75994223 -0.027514983 -0.99958569 -0.0084448196 0.00096230721
-0.096526556 -0.35957935 0.91075766 -0.0076611778 -0.99968648 -0.023837565 0.0011187983
-0.037108604 -0.25362593 0.78120852 -0.78252637 -0.19820611 0.59022605 0.0064757457
0.13230665 -0.20555532 0.65878564 0.94760358 0.18181542 -0.26266062 0.012249097
0.10887014 -0.088711999 0.67080534 0.9458738 0.27957922 -0.16479744 0.01605198
0.13944669 -0.2710622 0.66895562 0.9451564 0.12154484 -0.3031604 0.005525935
0.1489531 -0.35523424 0.66816229 -0.35836819 -0.9071573 -0.22053967 0.092177533
0.14049345 -0.3032558 0.64050388 0.86324346 0.15635423 -0.47996253 0.050169379
0.066651985 -0.12079348 0.5971778 0.52642137 0.17363426 -0.83230513 0.013471166
0.10698625 -0.12267039 0.64225948 0.90024918 0.21937858 -0.37606451 0.009630234
0.10128563 -0.23922484 0.5926277 0.61958903 0.18086393 -0.76380467 0.021839645
-0.056501344 -0.35695928 0.47915757 0.01329247 -0.99990678 0.0031404826 0.0010993562
0.14062078 -0.30919456 0.6406936 0.86530036 0.17753474 -0.46876091 0.066033751
0.12889202 -0.30740425 0.61633074 0.78627896 0.15425131 -0.59830749 0.057804074
0.13899277 -0.31468305 0.63737547 0.84890276 0.16278633 -0.50285661 0.068577647
0.14893229 -0.35438591 0.65553969 -0.43107867 -0.9022063 0.013963717 0.11825587
0.094935529 -0.1861766 0.61316448 0.66656822 0.24551032 -0.70385474 0.015553704
0.15124448 -0.36470142 0.49221393 -0.003198765 -0.99998611 0.0041906973 0.006488278
0.11515234 -0.20374236 0.62362093 0.83700275 0.19381842 -0.51172328 0.0080998885
0.057240795 -0.36009449 0.56244254 0.22634676 0.57462716 -0.78649271 0.09846504
0.1001242 -0.15966041 0.62287807 0.72867328 0.17770594 -0.66140443 0.013879354
0.10308672 -0.29459381 0.58879638 0.60805535 0.048488151 -0.79241246 0.035564523
0.11861303 -0.28100109 0.60357887 0.72423124 0.0695628 -0.68603945 0.027064202
0.11714004 -0.2998741 0.60167587 0.69230902 0.080815159 -0.71706146 0.042028118
-0.018117432 -0.35375202 0.53430152 0.030723793 -0.88582516 0.46300098 0.10643694
0.13759699 -0.28745848 0.64014447 0.85715383 0.13962418 -0.49577448 0.027562806
0.087792017 -0.33891383 0.58316988 0.47684371 0.16266224 -0.86380613 0.0638946
0.097301327 -0.34316516 0.59122521 0.58351618 0.22507881 -0.78028738 0.074946932
0.051784169 -0.36472771 0.95384234 -0.061446279 -0.99755478 -0.033299033 0.0034822032
0.081192821 -0.25633097 0.57327718 0.39288005 0.055287894 -0.91792625 0.016204357
0.11484658 -0.28729609 0.5984332 0.69335544 0.065015428 -0.71765679 0.033608459
0.0025999385 -0.33113644 0.56503993 -0.039376747 0.40694848 -0.91260195 0.080908023
0.11496416 -0.34573519 0.5993042 0.65951407 0.33840781 -0.67120886 0.10430186
0.065678917 -0.32374766 0.57481527 0.31817201 0.081183456 -0.94455057 0.040647998
0.049316194 -0.29470989 0.56947589 0.22383766 0.058098331 -0.97289324 0.017574394
