# .PCD v0.7 - Point Cloud Data file format
VERSION 0.7
FIELDS x y z
SIZE 4 4 4
TYPE F F F
COUNT 1 1 1
WIDTH 1396
HEIGHT 1
VIEWPOINT 0 0 0 1 0 0 0
POINTS 1396
DATA ascii
-0.048035379 -0.043277059 0.58713049
-0.076499999 -0.09718439 0.63701081
-0.04148275 -0.08941789 0.5574168
-0.062961429 -0.1928302 0.61455917
-0.018549619 -0.00082051748 0.52142513
-0.039976511 -0.040275961 0.55407691
-0.039432079 -0.1178492 0.56947899
-0.007609427 -0.2126088 0.47150251
-0.037606422 0.002861887 0.57176048
-0.01070175 -0.2922923 0.48455179
0.16179711 -0.017874669 0.53324223
-0.04939327 0.0091981441 0.57324851
0.093606681 -0.2287277 0.50483721
-0.0044047241 -0.14023259 0.4859446
-0.06286642 -0.02069914 0.61583602
-0.068726897 -0.1003432 0.63076198
-0.091168851 -0.25787649 0.66824567
-0.03748155 -0.1661659 0.53422439
-0.060545091 -0.076115496 0.59899259
0.077472508 -0.1713853 0.48905891
-0.01502979 -0.003685609 0.49684519
0.1555739 0.0065571219 0.53470421
-0.025258539 -0.092834309 0.51643962
-0.02016601 0.01337926 0.52759981
-0.062509328 -0.257119 0.61295182
-0.041661561 -0.13284829 0.56579208
-0.063938648 -0.2232611 0.57958782
-0.076549172 -0.2480112 0.60973638
-0.044544369 -0.230307 0.56534749
-0.0203653 -0.01082505 0.50855368
-0.01380324 -0.035553489 0.48678231
-0.054968148 -0.04441167 0.59033912
-0.01363987 -0.29655039 0.4689742
0.17778289 -0.27536529 0.53974938
0.1044916 -0.1480819 0.5071342
0.01537902 -0.195878 0.47508761
0.02694683 -0.2436928 0.47806731
0.053040829 -0.21852981 0.48734951
0.051182471 -0.23810001 0.48616341
0.026814559 -0.208461 0.4793393
0.076807559 -0.1101985 0.4982329
0.041695882 -0.22020251 0.48918989
0.02009717 -0.055229329 0.47301501
0.09275452 -0.21651269 0.50199652
0.18933199 -0.2125982 0.54167348
0.17979871 -0.2174506 0.53260511
0.18856549 -0.220153 0.54036337
0.1748299 -0.28349361 0.53461868
0.1746597 -0.29707241 0.53853238
0.19685841 -0.2737301 0.56340063
0.1928429 -0.1759737 0.54221457
0.1508186 -0.2264736 0.52814698
0.18915249 -0.214371 0.54315329
0.12825561 -0.084093623 0.51729709
0.1879722 -0.2204607 0.54044259
0.17446131 -0.28547809 0.53510922
0.1515252 0.0064008851 0.52707249
0.075794823 -0.079602852 0.49751991
0.09166564 -0.2173654 0.50343221
0.12914141 -0.2380257 0.51609308
0.079291917 -0.049514811 0.50106877
0.134776 -0.080424093 0.52204669
0.049880199 -0.22045191 0.48922521
0.071577169 -0.2359872 0.4977904
0.0491434 -0.24060629 0.48812139
0.0099534746 -0.26062119 0.4783358
0.1796255 -0.1384262 0.53873438
0.097553611 -0.2226907 0.50731522
-0.016612491 -0.2495487 0.47040799
0.008327039 -0.19745819 0.47871989
0.05464983 -0.1653772 0.49186751
0.072316423 0.0030843411 0.49920169
0.1571535 -0.045139141 0.53340602
0.15486979 -0.075313047 0.52987278
0.085771747 -0.082373053 0.501252
0.082355618 -0.083012953 0.50188261
0.07476943 -0.1431857 0.50722301
0.065365419 -0.022893419 0.49576089
0.0563518 -0.1370182 0.49031821
0.01067135 -0.14482149 0.47297609
0.085005693 -0.2309514 0.50473338
0.1348917 -0.1116033 0.52392572
0.040547632 0.00131231 0.4837442
0.09755446 -0.066702656 0.5086928
0.01092445 -0.15659121 0.47324479
0.1699053 -0.1772273 0.53538901
0.177085 -0.0070793158 0.53790891
0.097745061 0.002779379 0.50776082
0.049405981 -0.01083412 0.48935139
-0.025236489 -0.29474041 0.47995761
0.087255791 -0.2569291 0.50397933
-0.01850057 -0.29083991 0.4678067
-0.01035411 -0.1928442 0.4704006
0.15208711 0.003871792 0.52813327
0.18227939 -0.035076279 0.53603309
0.13645729 0.0074820281 0.52434051
0.1638567 -0.01521211 0.52973431
0.069653891 -0.0155907 0.492549
0.071809307 0.01082834 0.50028253
0.05834341 -0.023739301 0.4920882
0.04752557 -0.2413144 0.48819569
0.037231959 -0.3120766 0.47667721
0.16200221 -0.075914592 0.52183223
0.029493369 -0.1767741 0.4799625
0.2376954 -0.29829949 0.55821472
0.01130915 -0.2008975 0.47309619
0.1813162 -0.056964658 0.54061401
0.1571434 -0.069394387 0.52356559
0.1760187 -0.01672975 0.53747702
0.1433357 0.0045975652 0.5225721
0.147815 -0.01418877 0.52428472
0.1721282 -0.1469688 0.54379278
0.075119667 0.0073275091 0.49820331
0.06096103 0.0080740284 0.49309269
0.028032141 0.0094882594 0.4845123
0.05389693 0.0074077249 0.48860309
0.0358072 -0.034277901 0.4892858
0.062207639 -0.061996229 0.49473879
0.097530931 0.0058447309 0.50641519
0.085341372 -0.04460416 0.50741363
0.081307814 -0.1108299 0.50584459
0.0076025082 -0.26380679 0.4782711
0.075414069 -0.2294392 0.49361679
0.025384869 -0.2098947 0.48216
0.076798283 -0.109681 0.49900079
0.076598398 -0.1441576 0.50529128
0.006940966 -0.2464056 0.48049781
0.0088117914 -0.28425011 0.47434899
0.17352299 -0.1150344 0.53723139
0.01243603 -0.2112941 0.4894805
0.075168833 -0.080404751 0.49883449
0.044687569 -0.02072149 0.48347989
0.1214793 0.003242814 0.51282501
0.026018411 -0.02531606 0.48208201
0.022291681 -0.026729669 0.47789291
0.05513791 -0.16575301 0.49536461
0.01056462 -0.1410237 0.47217309
0.16350131 -0.066425711 0.53478801
0.1253055 -0.053876281 0.52284873
0.079664759 -0.23057321 0.50341618
0.089500047 -0.300174 0.51337928
0.092340887 -0.04482758 0.50735688
0.0097419154 -0.082250863 0.46915689
0.080450222 -0.14670891 0.4998087
0.032317821 -0.210089 0.48690349
0.083900869 -0.2119166 0.50153601
0.0273745 -0.2139865 0.47683069
0.1671496 -0.12611941 0.53712422
0.053147301 -0.002622735 0.4917101
0.09285184 -0.26472771 0.50715822
0.2227097 -0.2986609 0.56358671
0.18107951 -0.003454525 0.54820251
0.1641847 0.01338691 0.62818712
0.38749641 -0.2809585 0.90836662
0.1966148 -0.06093004 0.56293023
-0.001800529 0.01150892 0.57899839
0.1469596 0.006403144 0.5310477
0.073594578 0.01121601 0.65911639
0.0056305872 0.01269388 0.52924281
0.01728373 0.01075044 0.69079119
0.1504188 0.01271448 0.53749663
0.03666126 0.0085867839 0.50762349
0.002352485 0.01450602 0.70434171
-0.01382653 0.0146903 0.70334142
0.04326741 0.0098051997 0.65907031
0.0299013 0.01096753 0.5763377
0.1293589 0.0094632059 0.56365961
0.1760474 0.016225331 0.61770529
-0.02403539 0.016879341 0.6048702
0.081136279 -0.0055913818 0.50716388
-0.018498531 0.01108075 0.62553269
0.11976 0.0044255881 0.52004242
0.081723534 0.0086706327 0.74085993
0.079615347 0.0077410522 0.50888509
0.079513423 -0.001356959 0.50185841
0.1672892 0.0058401679 0.5324223
0.143851 0.0097283553 0.55974072
0.1386469 -0.04839161 0.5306319
0.17426731 -0.221248 0.5328142
0.12932409 -0.23864371 0.51606667
0.0083473353 0.009789627 0.52908242
0.052208912 0.0096842162 0.51110011
-0.00051096728 0.01048199 0.53108323
-0.062302351 0.01287748 0.62404579
-0.029019309 0.0092583038 0.61474031
0.13135231 0.01110655 0.55194402
-0.01866528 0.01283244 0.62059879
-0.085349023 -0.1779179 0.654414
-0.08973299 -0.17137019 0.66386122
-0.058228452 -0.091199704 0.59608507
-0.06219184 -0.12972289 0.5999065
0.13427889 0.0096628033 0.53178757
0.1712738 0.01167361 0.5732792
0.1025971 0.01083352 0.59274518
0.099619597 0.0091572097 0.55671817
0.1793236 0.01212215 0.56362963
-0.04517027 -0.02721661 0.55087781
-0.051857851 -0.065393627 0.57231992
-0.090683527 -0.1702217 0.6728372
0.1433112 0.0098319352 0.55195087
-0.01398566 0.01073219 0.51163578
-0.05369667 0.01106639 0.60904467
0.17524759 0.01169196 0.53318071
0.19881681 0.008657706 0.54532182
0.03203382 0.01051066 0.57058197
0.067959212 0.0116655 0.5574947
0.02218895 0.01378709 0.6344735
-0.047856782 -0.028702101 0.5477739
-0.030914521 0.01045952 0.52070892
-0.082533263 -0.076400198 0.65141582
-0.057892319 -0.1112947 0.58404303
-0.042093001 -0.058993939 0.54559171
0.1680678 0.01210128 0.58117539
0.03686823 0.01247561 0.52669001
0.094446927 0.01240191 0.6189822
0.1246681 0.0086575486 0.56655067
0.04782185 0.0148332 0.55465198
0.00065206131 0.01580292 0.69375092
-0.071874052 -0.01225298 0.62128162
-0.061109722 0.01254997 0.64368153
-0.064074673 -0.088316202 0.61841422
-0.044818949 -0.06447915 0.56404972
-0.085008971 -0.2090594 0.67062259
-0.09570986 -0.26425329 0.67282468
0.1404044 0.01281814 0.62809622
-0.059823241 -0.12969559 0.59538078
0.064306222 0.01145328 0.64732301
0.084294438 0.01101845 0.6954841
-0.04580985 -0.089898057 0.55644
0.15835661 0.01151427 0.60198218
0.083165333 0.01131078 0.64502329
-0.001179309 0.01005956 0.51665258
-0.075206727 -0.065760963 0.61513311
-0.069113448 -0.006985039 0.62090439
-0.01515211 -0.001235301 0.49064961
0.1431338 0.01385563 0.58693278
-0.021374861 -0.0056259139 0.49649259
0.1307146 0.020134401 0.60785669
0.009181601 0.01078485 0.58615029
-0.079367429 0.01067023 0.64981258
-0.02974382 -0.01995129 0.51694733
-0.071361288 -0.024418861 0.62089008
-0.02065384 0.009016607 0.5004003
-0.086942174 -0.2171682 0.66156888
-0.077633724 -0.25764501 0.62389553
-0.073327653 -0.1009207 0.63005698
0.086768202 0.01309309 0.53021002
0.1172896 0.01285825 0.61682951
0.040237758 0.01199227 0.58379221
0.05478251 0.0090671182 0.57066572
-0.017317681 0.01440971 0.5260936
0.1530008 0.01465956 0.62794799
-0.00060252869 0.0155044 0.59099787
0.1605546 0.01214645 0.53296238
-0.04857108 -0.099014543 0.56677443
-0.066737197 -0.093798429 0.60206193
0.1067741 0.01511893 0.68737841
0.1287479 0.001966995 0.67344481
-0.058883712 0.01384556 0.63584769
-0.015673051 0.01234445 0.63675708
-0.066585302 -0.1269246 0.60114682
-0.070325159 -0.16131119 0.61574912
-0.003295728 0.0091102179 0.50522399
-0.070799462 -0.136268 0.61517811
-0.042589799 -0.076344348 0.54892677
-0.039363269 -0.05464381 0.54640043
0.01966707 0.0091144964 0.51229179
-0.03303992 -0.035658229 0.5293678
-0.05927531 -0.1500451 0.58824939
-0.081882477 -0.07445778 0.65334851
-0.025017081 -0.01269973 0.50776321
0.15682741 0.0113351 0.56160527
-0.025284531 0.0048865252 0.50791621
-0.019755909 -0.03657252 0.48390049
-0.0154135 -0.006395644 0.47883749
-0.067625463 -0.167197 0.60250932
0.13600761 0.01145306 0.57772487
0.1198228 0.01439637 0.72180092
0.066429026 0.0085391356 0.50270218
-0.0059191501 0.0087619871 0.67441362
-0.077562086 -0.01010245 0.61819351
-0.081969023 -0.1844947 0.6684534
-0.06220372 -0.1190344 0.60179043
-0.05777353 -0.089284673 0.59590608
-0.080175668 -0.2563253 0.62502801
-0.05134533 -0.094839931 0.57078809
0.026873739 0.01359434 0.60360289
-0.032867141 -0.082702361 0.52081352
-0.032404471 -0.057040859 0.52093011
-0.0311384 -0.02949219 0.52003068
0.01595524 0.01168201 0.492183
-0.046239469 0.01079241 0.60731691
0.1320979 0.0073394049 0.54454798
0.088111289 0.01140717 0.72552532
0.1013699 0.015924521 0.53290081
-0.024778919 0.0088532725 0.61994398
0.075753212 0.0093837418 0.64970303
-0.03917082 0.004906558 0.53620207
0.088767447 0.01046683 0.65280157
0.14638001 0.016262971 0.62114912
0.1030384 0.01550551 0.60981542
0.058695879 0.01672668 0.6445803
-0.047587179 0.01298461 0.56775522
0.1120848 0.01497522 0.58937752
-0.062675782 0.01532852 0.62537301
-0.05768735 0.01079686 0.60075802
0.04553245 0.0090954294 0.64199913
0.032553971 0.0093097761 0.52847958
0.033808831 0.01422286 0.6386596
0.007942142 0.0117935 0.64450812
0.12710699 0.01276395 0.6916461
-0.039127771 0.0128519 0.66205633
0.00052726391 0.01047153 0.70611888
0.0072873579 0.01645704 0.71215069
0.048214421 0.01271985 0.71190929
-0.065612197 0.0045480062 0.69163048
0.1285561 0.0080528166 0.54914129
-0.087538563 -0.13713031 0.67723072
-0.02748232 0.01223108 0.63548791
-0.04368462 -0.076006621 0.69767243
0.021689311 0.01235949 0.64155519
0.022911441 0.01498109 0.53131127
0.077535987 0.01297313 0.5589931
0.023050079 0.01211388 0.65534532
-0.083047323 -0.01293136 0.67888421
0.1107777 0.01315182 0.61760819
0.097085036 0.01614704 0.6903581
0.069689967 0.0090341903 0.69556111
0.071743332 0.01304203 0.734393
0.033963379 0.01193866 0.6639902
0.03095429 0.0137451 0.57466167
0.0221563 0.01598173 0.59811211
0.087209687 0.01284394 0.69557959
0.039699521 0.01421127 0.57798588
-0.04025244 0.01319631 0.63092709
0.1507671 0.0143985 0.65001142
-0.084427513 0.020266609 0.66956627
-0.019431509 0.01117046 0.69632721
-0.081748009 -0.063596718 0.67797941
-0.075842977 -0.0078918468 0.6867938
-0.002362045 0.01141796 0.53379631
-0.086771332 -0.2181019 0.64286733
0.1055043 0.01058085 0.55734003
0.0060910578 0.01540411 0.66842562
0.01236499 0.01787745 0.71114469
-0.002452048 0.01511798 0.69792461
0.07337226 0.0087049184 0.60363942
-0.05295663 -0.191798 0.54710662
0.1032258 0.01074785 0.56235611
0.062770471 0.0086282492 0.71875751
0.12912311 0.01444707 0.60059148
0.16504911 0.01477037 0.60746759
-0.025426971 -0.28577921 0.4679037
0.071188733 0.01522416 0.72624397
-0.071206987 0.001411474 0.68771511
-0.01366271 0.01417077 0.50199288
0.1762556 0.01759124 0.54319328
0.034901921 0.01485401 0.65459108
0.036548872 0.01493731 0.58471048
0.063098118 0.01375765 0.6950646
0.040396079 0.01359964 0.71020722
0.091701731 0.01823408 0.7330333
0.1018663 0.01165034 0.7346155
0.14338011 0.01315775 0.6678195
0.1076684 0.0154849 0.72359133
0.1004537 0.01511318 0.72854352
0.052285191 0.0067028832 0.50692922
0.068027653 0.01073034 0.73508477
-0.0050021792 0.0095187668 0.70796371
-0.020871781 -0.044322051 0.70440978
-0.040726289 -0.1217344 0.69987547
0.025861509 0.0067364369 0.6675365
0.1128512 0.0129761 0.71025032
0.068251811 0.0016836131 0.66685861
0.02115516 0.0082763936 0.71845299
-0.05593301 0.003702393 0.69260508
0.023052629 0.0095049804 0.71690708
-0.1000494 -0.2558381 0.6746003
0.087505333 0.0059088338 0.74089909
0.092964813 0.0095245102 0.57050598
-0.1804073 -0.29521191 0.38614181
0.1545562 0.01480468 0.65930188
-0.16641 -0.2943995 0.36386469
-0.1942521 -0.29719451 0.4391948
0.1523459 0.016402969 0.62864351
-0.14794099 -0.3019276 0.51624697
-0.088585421 -0.29689541 0.2495877
-0.0057872301 0.01089541 0.49951079
-0.028291291 -0.28359339 0.4821085
-0.0059429649 0.01401743 0.57870728
0.042955019 0.01382457 0.65523797
0.1494482 0.01048024 0.66370642
0.061398879 0.01287649 0.69952869
0.1223068 0.0118724 0.72138262
-0.072665527 0.01310344 0.6380893
0.1196279 0.01286481 0.59713352
0.0067806989 0.01360905 0.52291071
-0.15054239 -0.2922357 0.52714998
-0.093378618 -0.30207711 0.4699944
0.035380218 0.01279016 0.69558263
0.01145721 -0.1707703 0.72308087
0.069358677 -0.04022472 0.73747063
0.02623583 -0.098355077 0.71940488
-0.01636021 -0.1666991 0.70482069
0.04077651 -0.1232451 0.73096079
-0.062250189 0.01091501 0.60599887
-0.081964336 0.002432232 0.68485469
-0.18013141 -0.2994341 0.39912891
0.070601359 -0.085879311 0.73700511
-0.086993352 -0.066649221 0.67617708
-0.2613962 -0.29245651 0.51874071
0.01413077 -0.29615501 0.3132956
-0.090035602 -0.2282504 0.67928952
0.070784062 -0.042234059 0.73636401
0.037369121 -0.04509449 0.72246069
-0.030210581 -0.1837012 0.70679408
0.1646025 0.017894579 0.6402458
-0.01189274 -0.1366798 0.70788342
-0.097355023 -0.3007496 0.4475702
-0.044867579 0.01111342 0.67606091
-0.067146949 -0.066247992 0.68575293
0.05385197 -0.2070712 0.73922282
0.09047664 -0.1509431 0.75229639
-0.052651819 0.01400944 0.58358902
0.057807509 -0.1574429 0.73906291
0.076730482 -0.095153794 0.73557591
0.02806484 -0.083387449 0.72429979
-0.02590555 -0.058562528 0.69988209
0.090519004 -0.092069067 0.75418591
-0.1080121 -0.29174241 0.63759959
0.094795123 -0.09296529 0.75283962
-0.089469932 -0.1449534 0.6736325
0.040868871 -0.054072849 0.72331208
-0.03055967 -0.01144404 0.70009422
0.070125841 -0.19226789 0.74453151
-0.091958702 -0.074472241 0.66471058
0.1086713 -0.28166121 0.75769359
0.077685997 -0.2309579 0.75472581
-0.059277169 -0.1184924 0.58762401
-0.093906216 -0.29955149 0.67271829
0.03082514 -0.080208763 0.72716582
-0.062748954 -0.069994166 0.68476868
-0.089263923 -0.24153399 0.66943258
-0.02684856 -0.18395001 0.7076872
0.075955667 -0.1539546 0.74215877
0.1242736 -0.082497858 0.74736983
-0.095311753 -0.27425849 0.67028183
0.058781851 -0.1872516 0.73907322
-0.0008970357 -0.171445 0.71926832
0.13187841 -0.2359899 0.68859541
0.1730611 -0.16093691 0.60805643
0.1700132 -0.27176189 0.6316309
0.20017061 -0.053335451 0.55457079
0.179932 -0.1880827 0.59852469
0.12541319 -0.2146564 0.7374807
0.1977589 -0.1236822 0.54806048
0.19560529 -0.25916201 0.5506478
0.13599791 -0.22451849 0.70719862
0.1880964 -0.1387516 0.56663072
0.1804862 -0.047892582 0.5827468
0.175374 0.0056177392 0.59025788
0.17086969 -0.0080421008 0.58704609
0.1696859 0.01208171 0.62571943
0.19583599 -0.1111089 0.55836111
0.1097611 0.01746917 0.59606421
0.061622381 0.0095461914 0.497742
0.1708955 0.01231557 0.55122668
0.077650487 0.01503062 0.64862651
0.1954834 -0.091523163 0.55831069
0.1284516 -0.1444571 0.71669209
0.080467932 0.01304484 0.5153048
0.1243797 0.017606299 0.7024616
0.175317 -0.2284431 0.60943979
0.1821574 -0.078845628 0.58331847
0.1920307 -0.2043868 0.5647639
0.1882233 -0.1269027 0.53806198
0.1997297 -0.29499409 0.73456722
0.02922928 -0.2789408 0.47639501
0.1064303 -0.29962859 0.4923135
0.1502099 -0.05605986 0.67639601
0.1374035 0.0040517249 0.53540307
0.084199183 -0.081212386 0.50784302
0.043441739 -0.045426439 0.48318341
0.1752477 -0.27667531 0.53578901
0.080133297 -0.170589 0.5033074
0.1990996 -0.1452698 0.55964398
0.18004049 -0.2593331 0.52646458
0.1438528 -0.20238221 0.66607201
0.1563438 -0.16150931 0.67168403
0.12984081 -0.093606383 0.71903348
0.16673429 -0.1866004 0.62584323
0.18326791 -0.047647499 0.58309132
0.1446479 -0.074639641 0.52099711
0.1771155 -0.1201108 0.53308332
0.1469388 -0.133357 0.521227
0.167495 -0.001575871 0.6342504
0.1253323 -0.1170332 0.73737413
0.1940973 -0.0093362853 0.53914601
0.094124623 -0.2110012 0.50119388
0.17635711 -0.1505933 0.53368592
0.1721089 -0.041827701 0.63415688
0.074330293 -0.098628007 0.496259
0.12565181 -0.068339594 0.51385242
0.1619309 -0.087666564 0.6429916
0.1464287 -0.1942872 0.6619128
0.12887099 0.0045993309 0.6015082
0.09356913 0.02581213 0.55240548
0.1690651 -0.2230593 0.53332138
0.1338468 -0.092341341 0.67977762
0.183825 -0.1882448 0.52994013
0.203027 -0.076930463 0.54790092
0.138917 -0.25749451 0.70053709
0.04574566 -0.01044963 0.48612359
0.08770138 -0.043337669 0.5056473
0.087094523 -0.3075563 0.45567521
-0.68049002 -0.54821271 0.22110049
0.09978091 -0.023225291 0.50696439
0.002184659 -0.30877909 0.3017793
0.1782375 -0.057830252 0.62167889
0.074338809 -0.1331457 0.49724141
0.091421217 -0.16332451 0.50414318
0.082771301 -0.070989683 0.4953109
0.2188523 -0.30188021 0.45735171
-0.063589312 0.01122141 0.64630532
0.15187649 -0.05900738 0.67590231
0.019275671 0.01387466 0.52710181
0.074703261 -0.1263603 0.49205911
-0.0076787472 -0.1880092 0.46811461
0.03756861 -0.1502075 0.4780356
0.05414087 -0.087022401 0.4859097
0.1749133 -0.1636845 0.58446091
0.1415668 -0.16985101 0.7380392
0.08501932 0.01323723 0.60666221
0.2013192 -0.15494411 0.55056942
0.063920893 0.0092998054 0.50429368
0.1112258 0.01639837 0.52389848
0.073657028 0.01551438 0.6873669
0.1446148 0.0137454 0.54527688
0.134827 0.01411348 0.54081798
0.1503962 0.01000653 0.53910291
0.206717 -0.1810257 0.5496369
0.2021146 0.01228272 0.54763031
0.1104499 0.01495049 0.62028247
0.1592387 0.017626241 0.62687671
-0.02876202 0.0142945 0.65404731
0.01047597 0.01214262 0.52730572
0.08839184 0.01312119 0.65527231
0.19692349 -0.063699409 0.55769712
0.1256461 0.015672451 0.69549108
0.2005281 -0.1261808 0.55290842
0.091404967 0.0132593 0.61488909
0.097149238 0.01353706 0.55236667
0.18287361 0.001101356 0.58945602
0.093166247 0.01343754 0.57438272
0.2005741 -0.29524821 0.55443043
0.16163559 0.01680419 0.65288299
0.02541624 0.01188164 0.53884798
0.1722694 0.01437457 0.57083547
0.091720328 0.017065261 0.60489762
0.193792 -0.056517702 0.57267869
0.1404611 -0.1702144 0.70547563
0.1895514 -0.2723234 0.58966398
0.2006678 -0.25543371 0.55103022
-0.0096797589 0.01061969 0.49869779
0.084083237 0.01310269 0.51533991
0.1884667 -0.044070419 0.58325207
0.063260473 0.01526177 0.66708589
0.1572655 0.01438598 0.65095568
0.19399311 -0.1216776 0.56077951
0.20457131 -0.01199204 0.5467214
0.1731572 0.01608724 0.58881831
0.1978242 -0.13303401 0.56565863
-0.0068040448 0.016034311 0.53088689
0.1195398 0.01357932 0.72508907
0.1214523 0.01678073 0.71373051
0.19274519 -0.21828429 0.57564127
0.1519126 -0.2690343 0.68632561
0.1480297 -0.24956641 0.69888222
0.2044847 -0.057184901 0.5478785
0.1754676 0.01139318 0.53791088
0.2011707 -0.18067341 0.55152768
0.19974791 -0.004179406 0.55842489
0.20032389 -0.173337 0.56052059
0.2030421 -0.106024 0.55548489
0.18766659 -0.2569721 0.60165852
0.1099947 -0.2839044 0.75514477
-0.0001014038 0.01255047 0.6208877
0.20130441 -0.1664079 0.55740368
0.1985976 -0.1909394 0.56072903
0.1995721 0.01509346 0.54651028
0.1898199 -0.1483347 0.59910822
0.2036847 -0.1792293 0.54931599
0.085893683 0.01289095 0.54151058
0.13763081 -0.1460505 0.72818619
0.19921321 -0.1603114 0.56201899
0.19825371 -0.2200861 0.55110979
0.15701351 -0.2566267 0.67189711
0.1406514 -0.1521688 0.7062512
0.1937165 -0.12768529 0.57978898
0.19248 -0.2703183 0.57787311
-0.022702049 0.009239113 0.61615688
0.1246065 0.01128515 0.55349422
0.14688291 0.01512618 0.66683078
0.091920003 0.01780395 0.67650938
-0.04719761 0.01704987 0.62219459
0.1964771 -0.056024119 0.56936538
0.18809099 -0.2283601 0.60047519
0.041711129 0.01562171 0.71122879
0.1765039 -0.25471699 0.61871958
0.1197188 -0.1698108 0.74329978
-0.00032680621 0.01540828 0.6923883
0.1991262 -0.29617801 0.54904419
0.1468178 -0.27596539 0.72947538
0.0094513334 0.01982102 0.54875481
0.1460067 0.01454732 0.54946321
0.1238851 0.0192277 0.6893881
0.1947926 -0.170623 0.57487983
0.089496367 0.018316161 0.64096922
0.1762453 -0.27446839 0.62787861
0.193749 -0.093818322 0.57321852
0.2013575 -0.26074499 0.55655283
0.1954568 -0.097841382 0.56899601
0.1441521 -0.15651689 0.71205258
-0.076628342 0.01448205 0.659513
0.1053755 0.0157356 0.58869642
0.2014479 0.01249048 0.55753207
0.1993479 0.0044421488 0.55102819
0.18764891 -0.016984111 0.58341992
-0.01380886 0.01621753 0.50930941
0.1527541 0.01255443 0.68558502
0.02585136 0.006595531 0.61135387
0.19916829 -0.2545954 0.55218732
-0.02477701 0.02023177 0.51025689
0.026154891 0.01247856 0.70440233
0.0026663081 0.01653247 0.6447078
-0.04912338 0.01674906 0.67787868
0.198778 -0.2193331 0.54860139
0.15317971 -0.037612889 0.68216091
0.130005 -0.072066143 0.73530447
0.1633454 0.0062591392 0.6710856
0.1873422 -0.001602295 0.58411533
0.1371558 -0.1300841 0.72786409
0.060526852 0.01271041 0.63929123
0.13143881 0.01765229 0.61794788
0.007655716 0.01378869 0.54820979
0.1497428 0.01752069 0.58670378
0.1552106 -0.046657789 0.67466569
0.1398302 -0.1629687 0.70245671
0.1592229 -0.017918959 0.67024499
0.19394401 -0.1738196 0.5717445
0.12869 -0.055554561 0.73760021
0.1943665 -0.01409194 0.58248061
0.0089129107 0.01167383 0.58065552
0.04074388 0.0084257033 0.52180451
0.069705106 0.01361884 0.65418279
0.1910211 -0.14768881 0.58233768
0.079543069 0.0150879 0.69486213
0.1402936 -0.1946246 0.71542603
0.030484861 0.01493052 0.4819259
0.14825749 -0.04256396 0.68460947
0.18904211 -0.078854568 0.58983219
0.1274316 -0.1260823 0.74647027
0.202411 -0.1336977 0.55589563
0.1363837 0.01794949 0.69523442
0.1816332 -0.2344144 0.58489579
0.091252387 0.01418123 0.6341958
0.16050459 0.01372447 0.63646609
0.01060693 0.01387625 0.70402092
0.1545974 0.02065775 0.65346932
0.1960568 -0.06110511 0.5797013
0.1967285 -0.027230389 0.57454622
0.19770411 -0.1416126 0.57098663
0.12768871 -0.2046994 0.74171537
0.20255829 -0.065073676 0.5579378
0.05971181 0.01200369 0.64296418
0.1204046 -0.071550123 0.74487919
0.14041901 -0.032000609 0.72804362
0.1056442 0.01438188 0.56220239
-0.0076296669 0.016137591 0.61135602
-0.04115906 0.01277697 0.60576671
0.01465452 0.01913147 0.5940994
0.1921047 -0.26185289 0.53900391
0.1200956 -0.1527642 0.74744672
0.1585059 0.020761 0.62970382
0.1252455 -0.1376318 0.74386817
0.203853 0.0024951061 0.55654138
0.1903716 -0.0019882009 0.58312422
0.091775917 0.01290153 0.51700252
0.1350224 -0.1234849 0.73028553
0.1913614 -0.1857786 0.5838635
0.19478799 -0.046993129 0.57847142
0.13585781 -0.031406809 0.70635158
0.080454998 0.0127377 0.71479642
0.1611675 0.01451783 0.65398282
0.1140791 0.01809681 0.7211749
0.15594921 0.0068213441 0.66880071
0.163167 -0.016390201 0.67327207
0.1297546 0.01233726 0.55858213
0.1454037 0.01646062 0.57733607
0.12575039 0.017744171 0.57716632
0.065856449 0.01534404 0.55791599
0.17220791 0.0090506952 0.55787468
0.2037022 -0.055953741 0.55590057
0.19080471 -0.076335743 0.58305448
0.1773684 -0.2806752 0.61655629
0.1171845 -0.28087461 0.7502861
-0.0053594182 0.017330499 0.59571421
0.1220469 -0.1721459 0.74989343
0.1833832 -0.26044881 0.60396528
0.1448691 -0.0123734 0.68705451
0.1336333 -0.16134609 0.73943412
0.155651 -0.01160376 0.67220259
0.1423941 -0.1155911 0.6945926
0.1426584 -0.06828206 0.70520842
0.1491572 0.01060731 0.55222929
0.19465341 -0.1763819 0.58183759
0.043997619 0.01190976 0.65304792
0.1335998 0.01370489 0.66767591
0.1447769 0.019188549 0.67544281
0.1349778 0.016492261 0.71197999
0.15564661 0.01524454 0.67797709
0.1241713 -0.096297972 0.73763281
0.1301595 -0.051032171 0.73530358
0.1293142 -0.094878621 0.73573518
0.05186392 0.01168458 0.48984411
0.0087178387 0.016708899 0.48582181
0.121138 0.01371113 0.56030673
0.1185059 0.01240373 0.57624489
0.151226 0.01130568 0.53413242
0.16905829 0.01692239 0.53481758
0.1395293 -0.1343195 0.71537149
0.101649 0.01688239 0.57994169
0.189752 -0.1105867 0.59040618
0.1906351 0.0084017124 0.56867248
0.072812177 0.01390221 0.71600181
0.1253448 -0.01757602 0.73529798
-0.060611699 0.01285865 0.64261848
0.1860888 -0.24525151 0.5310787
0.2058318 -0.1110498 0.56077272
0.1421701 -0.1406295 0.69707131
0.1223367 -0.1165055 0.75375348
0.223749 -0.29195589 0.56123221
0.1462044 0.0034355191 0.69364363
0.1396137 -0.071065918 0.70554882
0.19437949 -0.1611886 0.58113599
0.26572341 -0.29393411 0.4129492
0.13487069 0.0092981486 0.71565282
0.1354346 -0.3064065 0.4377974
0.19418029 -0.2468019 0.54635948
-0.044543501 -0.29787859 0.20237041
0.0025395241 0.01086706 0.51074213
0.1186877 0.01141133 0.71343893
0.1378846 0.01482526 0.62273622
0.1037825 0.01389955 0.6051774
0.175005 0.01349845 0.59277141
0.1093576 0.01344494 0.68771732
0.1619852 0.01282769 0.61023992
0.1475112 0.0139425 0.61710721
0.1120595 0.0081492402 0.5231871
-0.03925664 0.01470149 0.61177748
0.117545 0.0091457907 0.69405901
-0.02663165 0.01335644 0.65461642
0.1591804 -0.29883659 0.81183428
0.16904721 0.0081678852 0.5548383
0.1181734 0.0132662 0.72312808
-0.068240114 0.01605013 0.6789124
0.1248909 0.01083439 0.6577152
0.020703269 0.0017999 0.64235622
0.087699503 0.01027754 0.60932791
0.071134381 0.00098477479 0.64235061
-0.054997981 0.01320587 0.60382348
0.1494334 0.0100285 0.63636428
0.1799183 0.01028605 0.56971627
0.081900597 0.0093444362 0.6437403
0.1566579 0.0061181332 0.53734982
0.13471159 -0.29091379 0.81808072
0.094030559 -0.28936729 0.80054778
-0.01653564 0.0094908606 0.57524931
0.080932736 0.01293758 0.56814182
0.1071566 0.01327501 0.74877697
0.13456561 -0.307926 0.8010689
0.36120531 -0.29663381 0.9441312
0.3747215 -0.29910001 0.9281956
0.15489011 0.01545163 0.59665328
0.1483271 0.0073396428 0.67215991
0.1377103 0.01429584 0.73102731
-0.02937495 0.0091378549 0.66694289
0.1528075 0.01059698 0.64850152
0.1497499 0.01942984 0.65827632
-0.037486728 -0.00081445352 0.5441432
0.0033159179 0.018122161 0.5336653
-0.002569166 0.01268149 0.51483679
-0.02302218 0.01147198 0.53000319
0.0270654 -0.001361516 0.52145553
-0.043541212 -0.0090510175 0.56622821
-0.054706689 -0.032901261 0.58597457
-0.0004384497 0.0084734242 0.53084588
0.1311546 0.01407819 0.71403408
0.140025 -0.2950086 0.81568259
0.13830049 0.0074050422 0.55091149
-0.0049562869 0.01032133 0.49319169
-0.0173009 -0.00068003777 0.4866181
-0.077193029 -0.016246781 0.62793893
-0.062342372 -0.084023997 0.61390722
-0.02473494 -0.048394851 0.48844701
-0.066903763 -0.02115456 0.5989027
-0.058612861 -0.088248558 0.59420162
-0.033548079 0.0086745908 0.52799737
-0.05269289 -0.044268161 0.58497238
-0.03127468 -0.02065333 0.51581872
-0.028015541 0.0045479471 0.5123207
-0.035793219 -0.03274167 0.52822751
-0.02185536 -0.02012655 0.47763571
-0.02338136 -0.003167545 0.51485509
-0.036768641 -0.069957167 0.52665722
-0.045063589 -0.036853548 0.55606472
0.19688401 0.0096386541 0.54502147
-0.043836109 -0.1202409 0.56474042
-0.024644749 -0.046971951 0.49314809
-0.066449091 -0.092117883 0.6201154
-0.033943251 -0.025105661 0.52647042
-0.04494524 -0.031508218 0.55466461
-0.02510467 -0.084788382 0.50313848
-0.045376901 -0.064911082 0.56347132
-0.064660087 -0.09485919 0.60703111
-0.061282732 -0.1167881 0.60405147
-0.06221186 -0.045029081 0.59013492
-0.029307179 -0.086315587 0.52643979
0.1144366 0.0095946575 0.51692623
-0.01505115 -0.020907659 0.46865219
-0.065686673 -0.01133936 0.60295951
-0.068340302 -0.022307299 0.60380888
-0.02827993 0.0059113819 0.51339293
-0.02411088 -0.0138409 0.51245779
-0.02069765 -0.2935755 0.47736749
-0.054726578 -0.066037923 0.5694111
-0.049870249 -0.006903945 0.5707314
0.20627929 0.00077329448 0.54320228
0.1355546 -0.093139283 0.5197404
0.070089847 0.0089915842 0.50580293
0.046042331 0.01239145 0.5569331
-0.01470702 -0.02212734 0.47576681
-0.0088946372 -0.00059331162 0.46594039
-0.064967677 -0.04133689 0.622284
-0.089500427 -0.1710555 0.66077268
-0.0099546257 -0.0081550414 0.46609309
-0.03969853 -0.01963518 0.5283801
0.037913948 0.01219245 0.56416333
0.018078931 0.01049053 0.51960921
0.052685849 0.0071055279 0.49240479
-0.0088982722 0.002577021 0.50033808
-0.034231111 -0.091283113 0.5130502
-0.061385769 0.0013980319 0.6169427
0.1459261 -0.0038076299 0.52425659
-0.01582437 -0.2950162 0.47068349
0.18022759 0.0078893816 0.53545511
0.01190816 -0.1580102 0.4748185
0.074013799 0.0052469419 0.49775589
0.031599361 0.01130473 0.64621317
0.15681919 0.0027701019 0.53232789
0.090064786 0.01281019 0.51101238
0.1105971 -0.1026758 0.51809782
0.1563345 -0.01906847 0.52906829
-0.088885017 -0.1997086 0.66318142
0.036529981 -0.068021573 0.48696631
-0.090525717 -0.2124202 0.67194539
0.023020441 -0.2749593 0.48090741
0.089243107 -0.2310383 0.5062049
0.01342475 -0.034076922 0.47418761
0.060836941 0.0027060099 0.4934366
0.02516263 0.009374327 0.55527121
0.12806471 -0.089021914 0.51199818
0.099335782 -0.088324539 0.50751972
-0.02362087 -0.095936857 0.49573901
0.080808237 -0.042760469 0.50156683
0.039892439 -0.034208242 0.4914259
-0.02545304 -0.29406801 0.4890126
0.06174149 -0.1336903 0.49030459
0.097991109 0.0046005868 0.50680089
0.086682037 0.01044424 0.71821898
-0.086586781 -0.20949011 0.64125699
-0.065948151 -0.12672859 0.60216433
-0.042103589 0.0089908922 0.54971248
-0.069969527 -0.1886771 0.61169273
-0.078492537 -0.1827227 0.62487841
0.1144682 -0.28089759 0.48796451
0.038014449 0.0087142047 0.71132469
-0.077437133 -0.1810797 0.62495482
0.1518604 -0.1860244 0.53138131
0.067859687 -0.061322071 0.49755049
0.0509555 -0.27335021 0.4898082
-0.02514983 -0.03698428 0.49363571
0.02936087 -0.1999516 0.48347601
0.066434123 0.0050824159 0.64297098
-0.057900932 -0.1277439 0.57702988
-0.064955823 -0.17664149 0.59290838
0.15760989 -0.077259362 0.53402662
0.05445727 -0.01082279 0.49061191
-0.0044693602 -0.28775191 0.4801507
0.054005168 -0.28940719 0.48633999
0.066444144 -0.23043419 0.497381
0.0142798 -0.19609749 0.47919169
0.13619161 -0.08096268 0.52368808
-0.090965472 -0.2264787 0.66503042
0.1971018 -0.01049114 0.54523557
0.085722864 -0.0044913869 0.50419199
0.07708662 -0.27794331 0.50453651
0.16203409 -0.1843185 0.53175688
0.01298836 -0.13119289 0.47495329
0.051801369 -0.2400986 0.49056
0.01205592 -0.1435153 0.47506201
0.1464784 -0.27737001 0.53770798
0.1626175 -0.25401029 0.53187418
0.1480244 -0.27367339 0.5321396
0.17482559 -0.2966316 0.53840858
0.1161715 -0.2341748 0.51707482
0.01128039 -0.2848483 0.47626609
0.1880749 -0.2233858 0.54431701
-0.01095687 -0.18876719 0.4789277
-0.023715019 -0.1244361 0.48725969
0.004565041 0.01188466 0.52656078
0.084263802 0.01147083 0.66149229
0.075631708 0.01179356 0.55504167
-0.023935029 -0.25665811 0.47934169
-0.021029189 -0.25359991 0.47656199
0.036139309 -0.27654499 0.478576
0.029656639 -0.27143201 0.46799079
-0.02709315 -0.2378996 0.4918941
0.070388012 -0.1183454 0.4928458
-0.028071741 -0.2515341 0.48653439
0.01227045 -0.094602123 0.47469881
0.036914598 -0.02489398 0.48545399
0.079418004 -0.037281469 0.50175971
0.01763002 -0.0289133 0.47516099
-0.02869885 -0.1868922 0.50036079
0.048482079 -0.1086418 0.49062541
0.1050276 -0.1246019 0.5079121
0.1575599 -0.15139639 0.53724837
0.12508319 -0.1232253 0.51603317
0.01397543 -0.080872551 0.4746691
0.099272907 -0.0465082 0.50604361
-0.0249345 -0.27104679 0.47745031
-0.016641291 -0.070251167 0.4750219
-0.01740879 -0.18190929 0.4730345
0.1815979 -0.1205831 0.53760499
0.1794789 -0.15111659 0.53671801
0.020260669 -0.1081469 0.4785966
0.050876159 -0.21536469 0.48387039
0.034971751 -0.1341172 0.48282161
0.1130993 -0.1511967 0.51235682
0.076773867 -0.2359859 0.50356001
-0.01811 -0.215561 0.47495279
-0.073254868 -0.0025596351 0.63283288
-0.050166901 -0.2028994 0.55292422
-0.03615766 -0.27144921 0.50237328
-0.090114988 -0.2657291 0.64753479
-0.067765743 -0.24539851 0.58622068
-0.071773142 -0.253241 0.60796249
-0.085802197 -0.26127341 0.63205832
-0.064512871 -0.26971009 0.57764012
-0.078857541 -0.25538641 0.62336498
-0.021016421 -0.0036218839 0.49163711
-0.030195599 -0.1005265 0.4998726
-0.07185933 -0.069949687 0.62673438
-0.070755072 -0.01502293 0.62033403
-0.050891619 -0.2320275 0.55378842
-0.088259071 -0.1733764 0.64100277
-0.097577251 -0.26082319 0.67282718
-0.064658992 -0.23741581 0.57614988
-0.07186424 -0.2133971 0.5989235
-0.069939733 -0.16001961 0.61517727
-0.089132257 -0.2421006 0.65368569
0.0044384939 -0.05279287 0.46739361
-0.02545508 -0.1566035 0.4954578
-0.017341649 -0.1050809 0.47664741
0.1230554 -0.25505489 0.51267558
-0.06516026 -0.19940349 0.60198963
-0.04095307 -0.19603769 0.51803362
-0.051808588 -0.15396421 0.57023072
-0.05622907 -0.02894431 0.58521003
-0.037221901 -0.1219897 0.51315051
0.032231361 -0.094058052 0.48339069
0.077894829 -0.1112425 0.49968359
-0.06697619 -0.082150944 0.61854333
-0.039567009 -0.19452409 0.50950563
0.091077417 -0.1255625 0.50827932
0.16027071 -0.172022 0.53151828
-0.089396447 -0.2286896 0.64490992
-0.054731201 -0.25614271 0.56996822
-0.035268791 -0.19335809 0.50799102
0.059760582 -0.1133522 0.4875167
0.1217332 -0.089421943 0.52240908
0.025781721 -0.2087301 0.4832913
-0.021521511 -0.24479949 0.48144451
-0.068558797 -0.073695593 0.62434441
0.017214769 -0.046805192 0.47509459
-0.026284341 -0.2181062 0.50196582
-0.0620193 -0.184789 0.58271021
-0.01673476 -0.065398343 0.4659586
-0.01329655 -0.1083924 0.47053209
-0.061490402 -0.193461 0.58487833
0.048554551 -0.14070889 0.48694491
0.01307623 -0.14853349 0.46821359
-0.048408311 -0.1554355 0.54966998
-0.02958907 -0.2152745 0.50511682
-0.030992091 -0.067933671 0.51501489
0.1303547 -0.1548496 0.51737309
0.019239031 -0.1236817 0.47630611
0.1622418 -0.1651013 0.53077132
0.1049681 -0.22576991 0.50508988
0.16549081 -0.2113509 0.53236473
0.1230643 -0.2234996 0.52409321
0.063944407 -0.1874934 0.49207839
0.2212248 -0.28192201 0.56081462
0.19497889 -0.1255482 0.54214698
0.1188384 -0.26219019 0.51723129
0.064424589 -0.1972415 0.4881241
0.1316998 -0.01090925 0.51725322
0.1599163 -0.2344735 0.52838743
0.1111673 -0.2363912 0.50624841
0.1303699 -0.2211574 0.52194577
0.070505269 -0.20643631 0.4971979
0.1001422 -0.016975179 0.50749421
0.036569081 -0.29918951 0.4773488
0.075639203 -0.099256277 0.4948377
0.1904221 -0.17561179 0.53973049
-0.091797881 -0.27022141 0.66379082
-0.02942713 -0.1518545 0.50106567
-0.087416463 -0.073774002 0.67558789
-0.089124873 -0.1421299 0.67094111
-0.046567291 -0.28173211 0.70194072
0.02301611 0.01388601 0.51295799
-0.081243686 -0.001580683 0.6788469
-0.02074421 -0.05633096 0.70208198
0.01491954 -0.1225533 0.71678269
-0.01177321 -0.1407975 0.70509052
-0.015863569 -0.033111129 0.70376772
-0.093742952 -0.27345419 0.66968971
0.00091968919 -0.2340232 0.71704823
-0.056222551 -0.1525017 0.69190478
0.02736211 -0.20383871 0.72608012
-0.033469871 -0.2711747 0.70457381
-0.076301433 -0.159291 0.68421513
-0.057727411 -0.097062796 0.68816328
0.029019929 -0.1864462 0.72469193
-0.016794881 0.01078924 0.69950002
-0.068339728 -0.066822313 0.68536347
-0.071418837 -0.097978003 0.68328118
-0.058095701 -0.2095712 0.69149172
-0.029882129 -0.1869413 0.70360643
-0.086779892 -0.2351065 0.67444491
-0.074093796 -0.1015798 0.68398499
-0.086566031 -0.1945353 0.67421502
-0.02942989 -0.016473239 0.69563258
-0.03047144 -0.2445977 0.70359069
-0.04527377 -0.2825509 0.7040413
0.01699169 -0.2821402 0.72644621
-0.054845911 0.004414368 0.68925178
-0.087728158 -0.1384225 0.67464441
-0.04726427 -0.22329611 0.69639862
0.027825169 -0.1798054 0.72334808
-0.057545591 -0.2139539 0.69226992
0.079231322 -0.2296572 0.74626499
0.030847991 -0.1735179 0.72598571
0.0099129528 -0.1543127 0.719522
0.0022850609 -0.1092684 0.71118689
-0.001290954 -0.26199669 0.72175181
-0.056277439 -0.00098819565 0.68665218
0.054886051 -0.2103783 0.73597288
-0.089988783 -0.2355337 0.67009962
0.07036227 -0.193093 0.74209791
0.062231239 -0.1892117 0.73791838
0.033951711 -0.1094456 0.72454572
-0.019263331 -0.2478721 0.71029252
0.069518633 -0.18708999 0.74491972
0.1066626 -0.1691152 0.75029862
0.042989731 -0.1643137 0.72654438
0.064546317 -0.28004289 0.74677032
0.038066339 -0.1237961 0.72434813
0.039402079 -0.2118389 0.73037368
0.071497798 -0.1563383 0.73865122
0.02293322 -0.29525679 0.76736093
-0.079889722 -0.16948541 0.68337047
0.054711711 -0.1685365 0.73374701
-0.059189051 -0.27289951 0.69217199
0.09869799 -0.1211582 0.74869001
-0.095000647 -0.29539171 0.68936861
0.10255 -0.29320049 0.75517899
-0.056543861 -0.17130759 0.68994409
0.04837564 -0.1621753 0.73090643
-0.050771039 -0.29150671 0.70327163
0.068409257 0.0076702628 0.73149228
-0.071063086 -0.0042003221 0.68492723
0.081305549 -0.2358437 0.74729592
-0.020723451 -0.048886038 0.69849747
0.048806831 -0.27040029 0.73752183
0.024348941 -0.1939453 0.72532588
-0.064931117 -0.1034882 0.68631428
0.01117868 -0.1720781 0.71629709
0.065023758 0.01303437 0.6440354
0.038970429 -0.1246818 0.72802341
-0.04347273 -0.1780442 0.69844371
0.077873141 -0.1932518 0.74334151
-0.098075889 -0.28762981 0.66983902
-0.063792087 -0.016879421 0.68482012
-0.075683147 -0.061841719 0.67779928
-0.081160128 0.01006479 0.67277747
-0.082256913 -0.24435011 0.68056649
-0.088740163 -0.1015558 0.67289871
0.087241359 0.0041352818 0.7383188
0.0046260701 -0.05595969 0.71149552
0.01585866 -0.1911927 0.72065037
-0.038822539 -0.29477909 0.75466722
-0.079999521 -0.29507121 0.72239763
-0.062340591 -0.28987849 0.69536978
-0.034018472 -0.21686541 0.70164728
-0.018054821 -0.025665751 0.70042932
-0.0067325882 -0.037677988 0.70491529
-0.005240927 -0.29431599 0.75895828
0.051635481 -0.23761541 0.73740298
-0.07369478 -0.022842869 0.68361568
-0.01694726 -0.051182099 0.70063359
0.04298884 -0.2950888 0.77490997
-0.078066409 -0.0074365111 0.68659681
-0.095495343 -0.29366389 0.67594612
-0.086948954 -0.29639259 0.6953066
-0.084064677 -0.2964904 0.70898819
0.1037776 0.01143754 0.73187542
0.085962877 0.01545666 0.73477042
0.056383871 -0.1625935 0.74575108
0.04355992 -0.1837938 0.72815299
0.02692054 -0.2051263 0.72484177
-0.01140391 -0.19218791 0.71062863
0.0208175 -0.29625481 0.76899201
-0.027951481 -0.2612325 0.70694143
-0.071487717 -0.24723241 0.68759829
0.077417143 0.0133688 0.73278868
-0.021386139 -0.2341544 0.70768559
0.1780962 0.01441821 0.59120911
0.060037099 -0.17686599 0.7360608
0.090698414 0.01133564 0.64824271
-0.078395627 -0.29465649 0.71850061
0.069819704 0.01062779 0.71044248
0.02321405 -0.25591779 0.7272411
-0.077954531 -0.1254078 0.68172443
-0.060936879 -0.29675519 0.74428809
0.03252691 -0.29350039 0.76777518
-0.0094550941 0.0076748291 0.4856301
-0.050448801 0.0091466354 0.57115817
-0.060112402 -0.29586181 0.74190748
0.1183053 -0.081461012 0.74265653
0.035633441 -0.27915111 0.73495531
-0.003798621 -0.01948767 0.70668691
0.071679547 -0.1980505 0.74214977
-0.06958691 0.01049286 0.67709029
-0.069246143 0.0063221222 0.68048108
-0.25599191 -0.30374119 0.44300959
0.1041597 -0.17093951 0.74720109
0.0037989351 -0.14177869 0.7111907
0.042169578 -0.30001459 0.77437878
0.065843627 0.01024106 0.72793812
-0.0003984668 -0.1161152 0.71396941
-0.0069584958 -0.1206431 0.70606267
0.035172451 -0.29190961 0.76622969
0.0021434161 0.01213401 0.70677322
0.1138398 -0.28927839 0.79889393
-0.076500148 -0.1161661 0.67351872
-0.06983909 -0.02449025 0.68318981
-0.030198321 -0.043023221 0.69674659
-0.037215311 -0.0155894 0.69487202
-0.037733238 -0.2942144 0.70706928
0.1197899 0.01202142 0.59506482
0.091826417 -0.1550913 0.74841899
0.0097819408 -0.098916329 0.71225989
0.02866534 -0.1061103 0.71949518
0.01025772 -0.1043428 0.71332878
-0.01471467 -0.009204112 0.70398098
-0.031113161 -0.089960054 0.69841743
-0.02819659 -0.093308933 0.69799268
-0.036127601 -0.060692381 0.69664383
0.1003921 -0.2956951 0.75580978
0.120365 -0.23278791 0.74741298
-0.08203005 0.00798296 0.67133039
0.0082858978 0.01423056 0.71036428
0.074654803 0.0130957 0.64436048
0.064315617 0.01150668 0.71461999
-0.01317937 -0.2246884 0.71446443
-0.079982147 -0.069095314 0.67415959
-0.07864552 -0.24425089 0.67921662
0.01372432 -0.090639412 0.71967638
-0.060937051 -0.159265 0.69417632
-0.060706992 -0.047378629 0.6855225
-0.0089646671 -0.1728414 0.71614099
0.16314889 0.01556085 0.63082081
0.078323051 -0.01363861 0.73752111
0.031817619 0.0092458166 0.51486123
0.088818938 -0.0045815762 0.73963553
0.1169901 0.0005334185 0.75087577
0.001862266 0.01826147 0.51898092
0.0072808759 0.0163047 0.47722071
0.1034234 -0.04228501 0.74964428
-0.1007238 -0.27873209 0.67825842
-0.27247861 -0.3005898 0.475144
0.088366412 -0.1445141 0.74674761
-0.080257431 0.0114158 0.65207368
0.07952185 0.01156173 0.64443308
0.05856986 -0.1540567 0.73864502
-0.0067166882 -0.1367263 0.70779067
0.074688338 -0.090778083 0.73726511
0.035459761 -0.083117262 0.72433639
0.0004585546 0.0084432317 0.70464611
0.095592037 -0.1532215 0.75161111
0.1045678 -0.074638039 0.75223029
0.070435233 0.01176679 0.73509669
-0.090017721 -0.14181601 0.67267889
-0.029784091 -0.0080008283 0.69673717
-0.079176717 0.00044278571 0.68034309
-0.097908363 -0.26076719 0.67157727
0.1231617 0.01509796 0.69445097
0.067116201 0.01496485 0.69315642
-0.080666684 -0.05444207 0.65917879
-0.085749231 -0.064795718 0.6778245
-0.088851117 -0.2358226 0.64699018
-0.093349762 -0.166711 0.66947579
-0.09031453 -0.2359592 0.64793092
-0.01052997 -0.1350951 0.70595479
-0.089720242 0.00067832199 0.66839862
-0.028030051 -0.1835029 0.70667899
-0.075043358 -0.032965541 0.61482692
-0.067981027 -0.1265498 0.60088623
-0.056451131 -0.039950781 0.58218819
-0.05039018 -0.2014768 0.55135328
-0.06998428 -0.01352266 0.62190068
-0.082643509 0.01444517 0.66963428
-0.04304681 -0.28281501 0.51360512
-0.08765687 -0.083684169 0.65648597
-0.090631969 -0.041493669 0.66961831
-0.092882529 -0.021943631 0.6690436
-0.0380814 -0.030503649 0.52814943
-0.087269999 -0.2137941 0.64118779
-0.081859112 -0.1078654 0.64393789
-0.045654241 -0.035211761 0.55421591
-0.063641369 -0.2708526 0.57774508
-0.058612868 -0.2107082 0.56446928
-0.08426708 -0.073730893 0.6506384
-0.047733091 -0.2025899 0.53869849
-0.066867687 -0.090734251 0.60188782
-0.081419677 0.01286933 0.64653248
-0.04072842 -0.016186461 0.53997362
-0.029882859 -0.0178163 0.5147295
-0.074455783 -0.2096298 0.632303
-0.092417419 -0.1708532 0.65625942
-0.050547 -0.051519431 0.56585371
-0.071500309 -0.01545934 0.62796253
0.1422469 0.0154657 0.66818982
0.076284327 -0.1577152 0.7440936
-0.079804391 -0.1382224 0.6741389
-0.089372329 -0.030044541 0.66436648
-0.059256472 -0.1475053 0.58600372
-0.067896947 -0.02196168 0.60468757
-0.068554036 -0.01132418 0.6042363
-0.05822926 0.0160513 0.60552692
-0.043800201 -0.030270699 0.54840219
-0.072964206 -0.1869857 0.6087535
-0.02654328 -0.034306481 0.49419329
-0.034947969 0.003447331 0.54291981
-0.059799891 -0.1905168 0.58681887
-0.088533901 -0.15382551 0.65965962
-0.077133767 -0.054694012 0.62952912
-0.03323783 -0.1813844 0.50022018
-0.01562663 -0.03136088 0.7033577
-0.066813037 -0.069272138 0.61537689
-0.02476098 -0.088631749 0.49202159
-0.03657084 -0.071762279 0.52661097
-0.02690414 -0.15375011 0.49262789
0.089564107 0.015745381 0.73837137
-0.096548617 -0.25611499 0.67013443
-0.096019223 -0.2079003 0.65588307
-0.062230781 -0.084601887 0.59297782
-0.05663934 -0.027061891 0.5857839
-0.03108111 -0.055775352 0.52020502
-0.054146599 -0.14539149 0.56693709
-0.069711931 0.0034755899 0.60948968
-0.073176727 -0.19069719 0.5980286
-0.082528211 0.0087254932 0.64618409
-0.051617742 -0.058952529 0.56269109
-0.069252871 -0.1000869 0.60012251
-0.049712151 -0.1993041 0.53516293
-0.047988329 -0.13223889 0.54250842
-0.044326179 0.01354772 0.56400502
0.1385819 0.005006263 0.51617712
0.078682251 0.01274049 0.65299761
-0.052191939 -0.081597067 0.57043737
-0.067919187 -0.25613779 0.58828038
-0.093000807 -0.080108918 0.66175032
-0.04611253 -0.1149605 0.53555357
-0.06775865 -0.26040819 0.61269301
-0.084431313 0.016849989 0.65623838
-0.089308627 -0.003373136 0.66208309
0.36954769 -0.1976532 0.2034151
-0.02895844 0.01066197 0.5115788
-0.050004411 -0.01747736 0.68759412
-0.041411441 -0.27310351 0.52557892
-0.02780793 0.002511675 0.5127579
-0.077854723 -0.01453716 0.60270768
0.01686031 0.01248682 0.53137958
-0.041073948 -0.1679453 0.53271782
-0.044811308 -0.2377748 0.5351693
0.02125961 0.01538534 0.66400331
-0.076297767 -0.0041989279 0.69224828
-0.081269003 -0.1093723 0.64597869
-0.075212173 -0.12525401 0.62443531
-0.05592598 0.004995964 0.56527692
-0.02089661 -0.17400789 0.474298
-0.034705099 -0.19334599 0.51085788
-0.053950738 -0.046834961 0.59070718
-0.076479308 -0.1317021 0.61409682
-0.024180699 -0.1589915 0.4767544
-0.038021781 0.0097520864 0.54256368
-0.026542179 0.0076960251 0.52556783
-0.03189709 -0.095338143 0.49894261
-0.01539733 -0.2975179 0.468577
0.1155043 0.01186573 0.60798609
-0.033017591 0.01160297 0.65781069
0.015639899 0.01434082 0.63874263
0.1295739 0.01064623 0.69277751
-0.01903295 0.01275708 0.61827451
-0.059517801 0.01308195 0.62175119
0.14331099 0.01765592 0.60268009
-0.055165809 0.020231741 0.60428423
0.073953658 -0.038734891 0.73565787
0.16407239 0.0122041 0.62878531
0.080915377 0.01974084 0.65709049
0.073165432 0.0045242789 0.67790049
-0.048261922 0.01485003 0.58357543
-0.079388522 -0.2301023 0.63271081
-0.07819581 -0.047513071 0.64931577
-0.09276212 -0.194352 0.65920818
-0.079200611 -0.1800981 0.64393538
-0.068921201 -0.2213116 0.58610409
0.0081214597 -0.30716059 0.34966841
-0.079937287 -0.2191221 0.63903052
-0.00349656 0.01534298 0.62217021
0.091849163 0.01122149 0.60779738
0.01309796 -0.019334439 0.71402711
-0.060024329 -0.072296143 0.58055961
0.05962592 -0.1568705 0.73876047
-0.057634871 0.01052089 0.59460437
0.1165334 0.0118189 0.58534509
-0.024478531 -0.060648311 0.70130748
-0.036346588 -0.051147781 0.52194577
-0.063497066 0.002762092 0.6896593
-0.0048941309 0.01254391 0.492973
-0.022097539 -0.125312 0.48564741
-0.032607101 -0.085981533 0.53097898
-0.005745356 0.0090379938 0.61683708
-0.08627487 -0.01796346 0.67484647
-0.05759529 -0.0089454604 0.58432209
0.1162683 0.02173526 0.60276228
0.1306441 0.01472951 0.72391969
-0.039096501 -0.001956722 0.56863141
-0.074472673 0.0129319 0.66070068
0.0004152765 0.01039211 0.49462149
-0.02492881 -0.0458702 0.48843759
0.03673692 0.015895169 0.65409827
-0.02264086 -0.056034941 0.70202619
-0.04748432 -0.26280519 0.49883211
0.046787791 -0.33461389 0.2420606
0.1028882 -0.099023253 0.75016338
0.099713378 0.018679369 0.60116869
-0.060986571 0.001618186 0.60589957
-0.048988629 -0.083688349 0.56954551
-0.034080811 -0.1098472 0.51285809
-0.077599101 -0.1874956 0.62683409
-0.007526455 0.01636317 0.60946709
-0.0707528 -0.075747393 0.62288618
-0.056962341 -0.01383793 0.57897061
-0.086916089 -0.23183189 0.67683768
-0.01333304 0.0150984 0.70189261
0.091176778 0.01001746 0.74155551
-0.01179794 -0.1391218 0.70721602
0.069736607 -0.1867 0.74377418
0.091005847 0.01446735 0.65448397
-0.092875853 -0.29527879 0.68047827
-0.093992963 -0.28682491 0.69180411
0.068424053 0.019660771 0.65000713
0.1077193 -0.16100261 0.75845492
0.01185632 -0.094275378 0.71622467
-0.076232173 -0.29450399 0.72269559
-0.063323647 -0.059737239 0.69388747
0.071517363 0.0091681592 0.73541081
0.090978727 -0.0044637402 0.74069399
0.00032297801 -0.25347239 0.7265889
-0.0053359461 -0.1176796 0.71007788
-0.068707682 0.01213436 0.62310028
0.005425151 0.01538519 0.5298022
