# .PCD v0.7 - Point Cloud Data file format
VERSION 0.7
FIELDS x y z
SIZE 4 4 4
TYPE F F F
COUNT 1 1 1
WIDTH 1428
HEIGHT 1
VIEWPOINT 0 0 0 1 0 0 0
POINTS 1428
DATA ascii
-0.24411491 -0.44426441 0.49260199
-0.2118255 -0.2085961 0.52377647
-0.20082609 -0.30851331 0.80927998
-0.2092983 -0.42813659 0.4788309
-0.1443494 -0.13966469 0.72905719
-0.2345968 -0.37100941 0.76606512
-0.2496212 -0.47932431 0.72122312
-0.2418786 -0.4474858 0.4806096
-0.2076074 -0.1491726 0.668028
-0.2575646 -0.49439481 0.7175101
-0.20053209 -0.1471674 0.79292011
-0.246929 -0.36158761 0.56029958
-0.1475141 -0.3050206 0.78418708
-0.19147579 -0.31027889 0.80725002
-0.2427422 -0.3299017 0.61171669
-0.231258 -0.29345831 0.54749459
-0.233836 -0.3488864 0.72248888
-0.240813 -0.39387709 0.7048623
-0.25415289 -0.41165611 0.52001858
-0.2499314 -0.33878449 0.52218288
-0.20699941 -0.1661381 0.6871925
-0.24550609 -0.33387551 0.5637992
-0.20810179 -0.1723386 0.64750832
-0.1803207 -0.2151615 0.85245371
-0.1462265 -0.30224901 0.74763292
-0.225417 -0.2455534 0.54314089
-0.2269339 -0.2376169 0.55547881
-0.20202599 -0.2271674 0.87808698
-0.2477093 -0.33272639 0.52564251
-0.1993338 -0.30581021 0.84792513
-0.24831291 -0.41372499 0.65765733
-0.27540389 -0.51226491 0.63720101
-0.1329537 -0.28377801 0.80344141
-0.23953339 -0.4030166 0.72102809
-0.1963364 -0.3685689 0.48552921
-0.20842659 -0.28541851 0.87916178
-0.20027439 -0.22086941 0.89979452
-0.19714341 -0.239416 0.86696953
-0.25007591 -0.46723601 0.69829649
-0.28817609 -0.51415402 0.50357127
-0.19658551 -0.1599403 0.84362262
-0.1786975 -0.30452761 0.65308988
-0.2273037 -0.34931019 0.82365441
-0.2192913 -0.33096021 0.90956491
-0.2327226 -0.37025169 0.84415579
-0.2350623 -0.3977294 0.88412672
-0.2311552 -0.33863869 0.7961905
-0.24718051 -0.49249211 0.73302412
-0.2441145 -0.46705309 0.85669798
-0.2574805 -0.4895072 0.73596352
-0.2361173 -0.36870739 0.7917071
-0.2376347 -0.41689089 0.82472038
-0.2231047 -0.48916799 0.94727677
-0.26821429 -0.50910348 0.76798248
-0.24097469 -0.42678061 0.81502289
-0.2436368 -0.44058609 0.84559268
-0.1988022 -0.15502609 0.77844751
-0.2242043 -0.3453252 0.81855232
-0.23818959 -0.37669531 0.82129252
-0.25591019 -0.44679719 0.49178451
-0.2430678 -0.42563769 0.78958678
-0.2280335 -0.39975369 0.92164618
-0.24093761 -0.42529511 0.78128928
-0.2476214 -0.459196 0.82747251
-0.2660566 -0.50832891 0.9003861
-0.2513355 -0.3676039 0.53662968
-0.25363791 -0.4867982 0.48144421
-0.1235981 -0.1383335 0.58295369
-0.2020265 -0.15625051 0.77935117
-0.2410408 -0.408923 0.75512779
-0.25182399 -0.4621805 0.72244
-0.2222975 -0.31322461 0.58852488
-0.26831359 -0.50610751 0.8555311
-0.2286628 -0.4051652 0.91100252
0.01905896 -0.13638359 0.7381478
-0.2455609 -0.3831262 0.66971338
-0.26883039 -0.51015967 0.74563402
-0.24759351 -0.3887164 0.5569219
-0.1867786 -0.35572261 0.48468471
-0.15341979 -0.30389011 0.70885032
-0.21704879 -0.27156019 0.50469953
-0.19984929 -0.190988 0.88527483
-0.2462185 -0.50694358 0.94311279
-0.23176409 -0.48690659 0.94367552
-0.2352937 -0.3481791 0.69787771
-0.26979819 -0.50940567 0.70837349
-0.2408285 -0.34283659 0.62387413
-0.2475359 -0.42866099 0.69063759
-0.1128111 -0.2976988 0.70591331
-0.2556414 -0.47892541 0.48925149
-0.2436022 -0.3377896 0.56449437
-0.1901349 -0.51323062 0.45495579
-0.19864801 -0.30760559 0.63217068
-0.12935831 -0.28161809 0.79956299
-0.168525 -0.24046759 0.83855557
-0.2458988 -0.50893527 0.94039428
-0.2346687 -0.3562901 0.66921711
-0.2627587 -0.51181507 0.71921718
-0.2451739 -0.39837411 0.67878008
-0.26887289 -0.51504821 0.68878257
-0.2230798 -0.3047564 0.56721282
-0.2413246 -0.3455373 0.50840181
-0.2896013 -0.51035428 0.50261259
-0.2224289 -0.29152021 0.53982508
-0.2829017 -0.50839651 0.65825021
-0.2461291 -0.4371213 0.84519827
-0.25589359 -0.4584668 0.53022671
-0.1119452 -0.26879239 0.76814753
-0.2136118 -0.3103843 0.58563417
-0.2079964 -0.1504938 0.66709489
-0.1627302 -0.30885801 0.49469161
-0.1884837 -0.41501009 0.47727719
-0.2270139 -0.29308161 0.52540427
-0.26094621 -0.4402993 0.53212148
-0.1715655 -0.37130651 0.47683799
-0.2473485 -0.412743 0.65868229
-0.2342511 -0.36692169 0.77848059
-0.2287849 -0.3468799 0.82560551
-0.24781591 -0.444507 0.68094617
-0.2637378 -0.50565457 0.8595292
-0.001015426 -0.1356357 0.8531124
-0.27969241 -0.5142675 0.51740241
-0.24400461 -0.33797109 0.51732957
0.007934805 -0.1339491 0.83060539
-0.2555567 -0.43962079 0.6353606
-0.23874439 -0.43298709 0.81057489
-0.1374183 -0.46990731 0.45867971
0.0026826099 -0.3155483 0.58481443
-0.2392078 -0.3451415 0.51394022
-0.2873697 -0.4972021 0.68986237
-0.1165162 -0.27351609 0.76554358
-0.2164157 -0.21858341 0.52236122
-0.126828 -0.2476691 0.78270078
-0.1217977 -0.2486057 0.78021622
-0.098900817 -0.28796771 0.72081119
-0.1430721 -0.3062042 0.71280169
-0.21852291 -0.27400181 0.50704563
-0.2154457 -0.31102371 0.58723742
-0.20999271 -0.42585891 0.47787929
-0.1933566 -0.35976639 0.48382089
-0.2507267 -0.34191859 0.52376962
-0.18612351 -0.1368077 0.7987746
-0.25611019 -0.4279179 0.64451778
0.1244275 -0.1327562 0.83125448
-0.15876061 -0.44871801 0.47743601
-0.24778721 -0.45086411 0.85818791
-0.2533606 -0.48904571 0.48314309
-0.17701399 -0.30333221 0.68586648
-0.2216367 -0.3550919 0.91877258
-0.1891885 -0.49856311 0.4634093
-0.131899 -0.29538849 0.78590119
-0.1890706 -0.51231343 0.45580319
-0.2141366 -0.48150319 0.471553
-0.1090966 -0.13915341 0.71743459
-0.1706024 -0.1526341 0.5155378
-0.1526309 -0.1677776 0.51250088
-0.1628803 -0.1608862 0.51419318
-0.15677249 -0.30957839 0.50453103
-0.085047834 -0.43444139 0.47299981
-0.2018176 -0.1585498 0.77601951
-0.25500521 -0.48537281 0.49358189
-0.1159358 -0.39957109 0.475876
-0.2425279 -0.37371999 0.7381649
-0.089903563 -0.1369554 0.61273241
-0.01083996 -0.30986261 0.57485878
-0.19427709 -0.4132432 0.47588331
-0.093024738 -0.31007841 0.51641309
-0.1596657 -0.38216779 0.47666359
-0.2200111 -0.2370272 0.52750611
-0.1096566 -0.1335289 0.72494131
-0.22046129 -0.42693931 0.47857311
-0.04303851 -0.13635381 0.76224178
-0.2073307 -0.1590815 0.78454292
-0.1329255 -0.33407009 0.4840388
-0.1998585 -0.14611471 0.79544002
-0.092315167 -0.2825408 0.7508412
-0.2368608 -0.33372271 0.57813603
-0.1468931 -0.30345359 0.51373839
-0.1394051 -0.1380257 0.59820801
-0.1771981 -0.30392081 0.69815129
-0.2449439 -0.34599689 0.55048817
-0.1521108 -0.436923 0.46668661
-0.19751389 -0.51807159 0.45860249
-0.25997639 -0.44185251 0.53306937
-0.17521819 -0.14414459 0.67143679
0.67940032 -0.16979159 1.0231349
-0.25861451 -0.4860037 0.64482558
-0.1214041 -0.48372239 0.46731499
-0.01387614 -0.1337211 0.680776
-0.042146988 -0.49911621 0.457544
-0.051342711 -0.165456 0.50698942
0.1116359 -0.3913545 0.45605749
-7.7198492e-05 -0.31361729 0.53109521
0.1614539 -0.22677539 0.48942381
0.18386079 -0.25321019 0.48320249
0.1870037 -0.17443819 0.4976072
0.19162799 -0.21192171 0.49366379
0.088221103 -0.34502399 0.46918041
0.1198877 -0.1515144 0.49536201
0.02485544 -0.44067219 0.46942601
0.22471491 -0.33326149 0.5421862
0.2023624 -0.3096377 0.72700268
0.2018632 -0.1901256 0.53880721
0.205238 -0.3113361 0.70257902
0.2088315 -0.3084802 0.73353821
-0.54743111 -0.085532837 1.028783
0.006624836 -0.4546262 0.458931
0.0302273 -0.4644326 0.455558
0.19263969 -0.18203939 0.50579458
0.22597159 -0.3759388 0.50066668
0.1164261 -0.392584 0.45666581
0.18321259 -0.2327963 0.4922826
-0.023591749 -0.42582339 0.4729248
-0.1001517 -0.31154701 0.51093292
-0.053080659 -0.4397136 0.4676961
-0.052237779 -0.4160018 0.4755114
-0.54205441 0.03234623 1.029255
0.16642611 -0.41917741 0.45553261
0.2256379 -0.33488041 0.54113179
0.22845121 -0.35279849 0.53338349
-0.033522189 -0.1400491 0.59442502
0.056690671 -0.45241439 0.46381739
0.1697336 -0.34577751 0.46256259
0.1674886 -0.16596361 0.49187189
0.097163863 -0.34736019 0.47099069
0.2026646 -0.36377481 0.46361849
0.18370099 -0.2408656 0.4883306
-0.56356198 0.031172009 0.98379308
-0.56036812 -0.085666962 0.97965038
-0.02459305 -0.483991 0.4585641
0.1108954 -0.38343129 0.456563
0.1751315 -0.37420049 0.46060491
0.095177017 -0.33747569 0.4717387
0.2192622 -0.3841272 0.48068061
0.2022651 -0.1525322 0.55358332
-0.53869349 0.03080718 1.0363311
-0.1029624 -0.24500979 0.57340479
-0.0213758 -0.1491669 0.50569743
0.099727668 -0.3497034 0.47450271
0.1465341 -0.26604569 0.78320217
0.2356289 -0.41482371 0.63029557
0.1380083 -0.2124217 0.73349202
0.2225695 -0.38805991 0.480506
0.002524734 -0.33606991 0.4745042
-0.0081280684 -0.30984181 0.50393212
0.1617229 -0.2432133 0.79845232
0.20476329 -0.1661289 0.65760952
0.0191388 -0.50762957 0.43882099
0.001497995 -0.50782448 0.44031301
0.1490176 -0.23027749 0.7881453
0.236608 -0.42991 0.53864503
0.19327851 -0.1529391 0.55094481
0.23549581 -0.4197337 0.53967857
0.1942232 -0.248669 0.49101871
0.193315 -0.25725019 0.4930152
0.20132519 -0.25199789 0.49677661
0.1956034 -0.23813491 0.50136977
0.1609576 -0.1611829 0.4962005
0.172867 -0.211926 0.48841059
0.2184931 -0.33587021 0.50467438
0.23069251 -0.3484796 0.58578491
0.1471003 -0.1357915 0.80148202
0.13548189 -0.3015883 0.75494969
0.19719221 -0.2731308 0.48920479
0.17846429 -0.30907479 0.81080103
0.01277863 -0.1542504 0.50476217
0.064995743 -0.43492201 0.46372989
0.2048967 -0.29889041 0.5007242
0.1563741 -0.40345681 0.4548561
0.20089591 -0.1665322 0.60064948
0.1222984 -0.25235879 0.77657127
0.24014939 -0.44635481 0.49840951
0.1392182 -0.26421759 0.79041451
0.1954308 -0.314953 0.70071268
0.1922992 -0.3058883 0.59102952
0.214004 -0.28945601 0.50232673
0.098713167 -0.5119276 0.43456289
0.1464873 -0.2268734 0.79112881
0.1758149 -0.37729669 0.46023431
0.1276278 -0.2530857 0.7792176
0.1322937 -0.14810321 0.49789959
-0.01010796 -0.13967261 0.71159989
0.1301164 -0.26526079 0.7654236
0.1112724 -0.2816354 0.74748927
0.18990751 -0.2246623 0.54137248
0.1858144 -0.43336579 0.45106959
0.2402017 -0.38499931 0.61245853
0.2224766 -0.37557009 0.48888239
0.061157331 -0.4654232 0.45534071
0.2352079 -0.415373 0.6575458
0.2052912 -0.15528411 0.71620762
0.1968565 -0.2181489 0.50274879
0.01861049 -0.30682409 0.53355432
-0.05621184 -0.3057076 0.55462939
0.12648091 -0.27764839 0.7683937
0.2088934 -0.1690239 0.66158992
0.1143041 -0.28832871 0.75967872
0.2289647 -0.3300491 0.62090868
0.1911402 -0.17686389 0.52660531
0.2060671 -0.14875139 0.67969078
0.1109314 -0.27978981 0.76333022
0.1155606 -0.310931 0.71494168
0.1269526 -0.26643071 0.77357388
0.20128129 -0.1622548 0.67883152
0.091671407 -0.1725191 0.49916029
0.1555983 -0.3023133 0.63035321
0.25241679 -0.46926019 0.6658116
0.1995168 -0.31160271 0.72588408
0.2237478 -0.3945086 0.49217999
0.242496 -0.4587577 0.62731552
-0.55878872 -0.1752152 0.98067093
-0.58206582 -0.1722458 0.99500549
-0.046918049 -0.1383291 0.58669138
-0.030512949 -0.31487289 0.53408593
-0.043296479 -0.13947821 0.82857507
0.2527858 -0.52303082 0.60780662
0.1729527 -0.25502709 0.4840481
0.25820449 -0.52045208 0.68841112
0.1696701 -0.1389042 0.51613218
-0.05561997 -0.13751221 0.56637561
0.2367741 -0.4249652 0.53954661
0.240587 -0.44371349 0.63430268
0.1201523 -0.29987359 0.71302837
0.23739681 -0.42962191 0.65457231
0.2490233 -0.43715951 0.70664549
0.26837999 -0.51404053 0.68764478
0.1953977 -0.3072941 0.79666859
0.1928837 -0.1879613 0.52173811
0.1841846 -0.1478155 0.49968439
-0.041254729 -0.13357671 0.82504362
-0.56813782 0.03241355 0.97789812
-0.04481826 -0.1360388 0.74865347
0.051010322 -0.50568289 0.43612239
0.1892561 -0.2417326 0.5454247
0.23764101 -0.42467481 0.61986488
0.14563949 -0.43424359 0.45258769
-0.57793027 -0.1207004 0.98040938
0.2395885 -0.44109979 0.61808813
0.2466495 -0.4879283 0.58099031
0.15820689 -0.2134783 0.49428189
0.2392313 -0.4416649 0.59933829
0.2380088 -0.43342739 0.62653399
0.2437795 -0.42216969 0.71113098
0.22301739 -0.38212451 0.48487249
-0.55582958 -0.088616937 0.96896589
0.088525891 -0.1612958 0.49835339
-0.1006287 -0.2712937 0.56402707
-0.032744419 -0.1703207 0.50244749
-0.01555662 -0.3613548 0.4746139
-0.1412403 -0.28211361 0.52985561
0.1155907 -0.40204349 0.45582491
-0.040371921 -0.1414894 0.54179239
0.2431996 -0.45013809 0.50224042
-0.1146031 -0.2261951 0.55019879
0.023968181 -0.38729689 0.4647921
-0.052178878 -0.3219198 0.53653991
-0.0037247769 -0.30972731 0.56075692
-0.032654379 -0.41250661 0.47405961
0.083911009 -0.33064899 0.4714427
0.25129521 -0.4547883 0.75190449
0.051431511 -0.45603299 0.46028551
0.02540819 -0.44591829 0.46546131
0.01451553 -0.3143599 0.50557482
0.20807751 -0.1516529 0.68227673
0.2087245 -0.1487373 0.67726272
0.1390664 -0.3004404 0.75193471
0.2057548 -0.1705486 0.73496598
0.1110176 -0.281874 0.74912423
0.13070481 -0.2651903 0.76604778
0.1237195 -0.2997393 0.69616002
0.2043242 -0.3085928 0.72390687
0.20074271 -0.30999479 0.72195202
0.12665971 -0.3042264 0.70074862
0.1416886 -0.2918295 0.77054143
0.1324514 -0.250433 0.77144122
0.1490684 -0.26498821 0.77765882
0.14917199 -0.2259067 0.78616422
0.1493496 -0.2301821 0.78670287
0.14631531 -0.26111081 0.7784645
0.1151828 -0.26163721 0.75513017
0.1197201 -0.2851041 0.7523728
0.2430522 -0.43868959 0.62973279
0.24471021 -0.44215241 0.58573091
0.18277781 -0.30597439 0.80140948
0.204188 -0.29041821 0.8303073
0.16890541 -0.2431594 0.80099088
0.2099355 -0.30891871 0.77510911
0.22243971 -0.3058798 0.79783601
0.26252681 -0.48425779 0.7878049
0.2387187 -0.31962559 0.80773318
0.25401151 -0.46930021 0.74559528
0.26750109 -0.48550019 0.79954213
0.24416789 -0.4126856 0.75088209
0.26280189 -0.4926281 0.78200132
0.24995001 -0.43153989 0.75921112
-0.55002028 -0.085025214 1.035098
-0.55763829 -0.087229051 0.97950321
0.2013071 -0.1544795 0.5551973
0.2027119 -0.1655923 0.59880233
0.09919975 -0.28769019 0.71511602
0.1595962 -0.3008557 0.6289854
0.22791471 -0.32978731 0.53979999
0.25311971 -0.4677057 0.66533297
0.2415265 -0.42324069 0.64775038
0.2197684 -0.16302671 0.82988131
0.1970434 -0.3072646 0.57055372
0.2382341 -0.42238441 0.53728509
0.19961479 -0.2173198 0.5358144
0.1967959 -0.1935817 0.8284989
0.1638401 -0.24246681 0.79428738
0.25291219 -0.36864281 0.80746329
0.1052084 -0.13799579 0.72114319
0.2315616 -0.32796159 0.6184051
0.24386869 -0.4864468 0.57581168
0.1078643 -0.1372758 0.74447852
0.2034902 -0.14896519 0.69476718
0.24371719 -0.4349449 0.59483278
0.2102055 -0.1553006 0.66768748
0.2079836 -0.16610271 0.65346181
0.13243151 -0.27517459 0.7606746
0.1326485 -0.2638703 0.76542193
0.1832698 -0.3090955 0.68854582
0.13093869 -0.2473934 0.76374328
0.2469068 -0.41787651 0.70577252
0.26405311 -0.51145351 0.60315019
0.27548769 -0.50604802 0.73031151
0.25328451 -0.37850809 0.80833602
0.21335229 -0.170274 0.73882347
0.1987137 -0.29302481 0.8256467
0.19658621 -0.1933441 0.82337892
0.2249364 -0.2264711 0.8568235
0.220341 -0.1963625 0.85505521
0.20753311 -0.17010839 0.80879557
0.25620869 -0.45203501 0.82432377
0.26187339 -0.495662 0.77850628
0.25472069 -0.3995741 0.89024061
0.2699987 -0.50987142 0.68282193
0.25270799 -0.38251451 0.85016668
0.27623421 -0.5109393 0.8033976
0.25125131 -0.3772718 0.86239129
-0.56869632 -0.1030695 0.98509067
0.1451236 -0.2473208 0.78501981
0.2247458 -0.30839109 0.70271438
0.2210758 -0.22359 0.84999621
0.2638045 -0.48423439 0.90848029
0.154254 -0.3050876 0.75512922
0.23170809 -0.32389319 0.62791628
0.2465494 -0.38572761 0.79663098
0.26350921 -0.43614179 0.88047898
0.022081239 -0.1356127 0.76897973
0.24502011 -0.32135549 0.87881631
0.2457688 -0.4825567 0.59828389
0.1103586 -0.2275286 0.71143782
0.1213683 -0.30014959 0.63553232
0.1062335 -0.30176651 0.6888485
0.2085291 -0.2195148 0.83484691
0.2052305 -0.1542917 0.65686452
0.23140439 -0.3461768 0.61559331
0.2348071 -0.28891039 0.87760818
0.21045309 -0.1532689 0.70551997
0.2178411 -0.2226056 0.84537983
0.2302101 -0.2256621 0.86178237
0.2616421 -0.44188651 0.87135112
0.23738991 -0.31164899 0.64973348
0.26262251 -0.463516 0.84056252
0.25464779 -0.38952231 0.88137633
0.2461288 -0.43101621 0.68254399
0.25571671 -0.45030001 0.76569903
0.2460319 -0.4047668 0.71797568
0.25740239 -0.43888131 0.78670198
0.27866581 -0.5034759 0.90335071
0.2417921 -0.41897649 0.61509168
0.24347641 -0.4347086 0.61278218
0.25586611 -0.4003652 0.85352498
0.2353076 -0.3485221 0.63275832
0.25721151 -0.45716369 0.7482717
0.2498883 -0.35419321 0.88334399
0.25054389 -0.349682 0.85525382
0.094148234 -0.23629761 0.66311997
0.21024171 -0.28173259 0.52644497
0.2287723 -0.33094019 0.53832901
0.2137121 -0.2833887 0.5310533
0.2431072 -0.30833331 0.87944353
0.2266681 -0.34347641 0.52987641
0.24049141 -0.3065483 0.81675142
0.24830911 -0.36603069 0.76963317
0.21196599 -0.1598672 0.68363363
0.239114 -0.41543141 0.53728598
0.2087322 -0.30078989 0.82711112
0.09395282 -0.13638321 0.7901417
0.2031963 -0.30695269 0.54802638
0.2669408 -0.47025439 0.84755522
0.1204026 -0.13545351 0.7509895
-0.032209162 -0.13389771 0.81258148
0.24980751 -0.38368589 0.89537847
0.25940111 -0.4532223 0.86471808
0.24522211 -0.33271021 0.89237273
0.2147637 -0.22325911 0.83696258
0.1943814 -0.1538468 0.54824311
0.22922111 -0.32101569 0.67419612
0.1620889 -0.3004885 0.6320008
0.26114681 -0.50953829 0.52854812
0.2433717 -0.42158091 0.66169637
0.1935246 -0.28674749 0.82041651
0.26683381 -0.5092842 0.61913317
0.26571509 -0.45487759 0.88268262
0.239861 -0.4252975 0.53613818
0.24217141 -0.40992311 0.72127467
0.2829189 -0.50580043 0.86257178
0.19905519 -0.1636527 0.58036917
0.2459597 -0.4532074 0.62356693
0.2463029 -0.4352304 0.66710311
0.1445823 -0.2864936 0.76786488
0.2443936 -0.31262621 0.77278662
0.26426199 -0.43164971 0.8621794
0.25065309 -0.42419171 0.77085149
0.2537981 -0.4172003 0.76715392
0.1504086 -0.1333233 0.7955333
0.2480475 -0.43636709 0.68909663
0.25330049 -0.43273261 0.72746408
0.2505905 -0.43546951 0.73276043
0.25235671 -0.4324058 0.70098042
0.2436991 -0.47400501 0.73815542
0.24150629 -0.39315999 0.66345781
0.24447671 -0.44190761 0.71206957
0.2276742 -0.34433591 0.61238778
0.1178953 -0.301893 0.71373051
-0.52840179 0.031230019 1.0223351
-0.54813552 0.032209281 0.97322911
0.24799301 -0.4516727 0.64770448
0.26170921 -0.401788 0.89189619
-0.53959662 0.04119283 1.014818
0.2443637 -0.4256081 0.61848891
0.2090635 -0.3034687 0.76572901
0.24776269 -0.32732731 0.79422069
0.25616649 -0.40100789 0.88161898
0.276779 -0.50694638 0.76147097
0.1841501 -0.25189951 0.55891103
0.1493448 -0.26472971 0.60064441
0.2056452 -0.18788791 0.53612512
0.2149514 -0.29451111 0.50099432
0.231107 -0.3669259 0.4987514
0.2188876 -0.14917371 0.78855759
0.1913667 -0.3078202 0.76676643
0.2147464 -0.30298179 0.72707421
0.2277834 -0.3274211 0.50028771
0.2025253 -0.1897577 0.5239889
0.1995227 -0.17483871 0.51909268
0.19754159 -0.1602091 0.53379828
0.23895679 -0.3979798 0.51319498
0.21682359 -0.25595501 0.90023482
0.2032197 -0.1570572 0.52538228
0.21374661 -0.16817901 0.81540167
0.26523551 -0.50597638 0.67276448
0.2440404 -0.4200429 0.67722529
0.2455809 -0.42139581 0.66809088
0.20181739 -0.18694191 0.53564578
0.2108721 -0.1596549 0.66481149
0.1822674 -0.1378974 0.52466732
0.2098904 -0.2876803 0.52329528
0.20292421 -0.35783401 0.46197149
0.23278721 -0.36980021 0.49648279
0.2164655 -0.28461969 0.4965657
0.22882479 -0.37961489 0.47613001
0.23139539 -0.3855404 0.48634899
0.2268271 -0.36931041 0.485118
0.2121954 -0.2931405 0.49499619
0.20359901 -0.26908559 0.48457181
0.23479509 -0.35401681 0.62556583
0.1914885 -0.1659025 0.49653709
0.19986001 -0.17944171 0.50178647
0.20782579 -0.2472202 0.4934876
0.19179159 -0.13673639 0.53225982
0.24692009 -0.36971959 0.72574341
0.227305 -0.32688659 0.4985781
0.20073061 -0.1613774 0.52937949
0.26972339 -0.50421828 0.60901058
0.18778551 -0.30452761 0.56293023
0.2178863 -0.1725985 0.8401987
0.12949491 -0.28963381 0.74459118
0.1984922 -0.1720656 0.50305909
0.20251399 -0.1461563 0.66424501
0.1896168 -0.2995874 0.80885559
0.277401 -0.50124758 0.82667297
0.25574771 -0.43368521 0.76997238
0.2489332 -0.4181765 0.73083419
0.2008675 -0.18072329 0.50332057
0.2259873 -0.4166905 0.46172491
0.23137841 -0.44546399 0.4601576
0.2440228 -0.38095459 0.60957652
0.25100109 -0.39168331 0.51511472
0.21325579 -0.3014054 0.82403427
0.20488369 -0.2160769 0.49784341
-0.02687584 -0.136663 0.79506099
0.20519871 -0.2330593 0.49502531
0.19823711 -0.3049694 0.78814328
0.05581205 -0.13923199 0.6281153
0.038189121 -0.1341528 0.81920898
0.1743149 -0.3734082 0.46129829
0.23052999 -0.31974959 0.50974339
0.2644693 -0.41306439 0.86040539
0.1183292 -0.1367878 0.72612733
0.22313561 -0.32122219 0.4826487
0.27234241 -0.49504521 0.9326663
0.2469694 -0.43616739 0.65817058
0.2232642 -0.37845129 0.4763934
0.15684301 -0.1339673 0.78831518
0.15992969 -0.30160931 0.71323007
0.2608408 -0.46296319 0.84666169
0.227946 -0.30922979 0.67060453
0.24665651 -0.41716689 0.69090062
-0.53477073 -0.086960264 1.03425
-0.54731637 -0.087595522 0.96290171
-0.15752991 -0.1373443 0.63212359
-0.099963151 -0.1342901 0.71574122
0.1548661 -0.1394262 0.57527691
-0.53953153 0.02781778 1.0144939
0.059792232 -0.13677339 0.75047338
-0.13206311 -0.1393819 0.57852179
-0.01135123 -0.1355208 0.80834031
-0.01206074 -0.13818949 0.59850979
-0.040790211 -0.1363737 0.55888188
0.1265538 -0.1359268 0.73436499
0.2011791 -0.19523869 0.49951771
-0.02052366 -0.1388219 0.60666811
0.1960559 -0.2077224 0.49205941
0.2007589 -0.24454629 0.48785299
0.0022494651 -0.30469099 0.50075829
0.25207251 -0.4365769 0.57882929
0.1619923 -0.3033762 0.62030458
0.2431546 -0.33434799 0.73402882
-0.027539929 -0.13364241 0.81443352
0.1842185 -0.3174291 0.69007879
0.062570117 -0.1402725 0.60971248
0.022429589 -0.13696299 0.67540628
0.1212757 -0.137334 0.71248919
-0.085419819 -0.3086921 0.53012627
0.25662899 -0.34424719 0.87128812
0.02448523 -0.1384659 0.5340898
0.22022121 -0.2292259 0.88927358
0.1312823 -0.37653551 0.4587988
-0.020513009 -0.13894209 0.53328651
0.2632221 -0.48502329 0.72509301
0.1356463 -0.34258929 0.46124271
0.125139 -0.29564509 0.63087207
0.2101527 -0.30769759 0.55559838
0.18970729 -0.1414391 0.51550412
0.25129911 -0.45464489 0.75018501
0.2147042 -0.15095571 0.82294708
0.2044085 -0.16125 0.6584931
-0.0069062631 -0.30671349 0.53474909
-0.033185169 -0.48995849 0.45381379
-0.14043219 -0.28128231 0.52991313
0.0001523854 -0.3029457 0.56159341
0.1172463 -0.3844153 0.4535498
0.1676081 -0.41654351 0.4527989
0.0244548 -0.38541451 0.46409571
0.031100631 -0.43329051 0.46203291
0.072928153 -0.51075858 0.43910569
-0.0050538061 -0.3879768 0.46885911
0.094904207 -0.50825572 0.4326244
-0.1115922 -0.2248459 0.55389458
-0.01757995 -0.48117861 0.45477659
0.016203679 -0.38722381 0.4646278
-0.0001062439 -0.45346531 0.45785531
0.096654303 -0.30841231 0.51288468
-0.0096134366 -0.41791281 0.46675071
0.030812221 -0.46569431 0.45381859
-0.04347739 -0.4051649 0.46992719
-0.071457572 -0.35274199 0.47277081
-0.1396991 -0.15228491 0.51211089
-0.1524985 -0.31086361 0.49890319
-0.060521569 -0.34810629 0.4715108
-0.099684 -0.4033643 0.4733271
-0.1018963 -0.39909759 0.47102961
-0.1582536 -0.37801901 0.47830459
-0.085106723 -0.42864871 0.47076249
-0.049495421 -0.43916479 0.46675301
0.043429561 -0.30411601 0.56713492
0.044904061 -0.29985511 0.58958352
-0.093219183 -0.50909281 0.44699311
0.1105667 -0.51128137 0.4351728
-0.030384449 -0.3010734 0.6075114
-0.1077716 -0.2242308 0.54068547
0.18297429 -0.42787999 0.4490681
-0.097514883 -0.34669 0.4786289
-0.1163274 -0.33517551 0.47951859
-0.0157103 -0.35927171 0.4704785
-0.19240829 -0.4064011 0.47584239
0.099747211 -0.50386429 0.43109649
-0.150456 -0.27893329 0.51403219
-0.1619349 -0.3313753 0.48448831
-0.091533273 -0.50769788 0.44683671
-0.1202546 -0.46446049 0.46253431
-0.1182055 -0.30460191 0.51872998
-0.1423104 -0.43690819 0.46749061
-0.1603763 -0.28090239 0.50585341
-0.19335569 -0.3593668 0.4856635
0.009484916 -0.39094439 0.46773359
-0.1838091 -0.4250975 0.4714399
-0.1401896 -0.50488621 0.44664189
-0.17937329 -0.2160231 0.50964481
-0.2382212 -0.47746289 0.47643331
0.018756291 -0.50878328 0.4299134
0.00022958541 -0.2377359 0.62221187
0.2245276 -0.4519518 0.4566963
-0.04785626 -0.25068739 0.60457039
-0.1903059 -0.4164786 0.47567239
-0.097014971 -0.34121069 0.47472689
-0.1595425 -0.37384391 0.47669479
-0.18092351 -0.3928991 0.47864449
-0.1776551 -0.50404018 0.44986171
-0.1667766 -0.31016219 0.494688
-0.2484698 -0.50821751 0.4646866
-0.2346656 -0.491492 0.46515661
-0.01251662 -0.51244062 0.4136115
0.044290259 -0.51091319 0.40031329
0.0050399178 -0.2988821 0.56312799
-0.1143245 -0.4727385 0.46235979
-0.64003313 -0.39467561 0.8009817
-0.72658223 -0.4609074 0.77193952
-0.64210212 -0.44347611 0.645549
-0.1453006 -0.50435448 0.44948849
-0.56765199 -0.31254649 0.64558041
-0.066217452 -0.35465819 0.48186189
0.1813411 -0.5063467 0.42959541
0.1267606 -0.3318238 0.4662793
0.01773818 -0.28083459 0.61491162
0.1599053 -0.25940391 0.48800361
-0.099100947 -0.27278209 0.56037098
0.0019542349 -0.51034927 0.4337154
0.05449098 -0.1814175 0.50040352
0.1319117 -0.33866629 0.47508681
0.1955151 -0.35602829 0.4606961
0.087897412 -0.33620149 0.4642382
-0.12763 -0.2747587 0.53611147
0.2286367 -0.50999087 0.43641239
0.1724613 -0.34547621 0.4601523
0.22478621 -0.3562637 0.53510487
0.18884329 -0.2120268 0.4952524
0.1776415 -0.3611086 0.45780051
0.2331008 -0.4006128 0.51491582
0.1006468 -0.50407797 0.43153891
0.2382472 -0.38462329 0.61394411
0.22783101 -0.32787541 0.53674102
0.2293819 -0.32729369 0.53319919
0.242201 -0.45665789 0.62570977
0.2107189 -0.3635371 0.47800189
0.24049009 -0.4214761 0.62934148
0.22440711 -0.36664039 0.49545249
0.2262978 -0.38028279 0.50014788
0.2354278 -0.3920185 0.63083857
0.2404348 -0.4419513 0.59938538
0.25313371 -0.4592005 0.73216027
0.24574681 -0.44042781 0.70954591
0.2376923 -0.41678131 0.53090852
0.2340412 -0.3246806 0.62650549
0.23643769 -0.42491919 0.52647918
0.27513039 -0.50993079 0.73045957
0.1851014 -0.16933189 0.49888861
0.17754669 -0.31594461 0.61992967
0.2026224 -0.1537419 0.68438768
0.193994 -0.1573177 0.55789018
0.1986939 -0.2961905 0.83470422
0.1476696 -0.1439328 0.57577932
0.2281784 -0.31793231 0.80527401
-0.046575241 -0.1345598 0.89150101
0.15831649 -0.1426876 0.71948189
0.01200556 -0.1373754 0.70135683
0.1572414 -0.1407396 0.71135569
0.1153156 -0.1379569 0.73467499
0.2029648 -0.16379119 0.66932052
0.2071418 -0.29237601 0.52267009
0.2050714 -0.29392141 0.52917099
0.25975469 -0.49121979 0.7941677
0.26050419 -0.44500369 0.87460339
0.259316 -0.47001389 0.84771031
0.24914581 -0.4788675 0.75252962
0.26647031 -0.48710811 0.80005342
0.25321361 -0.4528926 0.82684863
0.25143909 -0.4542281 0.76752341
0.2467225 -0.46339029 0.75767469
0.2335387 -0.38735169 0.48061451
0.22837409 -0.44212151 0.4748053
0.2089079 -0.2923772 0.53712881
0.2274411 -0.439789 0.4713721
0.2631861 -0.48935369 0.77774417
0.25423709 -0.4635984 0.75370789
0.2356654 -0.42475849 0.53761709
0.1819724 -0.1784769 0.49792361
0.22314361 -0.42142639 0.46096551
0.19926409 -0.36340719 0.46282199
0.16726141 -0.4200246 0.4539499
0.22412591 -0.4734233 0.45846921
0.1586853 -0.1388972 0.78316492
0.089303792 -0.1373184 0.78848839
0.001128403 -0.14093129 0.64905381
-0.1688263 -0.13982759 0.62301338
0.1244784 -0.13848419 0.71917009
-0.027348321 -0.13845401 0.57155329
0.2379864 -0.46017689 0.50807238
0.21040601 -0.30376339 0.82685608
0.1897936 -0.51429927 0.43129611
-0.07616175 -0.1403518 0.90285522
-0.1017386 -0.14355581 0.59505111
0.2118164 -0.1381132 0.85991693
0.22170191 -0.33357969 0.50054377
-0.02198318 -0.1402885 0.75425529
-0.043965381 -0.1583036 0.67157602
0.1905437 -0.18581679 0.50698739
0.2041138 -0.1595145 0.7204833
0.2303454 -0.33076859 0.61512458
0.1535423 -0.31013009 0.62534922
0.1135137 -0.1384078 0.76116681
-0.040206891 -0.13895459 0.55620497
-0.02430287 -0.1367925 0.5796721
-0.05862885 -0.1376967 0.68109632
0.2051294 -0.47992179 0.4482787
0.22505639 -0.23213109 0.87217391
0.26274231 -0.51872247 0.60605758
0.19485369 -0.1728946 0.60515082
0.2503249 -0.38070169 0.78748631
0.2023059 -0.51285601 0.4306837
0.27752391 -0.51265317 0.80229771
0.2105512 -0.48723489 0.44743359
0.2478849 -0.3733651 0.8129521
0.2402426 -0.31756541 0.77658319
0.2202982 -0.41886351 0.96093178
0.2252831 -0.34377229 0.53715438
0.26298371 -0.51575869 0.56892788
0.26058981 -0.53071523 0.63251352
0.078696288 -0.50679308 0.4343574
0.1573941 -0.30316189 0.75241661
0.091226093 -0.51117378 0.43203461
0.1126279 -0.51058429 0.43304679
0.1131376 -0.5116483 0.43154031
0.2279167 -0.35225141 0.58592218
0.19743779 -0.1530509 0.55640268
0.2407468 -0.44124389 0.5839541
-0.038762499 -0.13869029 0.79669827
-0.15333921 -0.13090821 0.86303258
-0.15133449 -0.1431694 0.90560871
-0.096494786 -0.1386404 0.73080027
-0.022864239 -0.13524871 0.79173851
0.051134579 -0.13915411 0.87960351
0.039557211 -0.1395289 0.83391798
-0.09614294 -0.1391317 0.81746119
-0.0065425681 -0.1342719 0.80327839
0.02165081 -0.140258 0.81787288
-0.1068707 -0.14008521 0.749165
-0.078187883 -0.13802899 0.74330127
-0.06657932 -0.14168981 0.78466052
0.073835663 -0.13547491 0.78817171
0.04988211 -0.1381882 0.75626278
0.039892349 -0.1377624 0.75518513
-0.038182162 -0.1370199 0.74930829
0.026706981 -0.1379271 0.7770502
-0.041700609 -0.13980751 0.80695379
0.098112904 -0.13794971 0.74206978
0.031099381 -0.1334084 0.75658739
0.074039146 -0.13364071 0.74878919
-0.1209689 -0.13868099 0.78033531
0.04187477 -0.1294754 0.74604279
-0.1090088 -0.1382369 0.86278921
0.02238889 -0.13739289 0.82112777
0.05346439 -0.1380875 0.75773448
0.04224794 -0.1372928 0.73211437
-0.0096892891 -0.13715351 0.7252816
-0.067571402 -0.13727 0.72502738
-0.01499393 -0.1391008 0.73856872
-0.1804184 -0.1404361 0.74833798
-0.1704776 -0.1330559 0.78377718
-0.072557554 -0.1349861 0.71675497
-0.053328682 -0.1339533 0.83074361
0.03412341 -0.13801371 0.79316062
0.037451241 -0.1381076 0.790465
-0.02420336 -0.1381406 0.8057161
-0.041602209 -0.14112119 0.80331248
0.05150453 -0.1366839 0.74837571
-0.02221597 -0.1351846 0.7928521
-0.040772039 -0.13148201 0.82161093
-0.05684286 -0.1372316 0.74668813
-0.12944721 -0.1344548 0.72599608
-0.1781096 -0.1376863 0.76383418
-0.1553383 -0.1344642 0.89025998
0.002087252 -0.13621511 0.79301453
-0.005946558 -0.1340702 0.8069216
-0.04394665 -0.1359915 0.76035929
-0.03369363 -0.1314124 0.82838339
0.040372811 -0.1351548 0.78148448
-0.126729 -0.1324337 0.80489308
0.106753 -0.1362662 0.73485899
-0.119505 -0.1419486 0.7812885
-0.59751272 -0.3679747 0.80781972
-0.004628683 -0.13632829 0.83558363
-0.55718392 -0.47685769 0.86712933
-0.0454561 -0.1374341 0.75026071
-0.59345531 -0.50049508 0.82036388
-0.1011576 -0.1359105 0.7459991
-0.078502767 -0.1381332 0.74499708
0.001684182 -0.13291609 0.70701689
0.031656031 -0.1358365 0.78301859
-0.039404921 -0.1369359 0.79096651
-0.097164713 -0.1389768 0.73028052
-0.021011479 -0.1359506 0.722305
-0.0048677968 -0.1380817 0.72172213
-0.01209847 -0.1340019 0.69446433
0.0079722721 -0.1348221 0.71346158
0.086956277 -0.13564239 0.70928973
0.0082575092 -0.1372366 0.83147681
0.05264724 -0.13926201 0.82177627
0.076293483 -0.1371336 0.80790019
0.092396282 -0.13468461 0.80116749
-0.1476744 -0.142287 0.81312841
-0.066413291 -0.13511451 0.73363578
-0.036000319 -0.1352742 0.73406821
-0.61225301 -0.4247885 0.64254832
-0.63987368 -0.52267468 0.67924488
-0.1288697 -0.13439021 0.72148138
-0.1030255 -0.13911781 0.681086
-0.61528409 -0.35101131 0.66793782
-0.059697721 -0.13915341 0.68367928
0.0643382 -0.1407184 0.69177878
-0.02569999 -0.1368292 0.76672608
-0.62361622 -0.41753289 0.63009351
-0.64749879 -0.52793747 0.61656648
0.035492171 -0.13812441 0.75909048
-0.0080331406 -0.1403598 0.67288327
0.001348556 -0.1317942 0.70144391
0.01792806 -0.1397711 0.69877821
-0.054884411 -0.1350138 0.66371042
-0.067162722 -0.1388033 0.6604448
-0.64974821 -0.37897471 0.61202312
-0.02103921 -0.1321771 0.69014281
0.01118752 -0.1398305 0.66302067
-0.065677144 -0.13488381 0.65372843
0.00189264 -0.1395468 0.65543789
-0.060426511 -0.4970082 0.97888023
-0.1815751 -0.4878439 0.98245257
-0.0064695659 -0.13718671 0.8373158
0.044889789 -0.1336915 0.82762772
-0.058513079 -0.138965 0.81863332
0.078037769 -0.133761 0.83845448
-0.082550511 -0.1354389 0.80664229
0.022849509 -0.1354125 0.78204489
0.038325898 -0.13295659 0.7656647
-0.02446316 -0.1374284 0.71532649
-0.067604601 -0.13706461 0.72250319
-0.64546221 -0.46644261 0.56381261
-0.085861787 -0.13081241 0.68505228
-0.1749595 -0.13314749 0.66754472
-0.59978092 -0.2443222 0.601641
-0.58355898 0.03073472 0.59029198
-0.1237477 -0.14113469 0.74478292
-0.61795533 -0.2120011 0.54033011
-0.090562053 -0.1384763 0.74515712
-0.61237478 -0.09989389 0.6024791
-0.61723733 -0.12769011 0.59685099
-0.59217322 -0.23559619 0.527215
-0.60977721 -0.4357678 0.67069381
-0.1753926 -0.1515021 0.72221059
0.02641386 -0.1374463 0.66234398
-0.1333724 -0.1344025 0.65128529
-0.069286443 -0.1382762 0.66195291
-0.1049994 -0.1319833 0.61889148
0.028223639 -0.1321445 0.65040481
-0.18736289 -0.45940271 0.97924602
-0.095888212 -0.47984219 0.97757661
-0.09926752 -0.12758709 0.82862949
0.077610061 -0.1347508 0.84534031
0.0040913061 -0.1351887 0.83399838
0.036964439 -0.13413391 0.81355667
-0.052829091 -0.13660561 0.78652239
-0.07387463 -0.134809 0.77658552
-0.17491239 -0.13879921 0.74528527
-0.0050373562 -0.1306375 0.82036912
-0.64545143 -0.42848319 0.57955348
-0.59745991 0.0082982602 0.60377908
-0.001246586 -0.1316486 0.79057038
-0.59505218 -0.027406489 0.55235529
-0.60401678 -0.18671639 0.52275318
-0.62769669 -0.1113826 0.6125055
-0.60983628 -0.13945051 0.60089141
-0.1574969 -0.13280889 0.59549522
-0.1361064 -0.1359365 0.70568669
-0.16208009 -0.1270837 0.59289891
-0.1161193 -0.13192829 0.60814422
-0.61975181 -0.49137491 0.55971909
-0.16970789 -0.1249589 0.61745691
-0.064317517 -0.13160031 0.65103883
0.0032672361 -0.13261241 0.64320749
-0.1409367 -0.1353958 0.58643812
-0.061425861 -0.1341022 0.61798739
-0.092637509 -0.1415239 0.59983891
-0.55532187 -0.30821219 0.56082797
0.0077709882 -0.14685071 0.66451442
-0.089506418 -0.1287715 0.59889358
0.053375602 -0.13462859 0.64976227
-0.1238423 -0.14087629 0.57431602
0.04874884 -0.1325088 0.8754127
-0.048532192 -0.1391896 0.62775153
0.1249283 -0.13482989 0.73020452
0.2047179 -0.29966471 0.71627581
0.04545762 -0.3687185 0.93468517
0.1021311 -0.32509631 0.92683297
0.1568675 -0.1482995 0.89147967
0.0446583 -0.1348782 0.75785869
0.2054915 -0.29220331 0.69385648
0.26252171 -0.47550249 0.79221272
0.2428426 -0.40827969 0.72430789
0.2431926 -0.30601749 0.87801683
0.001365424 -0.38486481 0.94380122
0.1219634 -0.1321232 0.70620978
0.25156641 -0.39611351 0.9096334
-0.01311778 -0.1406731 0.78916937
0.093849577 -0.44661829 0.94680268
0.04207246 -0.35874099 0.93882382
0.2069332 -0.14738899 0.88039821
0.21128561 -0.28552049 0.51355797
0.047881462 -0.1359535 0.8388347
0.1982836 -0.31020239 0.54803813
0.1432219 -0.35169911 0.925551
0.2382594 -0.32286301 0.79627788
0.20940571 -0.14807621 0.78912151
-0.16776709 -0.13701861 0.57469058
0.1354807 -0.13764299 0.55912483
0.2286721 -0.31228831 0.68518698
0.24884591 -0.3717081 0.80850559
-0.025028329 -0.1367774 0.72429621
0.2378677 -0.3208985 0.77432352
0.2038493 -0.2995407 0.70738328
0.2534034 -0.45742589 0.74163818
0.2267196 -0.39544791 0.93261439
0.2367662 -0.42968929 0.59405053
0.16822229 -0.14138649 0.59204829
0.19559669 -0.1756818 0.53219801
0.22594219 -0.29990631 0.81411982
0.2108798 -0.28520229 0.51789129
0.1578823 -0.30005181 0.66755539
0.2100444 -0.14949811 0.79226577
0.2393108 -0.32038689 0.80224359
0.1854167 -0.2493784 0.55706102
0.26299289 -0.47121161 0.79765981
0.26212019 -0.45962679 0.8417663
0.24100821 -0.30834359 0.88098598
0.2443867 -0.3672176 0.75925553
0.02304391 -0.46624541 0.94975138
0.15489849 -0.148175 0.89314252
0.094409123 -0.33444509 0.92516232
0.2401264 -0.2781263 0.88000309
0.193415 -0.1566451 0.55733973
0.19210941 -0.28421259 0.80201483
0.2369812 -0.4253031 0.58187622
0.2492213 -0.37928009 0.81149608
0.2354313 -0.3395327 0.73580992
0.260667 -0.4954021 0.77482688
0.26029211 -0.4447853 0.75348908
0.21902891 -0.34671009 0.52623922
0.26425061 -0.48574299 0.77369082
0.2496244 -0.43850511 0.62366968
0.2386529 -0.48504129 0.46606871
0.2482629 -0.48224151 0.51648581
0.2306854 -0.33862829 0.61316657
-0.61289442 -0.1538094 0.52959108
0.070482947 -0.30401459 0.91471368
0.1941063 -0.1848748 0.56640452
0.24199019 -0.41568449 0.74752951
0.20409229 -0.1686592 0.64748549
-0.1324333 -0.1380444 0.58742237
0.08112859 -0.3615444 0.93362749
0.19502001 -0.29716569 0.68940598
0.1708881 -0.13485061 0.82881749
0.1967506 -0.1863917 0.55355722
0.2185611 -0.2236025 0.8858211
0.1398925 -0.15590321 0.89170289
0.097728953 -0.1607973 0.90192932
0.098676801 -0.1480657 0.89167613
0.1041358 -0.15559191 0.89745128
0.096704997 -0.1459382 0.89836597
0.01375453 -0.21836659 0.78969038
0.068931334 -0.1493894 0.89733452
0.1068791 -0.1486098 0.89359713
0.01621135 -0.2106908 0.79427493
0.076782599 -0.28220761 0.82506508
0.1137997 -0.2413325 0.84679759
0.094848387 -0.209682 0.8253333
0.1003336 -0.2282259 0.84004372
0.094996862 -0.2292805 0.83449942
-0.1086848 -0.1476752 0.90140623
0.0099030696 -0.1472114 0.89807278
0.1340111 -0.30327871 0.87040448
-0.018297041 -0.14657 0.89833421
-0.067616008 -0.15459689 0.9172169
-0.099582396 -0.2330925 0.87552333
-0.074138373 -0.1966044 0.85213542
-0.04769697 -0.26548401 0.82051963
-0.1002696 -0.20523921 0.87814611
0.113341 -0.2953411 0.89339417
0.01158739 -0.29326999 0.80618739
-0.1042425 -0.2340889 0.88640869
-0.070562221 -0.2182966 0.84750038
-0.1014531 -0.2184795 0.88168478
-0.076272957 -0.21866859 0.84809953
0.023626549 -0.31565791 0.93951893
-0.003094631 -0.34515399 0.92722511
0.1052371 -0.3185479 0.93319231
-0.074399807 -0.32116011 0.93441832
-0.056758791 -0.3281585 0.94223958
0.1246134 -0.38082969 0.9373405
0.1478162 -0.4117412 0.94843459
-0.096004598 -0.34588769 0.94968343
0.060592219 -0.3632023 0.9384765
-0.1008424 -0.34652051 0.94640481
0.001105755 -0.3817544 0.94385833
0.083273813 -0.3625696 0.93241262
-0.1534465 -0.32970229 0.93762648
-0.049444102 -0.43153319 0.9544155
0.0058418731 -0.41164851 0.9467873
-0.081703722 -0.38139901 0.94904017
0.084415473 -0.45612511 0.94925803
0.14627931 -0.4638938 0.94308478
-0.066748843 -0.39921319 0.95699561
-0.051563211 -0.42727679 0.95442998
0.01341833 -0.4560965 0.95216119
0.1186697 -0.3619518 0.93065411
0.1010657 -0.3423351 0.92754477
-0.1409308 -0.3394832 0.94957888
-0.1225054 -0.35348979 0.94393259
0.090943329 -0.44617069 0.94009793
0.096468173 -0.44725209 0.94231081
-0.078129157 -0.39707819 0.95657229
0.1624468 -0.41551131 0.94021457
-0.121362 -0.35826421 0.94629312
0.067417189 -0.44483009 0.95248181
0.1565209 -0.40071329 0.93913418
0.024450479 -0.45537469 0.94621009
-0.043125339 -0.3334403 0.93686771
0.04051958 -0.35902011 0.93896651
0.1732095 -0.41391271 0.93656462
0.171867 -0.40975881 0.93890762
0.1699 -0.43084621 0.94177932
0.054269891 -0.39500549 0.94943237
-0.01053897 -0.40135911 0.9401136
-0.089129522 -0.199415 0.87085372
-0.01940332 -0.33291501 0.93874902
-0.08906845 -0.2366965 0.86203891
-0.062514998 -0.30793831 0.92597121
-0.04052671 -0.33868521 0.93220723
0.1301021 -0.30856079 0.88863528
-0.1154104 -0.4128266 0.95914853
0.01182101 -0.294866 0.84760898
0.19317511 -0.49737141 0.98102772
0.1241207 -0.20745599 0.85498029
-0.01045701 -0.3469781 0.93918878
0.051465511 -0.40635359 0.94271839
0.062239431 -0.3957051 0.94086373
-0.006438653 -0.283966 0.79238951
0.06063601 -0.40844569 0.93892688
-0.1531156 -0.2331339 0.92042482
-0.1443664 -0.32482061 0.94725192
-0.1605494 -0.38224989 0.94935739
-0.1215451 -0.33644029 0.95064771
-0.1429143 -0.33625391 0.9591943
0.1465407 -0.49608639 0.97002518
-0.1030837 -0.4975442 1.128351
0.1326333 -0.38791659 0.94307232
-0.129775 -0.229975 0.92795843
0.12831961 -0.2193732 0.85093552
-0.1733382 -0.168797 0.90457129
0.2053282 -0.49875569 1.105383
-0.085441537 -0.2371407 0.8671571
-0.1181285 -0.49020481 1.134221
0.01813834 -0.49247879 1.170426
0.040781599 -0.49493161 1.095399
0.049646098 -0.49801069 1.123255
-0.2067177 -0.35059381 0.9198615
-0.1199915 -0.1754816 0.90516448
0.1151442 -0.2450736 0.84730422
0.1216329 -0.36004511 0.9325397
0.00274184 -0.1467687 0.90810913
0.057534259 -0.1344839 0.86616617
-0.019401331 -0.49644139 1.071739
0.1811154 -0.4973461 0.97579348
0.10598 -0.34054649 0.92998058
0.1687921 -0.42651629 0.94111538
-0.070561357 -0.4003824 0.95140779
-0.086074397 -0.49612889 1.105484
-0.1860749 -0.25842091 0.90657198
0.00028997369 -0.29182321 0.83151788
-0.1875222 -0.2941651 0.91169143
0.03324879 -0.13160449 0.84699702
-0.13561989 -0.4375546 0.96287727
0.080208547 -0.36204299 0.93153328
0.016933151 -0.44412401 0.94530642
-0.1112017 -0.41183159 0.95955032
-0.1795371 -0.2485773 0.91856778
-0.051398881 -0.2963683 0.90435278
0.047908839 -0.37325841 0.92845088
0.083783858 -0.45101011 0.95253229
-0.1407793 -0.1302349 0.91856211
-0.003322338 -0.49655959 1.129059
0.1372363 -0.3305943 0.93654811
-0.1066762 -0.2272274 0.90042531
0.08364825 -0.30732551 0.91805643
-0.077381961 -0.28255951 0.86496389
-0.1306345 -0.14084999 0.91094887
-0.1679775 -0.16335499 0.91078651
-0.053872678 -0.29181561 0.88073182
0.14217819 -0.15654109 0.8854658
0.053577781 -0.3717722 0.92953759
-0.079059906 -0.1340712 0.87810409
-0.12599009 -0.33629489 0.95153308
0.0130924 -0.29262191 0.8105517
0.091119774 -0.33571449 0.93667603
0.055293951 -0.51327437 1.086441
-0.1786878 -0.1365606 0.55440038
0.0004302749 -0.134286 0.64878821
-0.18388399 -0.29883099 0.93804979
-0.049368609 -0.4836314 1.075879
-0.034337081 -0.3861481 0.95794618
-0.1570199 -0.14063939 0.56899089
-0.054068349 -0.1357923 0.81615639
0.09274327 -0.49599391 1.0599819
0.077450447 -0.1617534 0.88680202
0.229412 -0.43427011 0.9284395
0.1932244 -0.2479727 0.88508749
0.001290267 -0.13636909 0.78266943
-0.016842371 -0.1402642 0.80954331
0.2473224 -0.30304021 0.87397093
-0.032116279 -0.13460679 0.79659039
-0.090391621 -0.1376932 0.71617979
0.021820109 -0.1352898 0.64266819
-0.13312609 -0.140894 0.57511359
0.16255879 -0.1359868 0.85079801
0.050178319 -0.135813 0.59759909
0.078755282 -0.1374761 0.63448548
-0.1133369 -0.140182 0.56724137
-0.03106639 -0.1351741 0.80912763
0.16639601 -0.1368033 0.78088951
0.16941351 -0.13600171 0.76653337
0.1683673 -0.1357889 0.77289021
0.037864249 -0.1341311 0.77590942
-0.039591022 -0.1393182 0.61857808
0.0035860271 -0.13838799 0.58560681
0.090266541 -0.1360881 0.72483271
-0.080368131 -0.14009561 0.59789962
-0.069868587 -0.1357165 0.58512908
-0.1432521 -0.3273136 0.937428
-0.0086781029 -0.156205 0.89075202
-0.002459819 -0.138688 0.81271392
0.1630051 -0.1370202 0.56138629
-0.01515128 -0.13546249 0.68263382
0.0066239289 -0.1404424 0.59563929
0.21770971 -0.1376752 0.85401541
-0.051755231 -0.13125829 0.72829401
-0.1514319 -0.1368943 0.61367261
-0.1143931 -0.131694 0.70014763
-0.041068491 -0.132875 0.88420552
-0.03223262 -0.1416779 0.87297553
0.2303649 -0.26611131 0.88809919
0.226541 -0.34532559 0.91932148
0.1243078 -0.1355478 0.5948503
0.045551579 -0.13719121 0.82575649
0.1689329 -0.13627531 0.58217221
0.1550702 -0.1376486 0.58311468
-0.04758995 -0.1342674 0.88352227
0.083435178 -0.13416339 0.8315686
-0.01760071 -0.1350233 0.78363901
-0.01151728 -0.1175967 0.67735368
0.03797603 -0.134157 0.77671528
0.061904941 -0.1337453 0.75209862
0.065990686 -0.13512459 0.77720958
-0.01529853 -0.29818591 0.86793017
0.1541886 -0.1359845 0.56213009
0.13608231 -0.1323311 0.7230137
0.0605602 -0.137042 0.59679252
0.090535752 -0.1362564 0.63672471
-0.01301317 -0.1345686 0.52790719
0.049062841 -0.13596641 0.61067933
-0.0051395982 -0.1391651 0.53760701
0.090752073 -0.13602111 0.62327808
0.1126246 -0.1351199 0.61878002
0.1235841 -0.1335669 0.75805312
0.2228213 -0.2349586 0.87666959
0.2112553 -0.1904078 0.88469601
0.21792351 -0.17356659 0.87526411
0.1088209 -0.1349898 0.66579741
-0.02714867 -0.13874049 0.62097442
-0.062940367 -0.1368046 0.60000873
0.01740336 -0.1352504 0.58362383
0.173623 -0.13439129 0.50006592
0.047150798 -0.1341317 0.74907261
0.1555559 -0.1349252 0.77140629
0.03433289 -0.1383443 0.57132441
-0.01999368 -0.1334182 0.56718189
-0.60330421 -0.3130722 0.53625327
-0.028938221 -0.1312131 0.69612932
0.042410601 -0.13459849 0.75241768
0.03809439 -0.13793381 0.63952577
-0.084566973 -0.1359362 0.58436608
0.21353281 -0.1413068 0.87646878
-0.060546368 -0.1364252 0.65555203
-0.01608968 -0.1354374 0.88186902
0.0022867741 -0.1331571 0.82961148
0.120579 -0.13572671 0.66467923
-0.1365058 -0.13498031 0.80647123
-0.077741027 -0.13725311 0.71652079
0.17696521 -0.13505679 0.64699948
0.2341954 -0.34696469 0.91410172
0.1759153 -0.13419341 0.7371434
0.1873963 -0.13747109 0.58769828
-0.089927033 -0.13310809 0.8133083
-0.1134594 -0.1343382 0.58595502
-0.08992932 -0.14012121 0.80222422
0.0065182978 -0.13426749 0.68695372
-0.082301199 -0.13126411 0.73930389
0.038217179 -0.1365272 0.84767818
-0.1222764 -0.13599069 0.71805328
-0.003283707 -0.1360876 0.66699171
-0.001600249 -0.135694 0.68714148
0.078666143 -0.13312121 0.78066522
0.0001025824 -0.1345816 0.79978532
0.026127281 -0.1343832 0.6938253
-0.034854151 -0.1361606 0.55899101
0.01383929 -0.13392811 0.7079401
0.02855877 -0.132671 0.80218321
0.05763324 -0.1306157 0.83142447
-0.049043082 -0.29933849 0.89289051
-0.054570012 -0.3413263 0.92973179
0.1464406 -0.1569234 0.88755858
-0.1501378 -0.37819329 0.9431563
-0.1355411 -0.3570036 0.93812138
0.1636575 -0.1364674 0.69915068
0.1686887 -0.1368099 0.70614839
0.1794835 -0.41261289 0.93274778
0.24281681 -0.3893905 0.92306852
0.2068074 -0.1923887 0.89175838
0.026033649 -0.1359185 0.83327121
0.075132303 -0.1340646 0.8656801
-0.044634599 -0.28639081 0.86962718
0.13008431 -0.30133539 0.86252081
0.034478251 -0.1365972 0.66064662
0.078348681 -0.436887 0.94461042
0.099201702 -0.1337841 0.80696332
-0.15343709 -0.1339034 0.67773348
-0.1475575 -0.35682061 0.93798047
-0.031987499 -0.1351991 0.55008793
0.098256528 -0.13236959 0.79859221
-0.04926192 -0.13251691 0.67891592
0.170284 -0.29798949 0.89664
0.1894654 -0.1346461 0.64758599
0.0032629271 -0.1315574 0.71583462
-0.1131732 -0.41892049 0.94955999
0.16510721 -0.13758001 0.62300003
-0.03635836 -0.39951289 0.93999147
-0.13402189 -0.13350581 0.80182099
-0.033499319 -0.49105099 0.96701789
0.18089961 -0.1328155 0.74947912
-0.58941293 -0.36003849 0.55202782
0.1887365 -0.1349178 0.73730677
0.038074329 -0.1167059 0.76853448
0.063307337 -0.49259779 0.96164429
-0.021995259 -0.13131911 0.88723218
-0.1599872 -0.137613 0.75613427
0.06075307 -0.1303996 0.85850233
-0.60736519 -0.36202869 0.55697072
0.21320949 -0.35521021 0.92301488
-0.1667185 -0.1368393 0.77194858
-0.12752029 -0.1355658 0.64368987
-0.1157235 -0.4957675 0.97069317
-0.052317109 -0.1341406 0.68101668
0.061392888 -0.132229 0.87402159
-0.04585233 -0.13421071 0.82155561
0.003182973 -0.488783 0.96575493
-0.092524499 -0.1354553 0.67934448
-0.1839537 -0.1446465 0.52843922
0.20615301 -0.29783681 0.90920192
-0.102241 -0.29799131 0.89768708
0.19876491 -0.1380897 0.87374562
0.2145936 -0.3417713 0.91823357
-0.068504207 -0.40670571 0.94292021
-0.1497425 -0.13480809 0.88173538
-0.1018646 -0.1462041 0.90201432
-0.016841119 -0.1402003 0.57953072
-0.085575782 -0.1382989 0.80460387
-0.1016489 -0.1368131 0.85396308
0.02786985 -0.1351025 0.70713001
-0.12663101 -0.13285451 0.83257139
-0.1352668 -0.1362316 0.56214988
-0.62216121 -0.4421148 0.62933898
-0.1608534 -0.13361751 0.87352842
0.044971209 -0.1345831 0.7361871
-0.1424638 -0.1382107 0.89781249
0.056779739 -0.3607229 0.93069202
0.1538084 -0.34202239 0.92121798
0.107234 -0.32496089 0.92686057
0.136002 -0.29588231 0.88543171
0.01422797 -0.40709889 0.941387
0.111523 -0.35003489 0.93032843
0.1249545 -0.36030641 0.92653191
-0.1328337 -0.3589434 0.93646252
0.1500107 -0.37682021 0.92820179
-0.01062275 -0.1386224 0.51673901
0.145713 -0.137135 0.77820599
0.1106874 -0.129291 0.76892149
0.2236319 -0.1905919 0.8859129
0.15783641 -0.30081421 0.89233738
0.17529839 -0.35785791 0.91747499
-0.04169761 -0.133362 0.82004201
0.1574261 -0.1412534 0.88975519
-0.16166539 -0.1932902 0.90958577
0.19034339 -0.13923199 0.53120142
0.024492869 -0.42703491 0.93499577
-0.042605322 -0.1370842 0.89262581
0.1629331 -0.13905901 0.88923138
-0.1194713 -0.30359301 0.92420667
0.03656463 -0.3577126 0.93477529
0.083864562 -0.4628377 0.9531213
0.017527919 -0.1373114 0.66004288
-0.1304947 -0.2382267 0.9117673
0.1619622 -0.13954739 0.62352252
0.07918337 -0.12775619 0.7079289
-0.19314229 -0.4946585 0.98033142
0.01405825 -0.1363304 0.81085891
-0.66588902 -0.49471939 0.53412241
-0.1264254 -0.1427907 0.90295762
-0.097972199 -0.13719919 0.57096487
-0.1652849 -0.28275421 0.92251658
