# .PCD v0.7 - Point Cloud Data file format
VERSION 0.7
FIELDS x y z normal_x normal_y normal_z curvature
SIZE 4 4 4 4 4 4 4
TYPE F F F F F F F
COUNT 1 1 1 1 1 1 1
WIDTH 576
HEIGHT 1
VIEWPOINT 0 0 0 1 0 0 0
POINTS 576
DATA ascii
0.11126132 0.013656691 0.69826233 0.093668863 0.99021977 0.1033968 0.015883444
0.078236744 0.012761367 0.69131076 -0.03533642 0.99820238 0.048406869 0.0023494198
0.031804845 0.0069594728 0.71836573 -0.21905182 0.60424072 0.76610011 0.065085247
0.16512275 0.01003327 0.62838119 0.44712624 0.89136785 0.074440911 0.030564534
0.062467366 0.012708335 0.6454286 -0.020610677 0.99977887 0.0041791876 7.4084142e-05
0.13328703 0.012317441 0.55859983 0.055164486 0.99030471 -0.1274889 0.010994117
0.16773222 -0.0093871877 0.64634573 0.89288223 0.35675547 0.27474868 0.042022191
0.074061394 -0.037373856 0.73885375 -0.29196289 0.048672978 0.95519036 0.0063586668
0.11757746 -0.0018179134 0.74239111 0.39024428 0.58279061 0.7127865 0.088990204
0.097232521 0.0016916667 0.74297565 0.071384802 0.65391117 0.75319618 0.091793522
0.16381092 -0.081207581 0.64979666 0.93111336 0.0036656864 0.36471155 0.00085676287
0.19446264 -0.13208701 0.56802988 0.98431003 0.0093521802 -0.17619947 0.041882403
0.19283266 -0.12940313 0.57438546 0.99929065 -0.034804583 0.014384858 0.047913153
0.17551175 -0.060647268 0.61686301 0.93827647 -0.0017556171 0.34588179 0.00025945637
0.052190691 -0.060173839 0.73160207 -0.36308846 0.033055387 0.93116814 0.00038370141
0.15567544 -0.063684173 0.66664565 0.92010778 -0.027799584 0.39067745 0.0014881348
0.1869534 -0.083595626 0.58510047 0.95287514 0.001523945 0.30335906 0.0047718291
0.1914448 -0.10004512 0.57859218 0.98289907 -0.016475355 0.18340698 0.026056549
0.17624603 -0.15994558 0.60887289 0.92081225 -0.00034835274 0.39000607 0.00084034295
-0.050925363 0.013185856 0.67748266 -0.27499652 0.90057302 0.33666769 0.047850423
-0.0043834429 -0.28692913 0.77435642 0.063781746 -0.96718562 -0.2459348 0.012912275
0.14529297 0.003619313 0.68583989 0.72856265 0.54570091 0.41401327 0.047081422
0.11374784 -0.27989158 0.74823934 0.63633472 0.33187971 0.69637203 0.14371891
0.14060093 -0.11998098 0.6985054 0.93283445 0.036342222 0.3584677 0.0019341538
0.13330311 -0.25927931 0.72574806 0.82303888 -0.0011473312 0.56798387 0.029684549
0.10858911 -0.24561256 0.75225276 0.28829238 0.13035673 0.94862783 0.035736229
0.011115175 -0.02136364 0.71346062 -0.33917964 0.15451264 0.92794555 0.016409479
0.18726443 -0.13036267 0.58581048 0.95550525 -0.0018338402 0.29496831 0.01262518
0.12674026 -0.013288171 0.73557431 0.61006773 0.3720859 0.69954944 0.070924774
0.0296122 -0.037835915 0.72270554 -0.36763069 0.080182739 0.92650872 0.0023270592
0.17991789 -0.012519186 0.60468048 0.88260221 0.37530068 0.28313026 0.049592562
0.092236504 -0.17173299 0.74937826 -0.093223333 -0.024787772 0.99533665 0.015850846
-0.069625832 -0.27300847 0.69428349 -0.54564345 0.44075465 0.71274722 0.1032581
0.019572515 -0.047779489 0.71775877 -0.38659883 0.027032267 0.92185175 7.3674972e-05
0.061032873 -0.036646858 0.73400128 -0.35849327 0.070809267 0.93084294 0.0065572038
0.096801333 -0.1877632 0.74863309 -0.033654366 -0.030254167 0.99897546 0.019548867
0.091650479 -0.24713291 0.75265473 0.0019280042 0.14712718 0.98911572 0.022563536
0.14616515 -0.21938276 0.68891197 0.93338478 -0.014768956 0.35857329 0.00063937245
0.041630678 -0.26499686 0.73730773 0.29443812 -0.63171184 -0.71710974 0.039284125
0.13677712 -0.19673926 0.71876967 0.90319216 -0.034151334 0.42787576 0.0069353082
0.196173 -0.0023413952 0.54767233 0.57693678 0.79846668 -0.1720316 0.097057648
0.18655117 -0.27784252 0.5908885 0.87677032 0.36583912 0.31214687 0.0372728
0.12553374 -0.16128932 0.74453455 0.54345793 0.017388552 0.83925629 0.058786042
0.13849163 -0.29551899 0.8069858 -0.010619802 -0.99978727 -0.017680496 0.0021907
0.14955847 -0.27679685 0.68936712 0.8417058 0.24391343 0.48170266 0.051057886
0.14033264 -0.29356754 0.81724936 -0.0088429153 -0.99989402 -0.011564324 0.0023497613
0.082240433 -0.042865381 0.74243009 -0.12530975 0.0034721321 0.99211168 0.01658812
0.080385335 -0.29196176 0.79453528 0.042872507 -0.9695949 -0.24093093 0.0066652927
0.18257426 -0.25317678 0.59407979 0.94573087 0.073011756 0.31664246 0.013829038
0.1838599 -0.2300086 0.59163374 0.95807749 0.018969348 0.28588048 0.0037333025
0.1398619 -0.25410905 0.71005738 0.92198545 0.032284141 0.38587648 0.0036539764
0.03309245 -0.29171371 0.76777136 0.10290612 -0.87934434 -0.46493432 0.0076506925
0.1452612 -0.19836111 0.69703674 0.93425137 -0.0094797593 0.35648912 0.00086256553
0.047886442 -0.29332474 0.78185982 0.13680866 -0.90051925 -0.41273284 0.0059091444
0.19569606 -0.12096803 0.56063867 0.9806813 -0.022189533 -0.19434969 0.05132046
0.18167257 -0.18941331 0.59733629 0.93760484 0.0017663897 0.34769815 0.0023276058
0.19552122 -0.11873054 0.56040436 0.98434168 0.003168982 -0.17624256 0.049846709
0.096150257 -0.27668267 0.75362188 0.40531123 0.51768452 0.75347573 0.10668773
0.12393637 -0.15301937 0.7452386 0.51078647 0.044877261 0.85853553 0.078984663
0.052725378 -0.2933507 0.78022605 0.11484732 -0.91205049 -0.39366746 0.008107055
0.057975244 -0.22533272 0.74215037 -0.32407743 0.07228858 0.94326466 0.0014482266
0.019006381 -0.17973047 0.72185892 -0.35481763 0.026446523 0.93456131 0.0008939621
0.13697633 -0.29551342 0.80379093 -0.011403537 -0.99963814 -0.024364199 0.0021738373
0.065957919 0.0047363467 0.73627818 -0.2681284 0.64958698 0.71143788 0.08869426
0.1415426 -0.29402938 0.81321996 -0.0088429153 -0.99989402 -0.011564324 0.0023497613
0.09301462 -0.29335237 0.79653388 0.031493574 -0.97623199 -0.21442761 0.0052303108
-0.07738436 -0.10086709 0.67920536 -0.8379128 0.16902253 0.51897359 0.057274211
-0.032221742 0.014495493 0.62866789 -0.12248627 0.98932296 -0.078976631 0.028988404
-0.024914416 0.013534023 0.66003072 -0.011219106 0.99438316 0.10524376 0.016166292
-0.045928527 0.014861025 0.6069904 -0.42698342 0.87898993 -0.21227764 0.073367357
0.0023634848 0.0076904306 0.7073279 -0.31996349 0.3739776 0.87049651 0.059837677
-0.044701751 -0.040530358 0.69266576 -0.37394938 -0.067748562 0.9249714 0.0046484829
0.014168401 -0.015733344 0.71450567 -0.32025248 0.18527603 0.92903775 0.021880113
0.018729534 -0.020229116 0.7171374 -0.3336007 0.18925381 0.92352241 0.023024296
0.017076606 -0.0039674197 0.71436799 -0.28185597 0.25958601 0.92367333 0.035199609
0.034192327 -0.076489732 0.72544968 -0.37782478 0.039457258 0.92503595 0.00028362597
-0.01654976 -0.056810237 0.70180595 -0.36134157 0.0093760099 0.9323864 0.00056723342
0.010312341 -0.15418829 0.71881652 -0.36198789 0.044704217 0.93111026 0.0010474069
-0.0074981963 -0.17130674 0.71270537 -0.31920031 0.064758942 0.94547206 0.0007590669
0.0020981503 -0.18103893 0.7172156 -0.32580194 0.063665926 0.94329196 0.00061160448
0.018198093 -0.13346328 0.72138363 -0.38526326 0.04300366 0.92180413 0.00054074911
-0.089194104 -0.24653482 0.68369311 -0.92770809 0.16284166 0.33591706 0.037504975
-0.091861963 -0.27408898 0.68836445 -0.85288066 0.21478264 0.47588125 0.10742449
-0.013609539 -0.29034153 0.759776 0.12153798 -0.92839193 -0.351165 0.019068295
-0.0095402645 0.01341924 0.63422382 0.033847868 0.99939013 0.0085805943 0.00039799031
0.020384012 0.012085749 0.65118361 0.01561808 0.99972069 -0.017740257 0.00058278558
0.083335318 0.013604823 0.65502465 -0.031593792 0.99949801 0.0023809506 0.00020658672
-0.039266065 0.014368976 0.59449083 -0.36528227 0.9091835 -0.19988546 0.077804476
0.14374931 0.0086771036 0.68227822 0.70386332 0.58304328 0.40575475 0.043341469
0.19454528 -0.055152006 0.56980383 0.9950918 0.010167394 0.09843225 0.047734398
0.17760438 -0.077430904 0.6103043 0.93596417 0.0078648869 0.35200748 0.00040845372
0.16711581 -0.044995863 0.63844198 0.93841004 -0.028855013 0.34431672 0.00068648619
0.078226678 -0.18808174 0.74577457 -0.19331706 0.019247498 0.98094749 0.010428598
0.16679567 -0.042295001 0.63900775 0.93974876 -0.018363945 0.34137219 0.000854671
0.19117197 -0.22781442 0.54688621 0.84331089 -0.013569343 -0.53725463 0.049902804
0.16339968 -0.20683077 0.64549726 0.93424577 0.024418453 0.35579273 0.00070668012
0.050318338 -0.0864795 0.731628 -0.36672595 0.036472145 0.92961377 0.00032460174
0.15641598 -0.18068524 0.66588634 0.93929905 0.0035857435 0.34308085 0.00056949799
0.12869997 -0.075780652 0.73385984 0.70336413 0.040913053 0.70965129 0.047938254
0.16506505 -0.12494509 0.64155656 0.94549328 -0.022214118 0.32488322 0.00077486207
-0.095606558 -0.27665895 0.68716335 -0.94238514 0.10886762 0.31631967 0.065694965
0.13990292 0.016268512 0.65973598 0.27915704 0.94574034 0.1662727 0.038864519
0.15360583 -0.10894711 0.67320818 0.91886538 0.0037124588 0.39455381 0.0013334263
-0.083948769 -0.29481238 0.71900535 0.24218027 -0.91873425 -0.31189114 0.058744282
0.0082047358 -0.2914024 0.76593477 0.094483845 -0.92627203 -0.3648189 0.013680219
0.17381229 -0.26073748 0.61858755 0.93980229 0.14049335 0.31150162 0.028581753
0.035814062 -0.0081222914 0.72255832 -0.29235786 0.35302493 0.88876331 0.057000324
0.19162619 -0.22002186 0.57291615 0.99808216 -0.028795097 0.054797228 0.039720494
-0.012213842 -0.16401696 0.71056312 -0.32083252 0.070766948 0.94448847 0.00077076664
0.074433006 0.01288251 0.70074695 -0.046122029 0.99476814 0.09115468 0.0064425366
0.19282159 -0.20552756 0.56336433 0.99198717 -0.076722153 -0.1003754 0.052038051
0.19114558 -0.0009286385 0.56682777 0.81487614 0.5765928 0.059308961 0.096574999
0.111234 -0.14201932 0.75026369 0.30712461 -0.0071530193 0.95164245 0.048354894
0.15175101 0.0056638676 0.67288333 0.71302652 0.58602744 0.3849223 0.041246429
0.15341875 -0.020197514 0.67927158 0.86445278 0.21974729 0.45214218 0.03227761
-0.02937955 -0.20968309 0.70689642 -0.34455663 0.021375228 0.93852216 0.0011175334
0.10205861 0.012742912 0.56210715 0.0074385866 0.99920249 -0.039232265 0.00076131214
0.19756579 -0.067259528 0.55196708 0.88659275 0.12204635 -0.44615906 0.080102183
0.033362139 -0.27935216 0.74371147 0.13001706 -0.75855392 -0.63850731 0.031100245
0.17834891 -0.086458229 0.60906082 0.93455088 0.0051189363 0.3557927 0.00048448343
0.0062095765 -0.13535261 0.71567047 -0.38136712 0.048371144 0.92315733 0.00063305983
0.025159277 -0.13416092 0.72453159 -0.38460141 0.035194434 0.9224115 4.127805e-05
-0.095817387 -0.27890822 0.66894454 -0.99755031 0.060478754 0.035152175 0.041954149
0.16728298 0.0060393214 0.63320041 0.63174194 0.75846136 0.16011985 0.039439987
0.18488128 -0.024728652 0.59179336 0.91722178 0.22315629 0.33000809 0.023691712
0.1860548 -0.014663339 0.583372 0.89280868 0.38546768 0.23303917 0.048906397
0.17494741 -0.28415757 0.62166518 0.84367883 0.50764239 0.17465733 0.060054801
0.16918099 -0.22881863 0.63591725 0.93709528 0.0090103438 0.3489573 0.0006782795
-0.036951799 -0.17562582 0.70391798 -0.32799235 0.059605066 0.94279814 0.0010261019
0.1932794 -0.27274543 0.57614684 -0.74990708 -0.66071743 -0.033044182 0.098202877
0.072556727 -0.29272872 0.78851473 0.053960036 -0.96149158 -0.26948529 0.008130705
0.16401564 -0.010718194 0.6571216 0.90202868 0.29548785 0.31469199 0.042539734
0.13237512 -0.15057005 0.73658407 0.73807961 0.048783313 0.67294782 0.05801918
0.06442634 -0.29334888 0.78610855 0.079461925 -0.9533962 -0.29106933 0.0067681815
0.18533364 -0.014145703 0.58756936 0.87812841 0.38228124 0.28766569 0.043345682
0.14352545 -0.27575371 0.69709718 0.94229788 0.041723024 0.33216542 0.0019408185
0.10163973 -0.11915718 0.75157887 0.11252306 0.0015953218 0.99364781 0.028501792
0.032400534 -0.14234117 0.72875404 -0.37760139 0.029145554 0.92550939 0.00028397035
0.15216307 -0.26142794 0.67178512 0.92210495 0.048144698 0.38393316 0.014442653
-0.077375688 -0.29477406 0.73387688 0.18050772 -0.95027715 -0.25375259 0.030075515
-0.034786314 -0.16099276 0.70269126 -0.32348362 0.07688725 0.94310486 0.00090885209
0.16992728 -0.23659857 0.63517475 0.93338197 0.0052218214 0.3588466 0.00080326665
0.16505738 -0.22062404 0.64411879 0.93246394 0.013275877 0.36101922 0.0007789653
0.19154893 -0.014535318 0.54272592 0.78503454 0.22456121 -0.57731533 0.11309043
0.17501412 -0.076427981 0.61853647 0.93897963 0.0098463092 0.34383178 0.0002181155
0.11382601 4.4928274e-05 0.74252927 0.29305431 0.63178271 0.71761394 0.079905897
0.088608161 -0.18608801 0.74816757 -0.087954052 -0.038303856 0.99538779 0.017316774
0.1586692 -0.19443153 0.65973574 0.93592739 0.012894281 0.35195687 0.00072764704
0.15440156 -0.0030946136 0.67598933 0.8007977 0.40990603 0.43669218 0.040589925
0.15964539 -0.13609332 0.65958023 0.93417746 -0.011345706 0.35662824 0.002058354
-0.077182151 -0.28956825 0.77176291 0.030412724 -0.99272889 0.11646628 0.0051810765
0.13142629 -0.134269 0.73464042 0.77674115 0.026632482 0.62925649 0.043950487
0.11392289 -0.23786673 0.7487551 0.42933244 0.071317792 0.90032631 0.039018333
0.12111301 -0.0025039152 0.74191898 0.47494414 0.53452861 0.69907594 0.085973546
0.13586088 0.0082696481 0.69933373 0.60471439 0.70939189 0.36205482 0.048560355
0.11457913 -0.10126443 0.7494514 0.27817079 0.013426122 0.96043783 0.051224321
0.13693602 -0.28044674 0.71865654 0.82988077 0.14849457 0.53781712 0.047372613
-0.033128932 -0.282074 0.78085691 -0.0053517087 -0.97322774 0.22978063 0.002147909
0.17365561 0.006270987 0.6101253 0.56425387 0.82215422 0.075365782 0.041516308
0.15863535 -0.12656251 0.66419542 0.92935973 -0.0089357421 0.3690671 0.001901352
0.10574611 -0.28775877 0.76024455 -0.15455818 -0.90051109 -0.4064377 0.083356217
0.15920396 -0.11083642 0.66253513 0.92217892 -0.0029432152 0.3867524 0.0018657227
0.13850719 -0.28074509 0.71298784 0.8913787 0.12904282 0.43450186 0.045560919
0.097286709 -0.036071915 0.74471182 -0.0020193192 0.040336575 0.99918413 0.021236064
0.050073005 0.0060926173 0.72460949 -0.20403896 0.85526627 0.4763273 0.068164319
0.18021445 0.0065624109 0.58519989 0.60398591 0.79062754 0.10054438 0.043512493
0.19297476 -0.11087701 0.5465011 0.93171811 -0.044982672 -0.36038584 0.054656304
-0.026848247 0.013243985 0.53788102 -0.56207043 0.80705178 -0.18095388 0.076049358
0.18670227 -0.024895107 0.58730608 0.92827088 0.22239529 0.2980831 0.024829643
0.16543028 0.012808817 0.60369706 0.37761173 0.92592603 0.0083891442 0.049285114
0.032573257 0.01081546 0.51791805 0.070535995 0.97629446 -0.20463108 0.034315675
-0.061609939 0.010634671 0.61907011 -0.57026708 0.76772016 -0.29223496 0.081785716
0.058933575 0.012627328 0.65137237 -0.020702008 0.99977112 0.005406539 0.00018530915
0.063152477 0.012647486 0.64349139 -0.020531056 0.99978679 0.0022264372 7.564421e-05
0.14531095 0.015679462 0.60598141 0.12285 0.99175102 -0.036577363 0.019487651
-0.094832815 -0.28656912 0.67229593 -0.99386269 0.047414821 0.099943876 0.048597634
0.07825534 0.011967697 0.72530872 -0.047573276 0.96349812 0.26345447 0.025395164
0.1080573 0.013431111 0.72345936 0.08898218 0.95943731 0.26751113 0.036636412
0.19492124 -0.18291913 0.55439264 0.9567157 -0.01585527 -0.2905919 0.049726751
0.12508033 -0.01759587 0.73743504 0.57792383 0.28186169 0.76587081 0.058943998
0.088136211 0.013651427 0.65632701 -0.029596498 0.99955279 0.0042798081 0.00028701397
0.12489127 0.0056438306 0.72943807 0.48523554 0.74315679 0.46072182 0.070936128
-0.052665658 -0.29452193 0.74109513 0.19363119 -0.95641565 -0.21857728 0.014425099
0.033425834 0.010816026 0.71176046 -0.13963689 0.892488 0.42891344 0.064798631
0.093888253 0.0084733404 0.73685044 0.032484218 0.91056967 0.41207716 0.063402019
0.11832156 0.01247378 0.72138572 0.2852127 0.90863609 0.30501476 0.05679743
-0.068284184 0.011953417 0.63932574 -0.5614199 0.81456971 -0.14588983 0.05163357
0.15209343 0.014892172 0.63892519 0.24193664 0.96648085 0.085915409 0.030324701
0.058837004 0.0098482929 0.49994001 0.041011378 0.77031082 -0.63634843 0.072930448
0.19460586 -0.067162566 0.54401588 0.86544961 0.13259682 -0.48313051 0.078678861
0.083869949 0.0079803234 0.73640537 -0.064809985 0.86755812 0.49309495 0.073493503
0.11503337 -0.0002250378 0.74195307 0.3170774 0.65056634 0.69009084 0.079091661
0.034353122 0.011758087 0.55899322 0.0054707583 0.99995738 -0.0074415575 0.00080106914
0.11497528 0.0042123478 0.73820937 0.31541342 0.75673282 0.57259923 0.076669514
0.13696672 0.016309477 0.65171844 0.15810566 0.98174 0.10577849 0.029210459
-0.021552684 0.014129684 0.62129664 -0.039257828 0.99797618 -0.050024971 0.0078948624
0.0097313737 0.014915328 0.70145917 -0.16577598 0.86099982 0.48083016 0.10930876
0.091101959 0.013667988 0.70543438 0.0034249702 0.99055624 0.13706444 0.011323257
0.084591374 0.0078185089 0.73649609 -0.062964998 0.86508179 0.49766341 0.073923647
0.06200204 0.01245986 0.7164188 -0.10535926 0.97061366 0.21635282 0.021457279
-0.000655376 0.013230577 0.64215213 0.034209788 0.99937099 0.0093469964 0.00037583688
-0.078186512 0.0068181315 0.67387676 -0.67279333 0.69555885 0.2520856 0.1009844
0.11179963 0.0027397242 0.74141234 0.26171419 0.71905929 0.64378518 0.082318775
-0.08863391 -0.28757912 0.69323146 -0.64571923 0.48258469 0.5917421 0.13222985
-0.077423036 -0.15857951 0.68664092 -0.76907784 -0.086864285 0.63322502 0.051942077
-0.087282211 -0.29246762 0.71968037 0.24218027 -0.91873425 -0.31189114 0.058744282
-0.004689646 0.012134481 0.49887455 -0.26958087 0.91247851 -0.30774853 0.066753596
0.032709301 0.012335137 0.64387339 -0.004508819 0.9999693 0.0064049535 0.00039687683
0.077693634 0.013468779 0.65617222 -0.028162271 0.99958026 0.0067894319 8.7810782e-05
0.093195423 0.013025308 0.5990116 -0.011560173 0.99984491 -0.013286276 8.770045e-05
0.014821421 0.012167925 0.51860464 -0.05498419 0.98970646 -0.13212813 0.013975251
0.10860974 0.0064238599 0.51281846 0.13877533 0.93557239 -0.32472417 0.022539884
0.10737823 0.012516798 0.55525255 0.03223072 0.9965933 -0.075914271 0.0036460576
0.0032814159 0.012624568 0.53624302 -0.1575834 0.9874084 -0.013858201 0.023434864
0.01702209 0.01190476 0.5353846 -0.034712527 0.99919903 -0.019906025 0.0048784856
-0.020253912 0.014041118 0.61986166 -0.038793616 0.99825674 -0.04448038 0.0070582354
0.15704942 0.013134543 0.64347768 0.43399116 0.8874768 0.15503727 0.033825379
0.14490402 0.00970136 0.54061592 0.15746765 0.946114 -0.28297025 0.034559768
0.089301392 0.01286197 0.57265943 -0.0040847179 0.99989921 -0.013601314 0.00010275313
0.031227872 0.012055393 0.63026679 -0.0017409446 0.99994057 0.010758366 0.00017651217
0.16296132 0.0028479723 0.65316415 0.79479969 0.54624492 0.26440471 0.051285103
0.041247129 0.011683498 0.54814452 0.0070796539 0.99987847 -0.013895528 0.00062796072
0.082226738 0.012809953 0.60021698 -0.008330008 0.99992925 -0.0084908651 7.8931706e-05
0.084049776 0.013044485 0.72156453 -0.02525318 0.97193086 0.23390777 0.020070745
0.021061465 0.012138966 0.65011513 0.016161934 0.99971163 -0.017765518 0.00057522097
-0.065776788 -0.29499015 0.742908 0.16967508 -0.96302384 -0.20927377 0.012039515
0.17502342 -0.15706903 0.61099386 0.92013901 -0.0029059041 0.39158097 0.00092309888
-0.092573255 -0.2874729 0.71487486 0.37889156 -0.81590009 -0.43674728 0.08290036
-0.088094026 -0.19615185 0.67005366 -0.98834157 0.044577319 0.14558092 0.039669152
-0.046578988 -0.1683058 0.69965786 -0.34811077 0.069015332 0.93490952 0.003062289
0.19106399 -0.15975992 0.57977521 0.98301339 -0.004896394 0.18346836 0.030785289
-0.017042393 0.011395106 0.69900209 -0.30887514 0.65052855 0.69383627 0.070873588
0.11550559 0.013495261 0.59963471 -0.024174297 0.99937183 -0.025915559 0.0002867622
0.013292987 0.012313445 0.64077663 0.020857764 0.99971563 0.011552015 0.00018874081
0.077254824 0.01310119 0.67850667 -0.023631729 0.99970752 0.005122792 0.0004491455
0.13115411 0.01541959 0.66736168 0.185807 0.97654504 0.10879175 0.036261488
-0.019402822 -0.14550385 0.7056098 -0.32443154 0.073617369 0.94304007 0.00078674551
-0.093604632 -0.29188263 0.69776797 -0.66204286 0.5135445 0.5458675 0.12146181
-0.037501018 -0.29339516 0.74468422 0.19671723 -0.94982028 -0.24319504 0.017404279
-0.082278781 -0.29404372 0.73288882 0.1599981 -0.95325059 -0.25634718 0.032746766
0.19280218 -0.20529681 0.56290859 0.99198717 -0.076722153 -0.1003754 0.052038051
-0.0020698081 -0.14211497 0.71206099 -0.36397165 0.055124193 0.92977738 0.0011137377
0.17088053 -0.13896286 0.62083775 0.93542612 -0.022882005 0.352781 0.0012773998
-0.061872538 0.011256371 0.62171841 -0.56264859 0.77359867 -0.29149878 0.077699423
-0.035852529 0.01385177 0.60675246 -0.31341115 0.93296117 -0.17707886 0.064092465
0.019195231 0.0084962035 0.71234292 -0.23747253 0.49113238 0.83809054 0.071154721
-0.075661249 -0.10394884 0.68095613 -0.77810931 0.16910625 0.60493708 0.052428827
-0.087933972 -0.14593683 0.674151 -0.94807684 0.0074434392 0.31795442 0.047439724
0.086246639 0.0068972046 0.73813987 -0.04755874 0.85853434 0.51054573 0.078760311
0.065313637 -0.042783804 0.73586148 -0.33774868 -0.0012948663 0.94123548 0.0036814054
-0.03414673 -0.016879253 0.69757187 -0.284145 0.19592102 0.93855029 0.044641841
-0.026037475 -0.040989693 0.69896936 -0.35175782 -0.013899863 0.93598783 0.0012866334
-0.036590476 -0.18719566 0.70467293 -0.32538933 0.03903883 0.94477397 0.0007664992
-0.026206817 -0.062513687 0.69876063 -0.36449945 0.016493123 0.93105751 0.0012045896
0.02391238 -0.082722239 0.72082549 -0.38950476 0.038097024 0.92023623 0.00035819935
0.0057123541 -0.035285071 0.71112472 -0.37308794 0.071234055 0.92505735 0.0028472224
0.057010472 -0.041500185 0.73275357 -0.36913857 0.021781936 0.92911911 0.0028633119
-0.036880907 -0.066117495 0.69488019 -0.40426293 0.044080995 0.91357994 0.0027396346
0.02107954 -0.087765478 0.71960855 -0.39459342 0.041354168 0.91792476 0.00020437811
0.017543897 -0.044043966 0.71655101 -0.38800114 0.027164502 0.92125851 0.00015094588
0.1801143 -0.00049378083 0.53769553 0.43314505 0.77772856 -0.45554769 0.099293768
0.10715508 0.012573116 0.56973547 0.0048085316 0.99955195 -0.029541008 0.00043332155
0.16006361 0.013499795 0.62251455 0.27809617 0.96046221 0.013226426 0.032960452
0.12821023 0.010605914 0.53381282 0.10275989 0.96769077 -0.23025006 0.023478899
0.12121301 0.013011386 0.71056449 0.30572152 0.91002548 0.27997828 0.051179405
0.10468701 0.015165783 0.70483196 0.081048429 0.98653787 0.14203589 0.016623478
0.099945948 0.014836096 0.71706462 0.057636838 0.96506816 0.25558081 0.034427676
0.099696718 0.01369817 0.64970344 -0.023409264 0.99972177 0.0029211144 0.00035076812
0.14368136 0.0088824527 0.68074757 0.66803408 0.63155168 0.3935391 0.047160115
0.015560235 0.0123546 0.63269931 0.021181274 0.99973863 0.0086051933 0.00022147724
0.14415337 0.011347576 0.67492396 0.53786272 0.79222625 0.28823814 0.037271071
0.0064835586 -0.053221244 0.7114684 -0.39303836 0.026790407 0.9191317 0.00022009428
0.038478028 0.0017255259 0.72425234 -0.26077554 0.58723259 0.76625979 0.069762379
0.0044293222 -0.019351585 0.71081001 -0.338402 0.15321265 0.92844498 0.016631115
0.043766171 -0.090021811 0.72971046 -0.36952692 0.035492577 0.92854196 0.00031808068
-0.024915649 -0.24353227 0.70746642 -0.38135028 0.062897086 0.92228842 0.0037390769
0.076140463 -0.036452878 0.7398293 -0.26476011 0.054449886 0.96277577 0.0079828687
-0.095028512 -0.28542033 0.67506933 -0.98837566 0.066183284 0.13686991 0.047869798
-0.022207974 -0.16322681 0.70709842 -0.31746048 0.07492014 0.94530731 0.00071378105
0.051443286 -0.041275747 0.73071992 -0.38050663 0.023221174 0.92448664 0.0021703476
-0.010675428 -0.1210638 0.70702094 -0.36788708 0.055402763 0.92821854 0.0011587222
0.072558306 -0.049084898 0.738581 -0.30751753 -0.011634941 0.95147133 0.0058606835
0.18938154 -0.16497134 0.58182305 0.96672916 -0.014602895 0.25538492 0.019184344
-0.089059569 -0.28981492 0.69039106 -0.68090224 0.49560699 0.53920853 0.13240016
-0.092849918 -0.25887269 0.67317128 -0.99403667 0.081875414 0.072023623 0.037152965
0.15989174 -0.18963239 0.65670806 0.93794352 0.0070098643 0.34671715 0.0006176288
0.0076030814 -0.0074482895 0.7112509 -0.33199599 0.22251123 0.91666102 0.031594727
0.1866291 -0.015667906 0.58012384 0.91276354 0.35606167 0.20020694 0.046149127
-0.065598562 -0.28298193 0.69947356 0.49248055 -0.6439966 -0.58543259 0.088204809
-0.02192542 -0.050492652 0.7002483 -0.35946134 -0.0041136676 0.93315095 0.00081103691
0.015170678 -0.14101717 0.72053874 -0.37641704 0.040844146 0.92554963 0.00056189037
0.024519654 -0.023825148 0.71967751 -0.32848305 0.17721808 0.92773527 0.016371546
0.16737123 -0.13355146 0.63253915 0.94392955 -0.029375225 0.32883763 0.00055924372
-0.034272224 -0.090395093 0.69701868 -0.36774954 0.055721093 0.92825395 0.00090662099
0.18434484 -0.0057521365 0.53837872 0.51331252 0.68868369 -0.51207918 0.12473766
0.1288217 -0.039365742 0.73038137 0.77793485 0.017831607 0.62809187 0.035247833
0.027091369 -0.12155018 0.72451168 -0.39419052 0.039931025 0.9181608 8.9390916e-05
0.17141087 -0.17603436 0.62020034 0.9302212 0.01559497 0.3666679 0.00094997499
0.13749866 -0.030754451 0.706698 0.88651729 0.16657345 0.43167159 0.020992817
-0.052811656 -0.28055027 0.70159113 0.42935655 -0.72214431 -0.54236579 0.072089098
0.13969769 -0.22247151 0.70747739 0.91485822 -0.01656777 0.40343523 0.0034246857
-0.093160488 -0.25987473 0.67064732 -0.99678349 0.076385923 0.024245854 0.038227636
-0.057668578 0.013055222 0.62327468 -0.46942297 0.84572345 -0.25375971 0.077244207
-0.040870994 0.016313219 0.60994697 -0.34860387 0.92011827 -0.17848748 0.066091612
-0.074945264 0.011870306 0.66134512 -0.64276171 0.76509601 0.038541488 0.077535778
-0.035271134 -0.031345166 0.52666569 -0.94212902 0.11451878 -0.3150847 0.006547275
0.11329397 0.0071436367 0.51571995 0.13235037 0.9493106 -0.28511867 0.017495632
-0.012752678 -0.019482259 0.47472218 -0.55010957 0.2575129 -0.79439694 0.086436808
-0.020830056 0.011775585 0.52695888 -0.48903206 0.86241764 -0.1307033 0.080114365
0.11997409 0.015025168 0.65438169 0.043932531 0.99748945 0.055539709 0.0082711997
-0.065394752 -0.017417749 0.60285532 -0.87928534 0.26345176 -0.39680031 0.033806689
-0.025715383 -0.034593631 0.49281392 -0.83895862 0.065530792 -0.54023516 0.038857497
-0.023766128 -0.045043726 0.48927933 -0.81813198 -0.0068955389 -0.57498908 0.043119825
-0.04343497 0.0017145319 0.56010032 -0.86817867 0.3796578 -0.3195712 0.049819507
-0.087300926 -0.17262149 0.6530686 -0.98332691 0.057484005 -0.17252174 0.024495147
-0.055016272 -0.040533602 0.58113146 -0.92643905 0.02192243 -0.37580594 0.0013386915
-0.045406621 -0.036414277 0.55507642 -0.94324404 0.054229934 -0.32764277 0.0016543545
-0.014615694 -0.019765755 0.47672218 -0.602404 0.25094083 -0.75771898 0.0852044
-0.0084893992 0.0033270412 0.47717229 -0.40835384 0.62203866 -0.66806817 0.11307627
-0.075695641 -0.015454884 0.62750131 -0.91227484 0.23061673 -0.33848274 0.019318793
-0.044175103 -0.029866004 0.55019563 -0.94286853 0.074552089 -0.32471669 0.002225888
-0.073691905 -0.013592947 0.62220633 -0.88777125 0.27008367 -0.3727158 0.024562201
-0.047075272 -0.043694712 0.55790973 -0.94112867 0.029173193 -0.33678725 0.00050728768
-0.033013888 -0.018542627 0.52132165 -0.88946658 0.32724294 -0.31900033 0.038937949
-0.05919759 -0.041863527 0.59265155 -0.92667514 0.003262595 -0.3758491 0.00095205486
-0.021707131 0.012634888 0.53039694 -0.49450636 0.85930872 -0.1305832 0.080092877
-0.024958842 -0.090906031 0.49056309 -0.7775684 -0.023048079 -0.62837589 0.04681259
-0.067914799 -0.035194755 0.61071098 -0.91533852 0.053178746 -0.39915818 0.0066166399
-0.036323573 -0.0701814 0.52741081 -0.94938189 0.023332503 -0.31325641 0.000220758
-0.070765011 -0.066263646 0.62091649 -0.93451804 -0.030135376 -0.35463765 0.0016470657
-0.024464045 -0.1228974 0.48598987 -0.60849077 -0.017670346 -0.79336423 0.045277942
-0.047047518 -0.059705582 0.5571264 -0.94204611 0.017777773 -0.33501208 8.8593326e-05
-0.028188016 -0.0096632978 0.50415528 -0.82135195 0.45458725 -0.34457421 0.063715212
-0.068633981 -0.067413233 0.61546284 -0.93286347 -0.02122313 -0.35960439 0.0010140025
-0.015898431 -0.13606091 0.47889802 -0.46241057 0.074165389 -0.88355875 0.045546379
0.17667738 0.0081947893 0.54606801 0.34900767 0.90470207 -0.24435204 0.061064538
0.12916429 0.011872584 0.54263878 0.085952163 0.9779104 -0.19053467 0.020696722
-0.064540014 0.0026251702 0.60716087 -0.71177727 0.61347878 -0.34207743 0.080058523
0.16131139 0.0096150367 0.54394996 0.25229087 0.91690892 -0.30923656 0.041415662
0.14812368 0.014612904 0.59320414 0.14863697 0.98850709 -0.027582226 0.023951057
-0.024628427 -0.042066094 0.49061871 -0.82148618 0.0034696143 -0.57021791 0.040487666
-0.026069488 0.0039125038 0.51308101 -0.6532445 0.71818894 -0.23974204 0.078604043
-0.033028152 -0.089803711 0.51355207 -0.93883497 0.025358031 -0.34343246 0.0022131572
-0.067107305 -0.082882486 0.61303651 -0.93583173 0.023143191 -0.35168645 0.00065484457
-0.065840147 0.015037291 0.64339656 -0.51069295 0.85559088 -0.084598005 0.050335873
-0.044556808 -0.10490998 0.55050123 -0.94502366 0.03082525 -0.32554582 0.00020558664
-0.032778006 -0.11770912 0.50919873 -0.92509151 0.017005412 -0.37936324 0.0063455398
-0.052925084 -0.068669029 0.57450593 -0.93913788 0.013137077 -0.34328923 0.00010838882
0.078551263 0.013560627 0.65342456 -0.026575156 0.99964416 0.0023230012 0.0001003742
-0.022700382 0.0075873607 0.51503634 -0.5972358 0.77596188 -0.20295955 0.083689541
0.15768212 0.013887091 0.57232469 0.20503592 0.97736454 -0.052140508 0.021586813
0.043718271 0.011472878 0.54779762 0.0071211783 0.999861 -0.015079087 0.00059448788
-0.019505126 0.0068391575 0.50240707 -0.6130994 0.74109966 -0.27364275 0.080725044
-0.046697076 -0.11362462 0.55554146 -0.94311351 0.033592049 -0.3307696 0.00024114684
-0.044229373 -0.22859374 0.53729814 -0.92506623 0.05229434 -0.37618846 0.00086776743
-0.048893925 -0.12339187 0.56012022 -0.93936193 0.035189196 -0.34111708 0.00032473935
-0.028933307 -0.099828713 0.49827605 -0.83423632 0.066434443 -0.54739046 0.037278667
-0.028508188 -0.080560908 0.4998149 -0.85875386 -0.027001845 -0.51167631 0.031129673
-0.042992558 -0.13237418 0.53962666 -0.94825345 0.030174134 -0.31607723 0.00022813647
-0.040119816 -0.11918127 0.53266805 -0.95090932 0.031102076 -0.30790278 0.00021123128
-0.036255434 -0.19659306 0.51485413 -0.91805547 0.0091472659 -0.39634645 0.002205627
-0.015990911 -0.065115809 0.4776969 -0.55963361 -0.069413863 -0.82582802 0.056974411
-0.050861493 -0.10875223 0.56729734 -0.93884248 0.03055696 -0.34298843 0.00019202607
-0.064643763 -0.12376303 0.599078 -0.93078554 0.043533754 -0.3629643 0.00025831969
-0.059491325 -0.084896974 0.59148395 -0.93642783 0.024082594 -0.35003293 0.0002180505
-0.063345611 -0.093225375 0.60266244 -0.93358284 0.031618759 -0.35696399 0.00028872472
-0.080389082 -0.1518489 0.63609254 -0.9509896 0.053557437 -0.30454946 0.0033759861
-0.026699476 -0.15315296 0.49276283 -0.73541641 0.046005607 -0.67605197 0.045171648
-0.060978327 -0.064042509 0.59556586 -0.93297392 -0.0040259534 -0.3599214 0.0004289397
-0.077626012 -0.15985401 0.6281203 -0.94067115 0.046121277 -0.33617055 0.0016744836
-0.072976477 -0.097739592 0.62716496 -0.94080967 0.039016023 -0.33668208 0.0016994184
-0.0300772 -0.21481568 0.50263375 -0.88126904 0.069145046 -0.46752948 0.011393826
-0.031109797 -0.017498076 0.51311851 -0.88003147 0.35474244 -0.3157571 0.041853946
0.07817404 0.013471284 0.53429073 0.036455311 0.99042839 -0.1331262 0.010462169
-0.027927531 -0.23411374 0.48965093 -0.70817792 0.098414712 -0.69914132 0.040871192
-0.0048158593 -0.28288746 0.47369009 -0.11751334 -0.022094494 -0.99282551 0.031591147
-0.035525922 -0.26905689 0.50098485 -0.84152716 -0.021285877 -0.5397954 0.02310857
-0.047260948 -0.26411918 0.5287596 -0.93555969 0.075401582 -0.34502554 0.00098406221
-0.046027616 -0.26820305 0.52647835 -0.93247128 0.069471851 -0.35450107 0.0012493982
-0.043889862 -0.22555497 0.53608757 -0.92542499 0.052634437 -0.37525755 0.00089707866
-0.088372223 -0.16661201 0.65690845 -0.99766529 0.057187196 -0.037330981 0.039199032
-0.08457306 -0.10008941 0.65257722 -0.9915309 0.092505135 -0.091154702 0.033299252
-0.015347121 -0.10810059 0.47761753 -0.50739843 -0.058342729 -0.85973424 0.045906939
0.18459664 0.0060277549 0.5692969 0.5391866 0.84215981 -0.0066905771 0.062914245
0.11200058 0.013402306 0.69137937 0.084100738 0.99564928 0.040119402 0.0129504
0.066685289 0.011268608 0.50789374 0.074279524 0.92192769 -0.38017344 0.062309284
-0.066222429 -0.13054405 0.60220325 -0.9276914 0.046877418 -0.37039328 0.00027906839
0.029591149 -0.27345353 0.47797948 0.20959623 0.05032751 -0.97649193 0.012163735
0.039849587 -0.29621196 0.48044011 0.26997072 0.1389613 -0.95278829 0.048358232
0.043272134 0.0080934148 0.49594912 0.048151303 0.81434345 -0.57838249 0.070239112
-0.0049404926 -0.00302562 0.47062519 -0.32717109 0.46499947 -0.82263875 0.10987327
-0.01466309 0.0035938881 0.48515972 -0.53316587 0.65903103 -0.53048295 0.10486337
-0.023504574 0.012762067 0.67485785 -0.077851295 0.97874624 0.18972322 0.048778176
-0.052939817 -0.084925324 0.57257456 -0.93977338 0.019493556 -0.34124184 0.00014029309
-0.020538228 -0.24750079 0.47866318 -0.41693503 0.088682175 -0.90459973 0.03538483
-0.024680693 -0.27010745 0.48100778 -0.48748493 0.021461925 -0.87286758 0.062684968
0.046401173 0.0050725117 0.49135932 0.061820973 0.72820354 -0.68256706 0.070501328
0.15922534 0.013753935 0.62699908 0.28658897 0.95765114 0.027766068 0.031647488
-0.014579658 -0.17881097 0.47254103 -0.49975443 0.0087252902 -0.86612326 0.056689307
-0.042421345 0.0054185651 0.56384104 -0.8069315 0.49598148 -0.32072404 0.059772447
-0.033090156 -0.049307298 0.51832712 -0.94344294 0.020037303 -0.33092898 0.0008585949
0.03495945 -0.16367865 0.48227432 0.32412186 -0.015367122 -0.94589049 0.00090032251
-0.039791226 -0.18909045 0.52438104 -0.92982191 0.016414728 -0.36764351 0.00086191593
0.030162133 0.011339356 0.53778392 0.040557224 0.99870682 -0.030655703 0.0012448294
-0.019034516 0.014110426 0.61873674 -0.03681159 0.99843454 -0.042110551 0.0067304173
0.15902169 0.013901405 0.62208521 0.2682803 0.96325994 0.012487417 0.032401968
-0.040000208 -0.16363207 0.52985597 -0.94225061 0.042125139 -0.33224884 0.00033397367
0.12046416 -0.087169677 0.51445746 0.32154801 -0.0019055485 -0.94689137 0.00021977202
-0.027710887 -0.24816188 0.48625499 -0.64332056 0.052471478 -0.76379675 0.048616402
-0.082092792 -0.22182202 0.63109481 -0.95506084 0.056655079 -0.29094511 0.0038484617
-0.070343651 -0.21336347 0.60166723 -0.93551737 0.065220408 -0.34720811 0.00044882169
-0.028937863 -0.1791563 0.49378502 -0.79749781 -0.0042228638 -0.60330707 0.037294526
-0.00079611002 -0.097888961 0.4718917 -0.16753609 0.009758682 -0.98581761 0.044972654
-0.053769294 -0.15266719 0.57124913 -0.93645418 0.036858749 -0.34884802 0.00026080353
-0.090079829 -0.19694543 0.66096926 -0.99856287 0.02792074 0.04574516 0.03505297
-0.08582741 -0.24856754 0.68756974 -0.82105601 0.19447422 0.53669977 0.059823774
-0.090335697 -0.13883582 0.66632068 -0.98944563 0.075111426 0.12391781 0.046075974
0.018367678 0.00016225643 0.47853851 0.12127349 0.65957958 -0.74178672 0.065080948
0.12893277 -0.29297072 0.51281923 0.35782185 0.13426515 -0.92408675 0.010641657
-0.076279305 -0.20787229 0.62077379 -0.93706214 0.056632452 -0.34453928 0.00078510132
0.15291129 0.0053720213 0.53182775 0.26122081 0.83233005 -0.48886636 0.052104644
0.13506229 -0.071235016 0.51902235 0.32819554 0.01852664 -0.94442809 0.00057182473
0.16455714 0.013216172 0.58737743 0.30524555 0.95222557 0.0095710568 0.041358411
0.0053908741 -0.19951425 0.4733566 -0.06867104 -0.045941077 -0.99658102 0.05945361
-0.071248315 -0.15639713 0.61250019 -0.92535675 0.036121391 -0.37737271 0.00019150029
-0.056300696 -0.12807803 0.57921886 -0.93481416 0.03841174 -0.35305387 0.0002465139
-0.036561936 -0.016839094 0.53211772 -0.90248585 0.2720167 -0.33395532 0.033462852
-0.059290301 -0.1452949 0.58663803 -0.93164134 0.035038956 -0.36168596 0.00019293331
-0.026401617 -0.21168534 0.49758741 -0.8300426 0.095893502 -0.54939395 0.031730462
-0.032861978 -0.26401091 0.49052006 -0.70409912 0.052781254 -0.70813733 0.052973438
-0.045697264 -0.15165904 0.54588771 -0.94527239 0.045591816 -0.32308111 0.00022954795
0.095335737 0.012924898 0.58102506 -0.005816462 0.99988323 -0.014128734 0.00011760242
-0.053123716 -0.055890962 0.57636899 -0.93436503 0.0040553664 -0.35629424 0.00037670869
-0.040128183 -0.14342844 0.52756119 -0.94704551 0.030852152 -0.31961361 0.00025769323
-0.066993073 -0.16924174 0.60302091 -0.92611945 0.045979638 -0.37441763 0.0002963671
-0.057086319 -0.1960011 0.57050681 -0.93477094 0.076442562 -0.34692904 0.00053694937
-0.0239817 -0.20497978 0.48896438 -0.74967939 0.072787069 -0.65778643 0.038654
-0.01503323 -0.13781032 0.4787567 -0.45133507 0.079302996 -0.88882375 0.048823874
-0.048236437 -0.21253121 0.5429399 -0.92530328 0.044641174 -0.37659127 0.00083674799
-0.0039258664 -0.12206155 0.47315884 -0.29522413 0.00351007 -0.95542163 0.041341223
-0.046247203 -0.18560146 0.54211462 -0.93757886 0.054337442 -0.34350148 0.00057935296
0.094212383 -0.1194593 0.50712794 0.33836159 0.0090239234 -0.94097292 0.00042479276
-0.031545784 -0.066946663 0.51156706 -0.93412304 0.020814154 -0.35634384 0.0030983307
0.13453016 -0.26025343 0.52023375 0.33540246 -0.0043979804 -0.94206464 0.0018545989
-0.0002572317 -0.16779831 0.4712964 -0.1655409 0.022706881 -0.98594147 0.046663806
-0.026944283 -0.13811611 0.49240935 -0.68649107 0.01765186 -0.726924 0.041792896
0.13990135 -0.0039436752 0.51921064 0.32144645 0.6292401 -0.70762211 0.076991387
0.072102129 -0.16590829 0.49713942 0.35008675 0.0099023134 -0.936665 0.00047499646
0.17533514 -0.19310826 0.5328539 0.64456856 0.0057868622 -0.76452452 0.028782697
0.053929232 -0.14564128 0.48865452 0.35870412 0.0085910149 -0.93341184 0.00043347053
0.12126911 -0.25148693 0.5141471 0.32752454 -0.018690772 -0.94465774 0.00091585791
-0.056245185 -0.10677467 0.57961953 -0.93683666 0.032675844 -0.34823766 0.00021848908
-0.057888765 -0.27700511 0.56228983 -0.93424588 0.044566263 -0.35383397 0.0012011711
-0.014477612 0.0059775542 0.48950201 -0.52604407 0.71859396 -0.45486298 0.097268157
0.038533248 0.012185588 0.56496763 -0.0074170651 0.99989533 -0.012419297 0.0005006619
0.0077394554 0.012063612 0.50443095 -0.091614321 0.92723042 -0.36311248 0.053772584
-0.023034541 -0.25049081 0.48073351 -0.46115243 0.074886873 -0.88415521 0.037365925
-0.065128997 -0.19292206 0.59455109 -0.93430078 0.076039329 -0.34828168 0.0004456118
-0.050461616 -0.19933994 0.55138201 -0.93340755 0.06477993 -0.35292193 0.00079506665
-0.064635441 -0.23907517 0.57880533 -0.93388492 0.046961989 -0.35447642 0.00081240438
-0.038026351 -0.079612903 0.53188509 -0.94826692 0.026465958 -0.31636924 0.0002242714
0.095520243 -0.087035872 0.50667012 0.3327862 0.0040496886 -0.94299358 0.00028265893
-0.065315597 -0.26648492 0.58079469 -0.93162787 0.038845222 -0.36133173 0.00092055992
-0.058486935 -0.2160278 0.56767607 -0.93350559 0.066004388 -0.35243532 0.00087382237
0.0098463846 -0.055444706 0.4740358 -0.014162201 0.027875183 -0.999511 0.037377018
-0.062789455 -0.23442745 0.57538849 -0.93422776 0.052274439 -0.35282561 0.00080213079
-0.050213024 -0.2266646 0.54962957 -0.92806327 0.049011286 -0.36918363 0.00077683898
0.049580336 -0.1073093 0.48825258 0.3621529 0.015924906 -0.93198264 0.00031854416
0.14877464 -0.13576569 0.52357566 0.35324907 0.00085891061 -0.93552893 0.0015470367
-0.060937263 -0.18772852 0.58501172 -0.93473446 0.078578308 -0.34655017 0.00035351093
-0.045470804 -0.20266731 0.53642786 -0.9290421 0.032810856 -0.36851615 0.00090630265
0.0013642192 -0.20010266 0.47149298 -0.16577113 -0.064445846 -0.98405617 0.06199716
0.0089602675 -0.249336 0.47467262 0.010770311 0.051785953 -0.99860013 0.021506835
-0.056967523 -0.21079619 0.56437999 -0.93289059 0.070528306 -0.35318685 0.00090217765
-0.078203939 0.0069144364 0.64564145 -0.77564937 0.62276477 -0.102626 0.059290051
-0.082865424 -0.20097876 0.63738245 -0.95642185 0.037892856 -0.28951919 0.0051052319
-0.089042425 -0.25944668 0.64193022 -0.97356558 0.065617666 -0.21877921 0.0071915262
-0.082706131 -0.2550692 0.62720764 -0.95189577 0.056975488 -0.30107847 0.0030661088
-0.07209187 -0.24866089 0.60357594 -0.93518078 0.057174318 -0.34952539 0.0005517446
-0.074469469 -0.1753262 0.61947215 -0.93026006 0.046090063 -0.36399424 0.00060506281
-0.070651174 -0.18599515 0.6098572 -0.92932183 0.060211208 -0.36432895 0.00055178779
-0.089042291 -0.23856287 0.64999467 -0.98335081 0.053192761 -0.17375754 0.014068204
-0.085869238 -0.17495658 0.64637721 -0.97328627 0.055548139 -0.22277404 0.014596096
-0.077738248 -0.24989 0.61825061 -0.93539727 0.061317392 -0.34824151 0.00064000674
-0.089087032 -0.15513878 0.6575498 -0.99638438 0.047647364 -0.070342258 0.03963862
-0.086986251 -0.2282643 0.64436686 -0.97794938 0.048976522 -0.20301807 0.012341175
-0.092194669 -0.26710078 0.68692857 -0.87767631 0.18125673 0.44365555 0.088833675
-0.074155681 -0.13076438 0.6235131 -0.92855698 0.057139337 -0.36676577 0.00042012834
-0.071376316 -0.23703012 0.60122198 -0.93570113 0.059465267 -0.34774601 0.00045229355
0.075315326 0.010695748 0.51629931 0.061866835 0.96257687 -0.26385263 0.040234294
-0.051223803 -0.08317516 0.56881499 -0.94089794 0.017596826 -0.33823299 0.00012555563
-0.0016738805 -0.27612346 0.47350961 -0.11031555 0.0026885655 -0.99389297 0.031098844
-0.038381509 -0.1960106 0.519503 -0.92655563 0.0080908546 -0.37607086 0.00093877432
-0.053243931 -0.15441503 0.56954789 -0.93715173 0.03941042 -0.34668934 0.00029231812
-0.081276536 -0.24662389 0.62543738 -0.94927585 0.052747287 -0.30998892 0.0022918119
0.060258497 -0.22188939 0.49335706 0.33620059 -0.010222299 -0.94173491 0.00096738292
-0.080120929 -0.27367678 0.6171909 -0.93237728 0.082206659 -0.35201517 0.0011112172
-0.087710284 -0.26901838 0.63712478 -0.96345913 0.055948313 -0.26194689 0.0045838966
-0.0042586336 -0.076545425 0.47121844 -0.25484431 -0.027313368 -0.96659631 0.045312975
-0.091691583 -0.28253892 0.64741296 -0.9840948 0.010126458 -0.17735487 0.011020259
-0.058452435 -0.25401551 0.5641889 -0.93347716 0.038357813 -0.35657954 0.0010141514
-0.096983105 -0.28969344 0.67389721 -0.98700714 0.035862397 0.15662344 0.0494636
-0.081862912 -0.27909765 0.61744612 -0.93202788 0.082602583 -0.35284674 0.0013454945
-0.042994447 -0.073882148 0.54711962 -0.94465065 0.018587032 -0.32755101 0.0001584522
-0.077250332 -0.22784896 0.62080669 -0.93894219 0.063281588 -0.33820546 0.00076831219
-0.062917829 -0.22173524 0.57790637 -0.93595684 0.062028825 -0.34660828 0.00069584674
0.041424517 -0.26049247 0.48221713 0.3413448 0.049295779 -0.93864459 0.0039547188
0.054748613 0.012850689 0.63486302 -0.016958198 0.99985152 0.003053251 0.00011745825
-0.053763513 -0.094661511 0.57445168 -0.93885529 0.030379232 -0.34296903 0.0002042758
0.057620179 0.013057079 0.58854425 -0.0053222682 0.99988896 -0.013917368 0.00010638332
-0.059338395 -0.2456726 0.56664371 -0.93302649 0.041030068 -0.35746062 0.00084208458
-0.062025744 -0.20840889 0.5791108 -0.93657416 0.06974557 -0.34345964 0.00064211112
0.017530322 -0.023395831 0.47496483 0.05840084 0.16636068 -0.98433405 0.053404946
-0.076453045 -0.29100373 0.60450822 -0.92532462 0.088713497 -0.36865211 0.0010337498
0.14985955 -0.014420962 0.52167606 0.28999349 0.44631636 -0.84658462 0.072120354
0.029712971 -0.020031143 0.48196656 0.26214385 0.28581485 -0.92173231 0.043439325
0.1530837 -0.24359961 0.52461213 0.37967724 -0.006313663 -0.92509747 0.003389114
-0.05488861 -0.26879072 0.55750209 -0.93047404 0.052108757 -0.36263305 0.0013001506
-0.01400874 -0.20819679 0.4759855 -0.44103727 0.065152049 -0.89512086 0.064740412
0.047389731 -0.0072807423 0.4858723 0.17884293 0.50688231 -0.84325892 0.076881133
-0.033740021 -0.16012837 0.51411623 -0.92516601 0.025151968 -0.37872851 0.0018000277
0.0089909006 -0.090157256 0.47309566 -0.097317964 -0.044262204 -0.99426854 0.046241231
-0.013735147 -0.0056114262 0.47688156 -0.57211924 0.43162155 -0.69741124 0.099855363
0.10193276 -0.22213016 0.50694484 0.3295348 -0.020817365 -0.94391388 0.00074075145
0.082958765 -0.22232179 0.50077468 0.33673778 -0.022711001 -0.94132459 0.00069838634
-0.013518084 -0.045332767 0.47291115 -0.43630052 -0.064893894 -0.89745784 0.047304761
-0.068376131 -0.11632971 0.61233574 -0.92825633 0.047180321 -0.36893675 0.0002020183
0.15819645 -0.046576578 0.52941036 0.42773777 -0.032840919 -0.90330613 0.0041022678
0.084860861 -0.140644 0.5025757 0.3496815 0.020796599 -0.93663782 0.00042221605
0.19782658 -0.27615494 0.56128055 0.66355896 0.65348577 -0.36420563 0.13751389
-0.069435507 -0.25495839 0.59451354 -0.93312693 0.048140094 -0.3563098 0.00076307362
0.0514924 -0.23325658 0.48977935 0.35795987 0.033823036 -0.93312413 0.0016679032
0.19491965 -0.074958861 0.54301518 0.86512941 0.10533883 -0.49036187 0.088202171
0.19694434 -0.014022986 0.54724056 0.94200349 0.27262157 -0.19572152 0.097190492
0.0068226405 -0.15248598 0.4738313 -0.052618656 0.036292728 -0.99795496 0.038766623
0.011857089 -0.1267518 0.47529027 0.062086396 -0.023454001 -0.9977951 0.028065724
0.015944749 -0.14557584 0.47538435 0.09914241 0.0034504388 -0.9950673 0.02888657
0.07220947 -0.17221828 0.49706316 0.35041016 0.00016502848 -0.93659639 0.00034609248
0.17083412 -0.19769342 0.53243613 0.60123676 -0.0037761119 -0.79906201 0.026795331
0.067459062 -0.20059143 0.49503416 0.32934418 -0.013297711 -0.94411629 0.00011441661
0.010423868 -0.2974422 0.47431627 0.025663763 -0.039324116 -0.99889684 0.015485336
-0.038491461 -0.27009299 0.5095675 -0.88228226 0.010632977 -0.47060069 0.015127916
0.19391626 -0.13992603 0.55038422 0.93332863 0.002754617 -0.35901269 0.052655317
0.11621976 -0.21305571 0.51309365 0.33965546 0.0091362447 -0.94050556 0.00045534069
0.11388149 0.013347317 0.59940439 -0.026226336 0.99932802 -0.025604993 0.00024644335
0.096364588 0.0037600743 0.50613314 0.38233593 0.44942588 -0.80736339 0.077023149
0.14756835 -0.00078957656 0.52346557 0.27886143 0.64172584 -0.71443987 0.069850065
0.18172258 0.00795421 0.54766208 0.38952288 0.8881948 -0.2436839 0.071381733
0.070884891 0.0057414519 0.49772361 0.1687036 0.5318079 -0.82989126 0.078927964
-0.033066545 -0.19106795 0.50768816 -0.90455478 0.00097830582 -0.42635632 0.0042854142
-0.065417208 -0.24174872 0.5813719 -0.93658882 0.043010328 -0.34778073 0.00066852686
-0.070010386 -0.21283606 0.60061383 -0.93560225 0.065019645 -0.3470172 0.00048155934
-0.089625031 -0.28374729 0.68770552 -0.78284484 0.35073325 0.51394558 0.129067
0.084540598 0.0074991118 0.50608695 0.27766216 0.71357793 -0.6432032 0.070280403
-0.054488022 -0.22372825 0.55808556 -0.931126 0.057295892 -0.36016876 0.00092256698
0.11294492 0.0087027391 0.51848692 0.12363978 0.95413893 -0.27263901 0.017634436
-0.089159854 -0.23965719 0.65029854 -0.9840591 0.052171718 -0.17001714 0.01413558
0.1191919 0.0028528608 0.5130502 0.14578159 0.93264425 -0.33003396 0.020365838
0.10622326 -0.0081109153 0.50483358 0.35514551 0.30408734 -0.88396972 0.055946272
-0.083538018 -0.25641987 0.62879419 -0.95311928 0.058068465 -0.29697081 0.0032739893
-0.083016187 -0.20416912 0.63691705 -0.96007049 0.030092411 -0.27813491 0.0053659962
0.079712637 -0.0011608863 0.49976397 0.35766146 0.26084977 -0.89668041 0.054984666
-0.078070506 -0.25103015 0.61872268 -0.93516582 0.06198686 -0.34874418 0.000651084
-0.046439838 -0.20803873 0.53872746 -0.92636406 0.033641905 -0.37512389 0.00089710951
-0.056223441 -0.21078756 0.56276506 -0.93252033 0.069070026 -0.3544504 0.00088336697
0.034742065 0.013267331 0.70071352 -0.090349324 0.97676659 0.1943296 0.048589952
-0.02867447 -0.0098949457 0.5057717 -0.82865626 0.45055795 -0.33215398 0.061395809
-0.062618576 -0.26466593 0.57511246 -0.93385118 0.036945727 -0.35574841 0.00091341976
-0.090292946 -0.22119822 0.6574865 -0.99777913 0.053204544 -0.040074866 0.031312112
-0.056869678 -0.1959001 0.56995481 -0.93476903 0.076433674 -0.3469362 0.00053562195
-0.0057370248 0.011185076 0.58091474 -0.076435767 0.99341786 -0.085314311 0.0079966281
0.02506605 0.012160462 0.63298148 0.0071205907 0.9998942 0.012683629 0.00021559265
-0.083968602 -0.25181806 0.63165432 -0.9556185 0.05645293 -0.28914765 0.003695369
-0.049601186 -0.19798879 0.54896027 -0.93342918 0.061824977 -0.35339448 0.0008053527
-0.03067771 -0.18685491 0.49824581 -0.84918076 -0.026173161 -0.52745324 0.026238741
-0.093116872 -0.2607725 0.67110974 -0.99578583 0.082441367 0.040172778 0.039359491
