# .PCD v0.7 - Point Cloud Data file format
VERSION 0.7
FIELDS x y z normal_x normal_y normal_z curvature
SIZE 4 4 4 4 4 4 4
TYPE F F F F F F F
COUNT 1 1 1 1 1 1 1
WIDTH 579
HEIGHT 1
VIEWPOINT 0 0 0 1 0 0 0
POINTS 579
DATA ascii
-0.0006586074 -0.24740706 0.5630483 -0.13598153 0.0014841222 -0.99071026 0.068370163
-0.0074221366 -0.26043856 0.56761098 -0.37000394 -0.027593646 -0.92862034 0.052965231
-0.011134735 -0.25211236 0.5703392 -0.43333754 0.0025891731 -0.90122795 0.055500861
-0.030242801 -0.38161168 0.58885384 -0.52601135 0.01371778 -0.85036689 0.032269493
-0.036689714 -0.42103714 0.5932405 -0.64911741 -0.041328415 -0.7595647 0.0069308705
0.0068475432 -0.41767204 0.56274295 -0.062374119 -0.18660881 -0.98045224 0.099453978
-0.031613808 -0.26944116 0.59064394 -0.64553523 0.014070703 -0.76360083 0.019545062
-0.02985741 -0.29102686 0.58855325 -0.62450445 -0.013136147 -0.78091073 0.022140799
-0.048525233 -0.36934224 0.60717267 -0.70192641 0.028555254 -0.7116769 0.0019343047
-0.074256085 -0.39046973 0.63298762 -0.73522085 0.027927702 -0.67725205 0.00037305558
-0.036888592 -0.31318837 0.5965358 -0.63689721 -0.010667191 -0.77087498 0.019461472
-0.075575784 -0.38129756 0.63557994 -0.73719382 0.032301821 -0.67490876 0.00028544964
-0.031765897 -0.25945845 0.59118944 -0.64717686 0.014874177 -0.76219469 0.018866744
-0.0793209 -0.2995986 0.64606792 -0.75778115 0.028333908 -0.65189338 0.00047040658
-0.034301069 -0.28258836 0.59365213 -0.64930475 0.0054403818 -0.76050884 0.018915147
-0.09431199 -0.26406148 0.65984374 -0.77998501 0.029123574 -0.62512016 0.001808085
-0.093131423 -0.20842572 0.66484094 -0.79193395 0.042007729 -0.60915995 0.0018914574
-0.05758521 -0.26362118 0.62178528 -0.74587095 0.023276901 -0.66568363 0.00026554769
-0.10708373 -0.27833995 0.67687267 -0.84077984 0.050076693 -0.53905624 0.013969067
-0.0077683097 -0.34530911 0.57090741 -0.29370269 -0.011838813 -0.95582354 0.058379389
-0.036614973 -0.40897965 0.59427309 -0.62353766 -0.026000423 -0.78136086 0.018301507
-0.071099639 -0.35907066 0.63105321 -0.74213338 0.031854168 -0.66949487 0.00031336476
-0.042853929 -0.40597436 0.60040677 -0.66473144 -0.023630951 -0.74670857 0.0059669386
-0.003085755 -0.29826945 0.56909013 -0.30913845 -0.022149097 -0.95075911 0.051025607
0.017762508 -0.42206356 0.56661361 0.126072 -0.34928137 -0.92849791 0.096427858
0.0069102817 -0.29832527 0.56389183 -0.12816902 -0.0063613481 -0.99173194 0.054825224
0.052729797 -0.13126756 0.6061753 0.33454698 0.78997481 -0.51382703 0.069244191
0.0078237234 -0.39171815 0.55633008 -0.020186199 -0.11992808 -0.99257737 0.088859722
0.042260971 -0.39369267 0.57945877 0.4167363 -0.13719119 -0.89861524 0.05312204
0.022030925 -0.24207054 0.57541889 0.19285125 0.0062489188 -0.98120809 0.061808631
0.060653947 -0.12560713 0.61672062 0.40757573 0.82217443 -0.3973805 0.07647036
0.030435411 -0.36940473 0.57136416 0.33353552 -0.047674 -0.9415313 0.062511504
0.0044467016 -0.33585787 0.5652982 -0.037378542 0.032128844 -0.99878454 0.077462487
0.069961861 -0.38784495 0.60415286 0.63678747 0.038565826 -0.77007425 0.0011971882
0.065213434 -0.13304992 0.61557788 0.50885928 0.71074313 -0.48570204 0.071203902
-0.001329208 -0.12123118 0.60764116 -0.17994229 0.91383207 -0.36404908 0.076314174
0.016758369 -0.36619377 0.56312156 0.11995535 -0.039879259 -0.99197799 0.075310007
-0.11748197 -0.33043969 0.68854523 -0.89044088 0.042295747 -0.45312917 0.030263703
0.039528232 -0.36014411 0.57988077 0.42742708 0.025530785 -0.90368921 0.049702704
-0.023820082 -0.37537703 0.58246464 -0.47260764 0.0010135418 -0.88127238 0.04212857
0.023619285 -0.22907607 0.57835269 0.21826625 -0.023798214 -0.97559905 0.059595656
-0.025463039 -0.28432968 0.58387679 -0.58282626 -0.0066023986 -0.81256998 0.034799423
0.0016965452 -0.15024002 0.5674755 -0.20667219 0.34140465 -0.91691297 0.10843777
-0.068273082 -0.41253617 0.62700307 -0.72841841 0.015153693 -0.68496495 0.00060357567
-0.010261135 -0.42205146 0.57455266 -0.3504743 -0.049691357 -0.9352532 0.078350008
0.062558733 -0.38170123 0.59848911 0.60964566 0.035534438 -0.79187715 0.0047661015
0.027822139 -0.35624164 0.57074767 0.32051215 0.063212134 -0.94513291 0.060880478
-0.1129621 -0.22088458 0.68744749 -0.86333352 0.014332213 -0.50443012 0.021026252
-0.11834075 -0.28547657 0.68930429 -0.89571255 0.02655503 -0.44383988 0.033467501
0.077132203 -0.41300514 0.60825634 0.65099072 0.040065877 -0.75802749 0.00083851838
-0.0098972404 -0.15309787 0.56982046 -0.34016913 0.32097599 -0.88388878 0.092390075
-0.042886291 -0.18981174 0.60668224 -0.71434009 0.077469982 -0.69549745 0.010680471
0.014593488 -0.23772661 0.56956083 0.10402412 0.010838942 -0.99451572 0.062927194
-0.035354659 -0.26656824 0.59530717 -0.65941495 0.016349319 -0.75160128 0.018191384
-0.0085818321 -0.19200082 0.56996942 -0.37368527 0.07228642 -0.92473459 0.057980552
0.00079943752 -0.15565009 0.56527621 -0.23563872 0.2945385 -0.92613256 0.097438097
0.076683991 -0.12005922 0.64773017 0.26451388 0.91855007 -0.2937654 0.053798568
-0.12642066 -0.22502863 0.7085827 -0.95067906 -0.031138413 -0.30860934 0.051581495
0.021821022 -0.42345119 0.56682873 0.14578159 -0.37668422 -0.91479874 0.093921736
0.081396908 -0.42697111 0.6110304 0.65296078 0.043447994 -0.75614446 0.00099241186
-0.12647159 -0.28729114 0.71017951 -0.97699577 -0.012266066 -0.21290563 0.060989857
0.026090259 -0.11917021 0.65144247 0.059318516 0.98873967 -0.13738677 0.017822012
-0.1119665 -0.30796236 0.68223834 -0.87017554 0.08926814 -0.48458815 0.02546473
-0.10862574 -0.31800738 0.67843109 -0.8469184 0.051982723 -0.52917576 0.018955527
-0.036331788 -0.40430853 0.59418344 -0.60825253 -0.021343295 -0.79345655 0.022862097
-0.02947377 -0.27504006 0.58887887 -0.63341999 0.0064254208 -0.7737816 0.020202978
-0.13320275 -0.42062482 0.70883662 -0.9764505 -0.21573935 -0.00089844398 0.064729966
-0.10851233 -0.42632446 0.67258549 -0.8481493 0.019119661 -0.52941209 0.020198895
-0.092561379 -0.25263536 0.65873766 -0.77396411 0.035230938 -0.6322487 0.00092453073
-0.017793642 -0.23169696 0.5773555 -0.5362587 0.030534437 -0.84350115 0.044896495
-0.12796704 -0.20666759 0.71237618 -0.97069526 -0.03218396 -0.23814896 0.083121359
0.068519369 -0.11815567 0.67213255 0.14464791 0.97490829 -0.16920646 0.032852519
-0.015203494 -0.19951262 0.57775241 -0.46816432 0.046216406 -0.88243198 0.051330157
-0.024621749 -0.23052032 0.58366269 -0.60721475 0.029129716 -0.79400361 0.032541957
0.0080049448 -0.39084846 0.55649763 -0.020186199 -0.11992808 -0.99257737 0.088859722
-0.13131723 -0.36662298 0.7095449 -0.97706324 -0.021654131 -0.21184525 0.047615126
-0.12669294 -0.30010918 0.70330298 -0.94333279 0.012425159 -0.33161572 0.048467871
-0.029695487 -0.25416031 0.58924687 -0.63935781 0.020269744 -0.76864207 0.02099408
-0.071581423 -0.22617681 0.64055353 -0.75438136 0.028797764 -0.65580446 0.00015161511
0.0043631461 -0.23325519 0.56683606 -0.054979566 -0.0015340915 -0.99848622 0.063087694
0.020160358 -0.11900349 0.65453315 0.039800134 0.99193382 -0.12034657 0.012096819
0.055103574 -0.1222265 0.62161058 0.25638458 0.92456824 -0.28185222 0.054237034
0.039806668 -0.11763816 0.69691437 0.013905342 0.99932516 -0.033997174 0.00047891802
-0.048605911 -0.11954246 0.66768646 -0.26027939 0.92768335 -0.26769066 0.06184198
0.0014763228 -0.1263584 0.58350134 -0.16128524 0.75444603 -0.6362375 0.11429995
-0.080071926 -0.2489537 0.64671797 -0.75416189 0.029407103 -0.6560297 0.00029617388
-0.089724712 -0.27103239 0.65533394 -0.77077729 0.027519463 -0.63651001 0.0010674393
-0.020495776 -0.22581393 0.57957625 -0.57220811 0.010964511 -0.82003522 0.040049911
-0.13307232 -0.32370934 0.72326702 -0.99835628 0.048662409 -0.030275952 0.067890957
-0.088199325 -0.30517897 0.65460277 -0.7708059 0.031099513 -0.63631052 0.0011354092
-0.12993462 -0.33846727 0.7091226 -0.96782804 0.032987095 -0.24944112 0.055851672
0.01820617 -0.21736822 0.57120991 0.15244958 -0.016433317 -0.98817462 0.062837534
-0.12446243 -0.18911323 0.70758301 -0.95215696 0.13169234 -0.27577937 0.071073659
-0.11910287 -0.40982166 0.68278015 -0.90017927 -0.058280226 -0.43160251 0.0391661
0.0088348351 -0.24165508 0.56827843 -0.011631261 0.0011069233 -0.99993169 0.06399703
0.0071932394 -0.12673824 0.57706922 -0.051397555 0.68923908 -0.72270858 0.11823775
-0.026926402 -0.39302549 0.5859524 -0.49812639 0.0034425622 -0.86709756 0.044984818
-0.085763238 -0.24884315 0.65305221 -0.76229608 0.030273566 -0.64652008 0.00060977088
-0.079557434 -0.20818141 0.64788246 -0.76285326 0.039604392 -0.64535743 0.00046567095
0.034129046 -0.1189689 0.64032388 0.10281888 0.97803468 -0.18131869 0.028567472
0.062402777 -0.11825214 0.67630172 0.11027678 0.98520237 -0.13120742 0.021718698
0.14822136 -0.17733724 0.68155909 0.8926993 0.23746391 -0.38301298 0.052551992
-0.0023301162 -0.12051155 0.62256867 -0.15530786 0.94386554 -0.29154333 0.05812325
-0.011221891 -0.23247057 0.57306391 -0.46248624 0.028122455 -0.88618034 0.055078156
-0.080802388 -0.21437109 0.6489417 -0.76632667 0.034273703 -0.6415363 0.00050034194
-0.10314845 -0.16881455 0.67830122 -0.80397463 0.26684183 -0.53143233 0.02603779
-0.0033117866 -0.11694147 0.72477603 0.00056915119 0.99964601 -0.026597986 0.00013823803
-0.054187357 -0.11962739 0.67393041 -0.23984751 0.93345761 -0.26670212 0.05333196
-0.077193439 -0.23474205 0.64407796 -0.75406796 0.027986761 -0.65619987 0.00022001244
-0.061785422 -0.12181874 0.64392239 -0.46096486 0.79295218 -0.39841974 0.079918928
-0.10491729 -0.19479863 0.67934251 -0.83104366 0.039869323 -0.55477631 0.010895158
-0.10734381 -0.34596536 0.67484838 -0.82163858 0.028265107 -0.56930745 0.010243366
-0.12925 -0.32290494 0.70542288 -0.95990711 0.023970267 -0.27929178 0.066260017
-0.065208651 -0.30293918 0.62986189 -0.7486378 0.023420271 -0.66256541 0.00020002354
-0.12755588 -0.29311815 0.71164119 -0.98494244 -0.024782278 -0.17109729 0.061763275
-0.1222951 -0.29106236 0.69613618 -0.92075658 0.012584887 -0.38993448 0.037955668
-0.11405735 -0.31582254 0.68483418 -0.87200791 0.08994846 -0.48115626 0.028726906
-0.1346588 -0.40070418 0.72582108 -0.98239833 -0.078390494 0.16955364 0.052244682
-0.089246012 -0.41894981 0.65003401 -0.75809121 0.0042596688 -0.65213466 0.001277637
-0.13169061 -0.34596077 0.7216258 -0.99771392 0.045688033 -0.049795318 0.044791598
-0.038641009 -0.11611868 0.73068953 -0.083980054 0.99618083 0.023896383 0.014039554
-0.025989056 -0.40342996 0.58484441 -0.50330466 -0.0097322194 -0.86405426 0.049874485
0.040540632 -0.12003197 0.8394931 0.19726484 0.82878047 0.52365035 0.10054693
0.022609074 -0.1181979 0.67623007 0.013085559 0.99789101 -0.063578673 0.0021561629
-0.1337329 -0.32013413 0.72244358 -0.99889469 0.022509145 -0.04126396 0.07122913
-0.026250673 -0.28357345 0.58519721 -0.60071552 -0.0025660917 -0.79945874 0.027812852
-0.043754224 -0.12259805 0.62048775 -0.48864707 0.79456758 -0.36039764 0.066247009
0.064252041 -0.12016106 0.81108916 0.38802841 0.84525418 0.36739519 0.059806831
-0.084827438 -0.13389826 0.66610998 -0.55199641 0.69283366 -0.46398428 0.066805921
-0.08508268 -0.38420179 0.6470058 -0.75305659 0.031128656 -0.65721905 0.00053109421
-0.11388761 -0.42568007 0.67878509 -0.87724417 -0.017698929 -0.479718 0.037683941
-0.12413589 -0.41480142 0.69147283 -0.94592744 -0.10027122 -0.30849159 0.062249888
-0.11359401 -0.41383484 0.6725139 -0.84312916 0.011521535 -0.53758752 0.015952487
-0.12445202 -0.41724411 0.69197649 -0.94822502 -0.12089618 -0.29368928 0.065311015
-0.12690531 -0.29439208 0.70574576 -0.95530832 0.0065816334 -0.29553765 0.049504708
-0.10893227 -0.19933498 0.68389177 -0.8407867 0.015625922 -0.54114097 0.011368941
0.0031019968 -0.11650353 0.75137299 -0.011838641 0.99992669 0.002552869 0.0019291394
-0.13287182 -0.34499636 0.72248775 -0.9979068 0.042945083 -0.048349377 0.045099288
-0.030263014 -0.39667389 0.58871603 -0.53488362 0.015057765 -0.84479153 0.038456015
0.039269395 -0.12030575 0.60102284 0.16778773 0.89527571 -0.41270876 0.06018823
-0.10800894 -0.22175547 0.68132895 -0.8454296 0.035720788 -0.53289109 0.012623067
0.11688874 -0.12778991 0.67011398 0.45165047 0.8386035 -0.3045586 0.057842471
-0.093073145 -0.22143412 0.66333544 -0.78853464 0.043896828 -0.61342174 0.0019330272
0.12848516 -0.15128234 0.66722524 0.68043727 0.54330736 -0.49175426 0.06467177
-0.030616833 -0.41577828 0.58812028 -0.56943834 -0.017990539 -0.82183707 0.03457721
-0.0025636479 -0.26763776 0.56498438 -0.30316395 -0.042254563 -0.95200115 0.054304428
-0.027438961 -0.42038381 0.58474404 -0.54692978 -0.043127451 -0.8360669 0.041557673
0.0070883888 -0.3907398 0.55603921 -0.020186199 -0.11992808 -0.99257737 0.088859722
0.018373668 -0.34009248 0.56730884 0.15584652 0.045639358 -0.98672634 0.073198229
0.020427026 -0.20767084 0.57433146 0.20341586 -0.010282141 -0.97903842 0.057266362
0.049815893 -0.12386932 0.61152571 0.25248158 0.87345958 -0.41631889 0.062577255
0.020753242 -0.11923268 0.65152007 0.036890797 0.98992389 -0.13671066 0.015218765
0.067669153 -0.14119382 0.61494946 0.56158537 0.60090417 -0.56880236 0.074344642
0.0051292768 -0.27875409 0.56388921 -0.19383964 -0.0091627268 -0.98099041 0.0602725
0.039326493 -0.35992646 0.57973206 0.42742708 0.025530785 -0.90368921 0.049702704
0.046715923 -0.17055793 0.59243 0.49975976 0.19627117 -0.84363371 0.038974006
0.012426682 -0.16539165 0.56370425 0.051390257 0.19237304 -0.97997534 0.084911808
0.0091889501 -0.15757345 0.56387782 0.0091433218 0.24442302 -0.96962571 0.10076912
0.03820904 -0.33401456 0.57895267 0.3839837 0.064517669 -0.92108303 0.057529431
0.028532403 -0.30867741 0.57491916 0.20360735 0.057399962 -0.97736859 0.067795858
0.061377924 -0.12594046 0.61707473 0.40944007 0.82094467 -0.39800578 0.076387011
0.12291513 -0.14398105 0.66729116 0.57804435 0.69487876 -0.42779475 0.067455843
0.12644587 -0.15145358 0.66547775 0.6782698 0.54589981 -0.49187741 0.060081489
0.050388597 -0.12466288 0.60864937 0.26244047 0.85608131 -0.44525257 0.063723907
0.0425344 -0.3942461 0.57942086 0.41538054 -0.14356667 -0.89824694 0.053939685
0.023163592 -0.32922328 0.56878334 0.20703019 0.074595757 -0.97548652 0.071161218
0.030873653 -0.34680778 0.57428962 0.34231064 0.078243397 -0.93632334 0.060711794
0.030475508 -0.3687838 0.57138336 0.3394258 -0.040568631 -0.93975759 0.062142141
0.043239333 -0.13930555 0.5943566 0.43704987 0.55931801 -0.70437974 0.07736288
0.012656249 -0.39524204 0.55816674 0.014631242 -0.13122493 -0.99124461 0.08946567
0.021633716 -0.17886679 0.57448894 0.19167686 0.14055556 -0.97134131 0.074142709
0.029682538 -0.23027076 0.57992321 0.2693646 -0.027256085 -0.9626525 0.055449415
0.10391536 -0.16497304 0.6436854 0.66064143 0.4633995 -0.5906046 0.056603044
0.085569926 -0.19534659 0.62749362 0.65812731 0.10157235 -0.74602383 0.0059805969
0.14586477 -0.3605653 0.67323971 0.82381678 0.029214168 -0.56610286 0.029139129
0.11451487 -0.24844131 0.65048134 0.67097127 -0.0025931445 -0.74147874 0.0057335799
0.13948438 -0.28843933 0.67141259 0.84452504 0.020864218 -0.53510934 0.038784552
0.13992624 -0.41714367 0.66220105 0.76533699 0.015631063 -0.64344001 0.021674683
-0.027189281 -0.11930395 0.67277682 -0.17956589 0.96514452 -0.19039996 0.039633077
0.039241116 -0.12515427 0.59736484 0.23219785 0.82891375 -0.50890678 0.070333898
0.01993084 -0.12558229 0.58280998 0.10787655 0.79135233 -0.6017676 0.092935823
0.11854897 -0.36238569 0.64799213 0.67931628 0.045818262 -0.73241389 0.0022154476
0.12988131 -0.33400309 0.65767103 0.71407759 0.064164095 -0.69711989 0.011978723
0.062723674 -0.2571542 0.60479307 0.60637242 0.023337828 -0.79483825 0.0053948071
0.10312784 -0.3279165 0.63741678 0.6553176 0.061100286 -0.75287825 0.0026227802
0.10517558 -0.33098152 0.63923001 0.65490162 0.061478566 -0.75320935 0.0025957157
0.14030875 -0.22528605 0.66828316 0.85329866 0.1103768 -0.50960606 0.034261104
0.060192842 -0.34014669 0.59849882 0.59997219 0.067361601 -0.79717994 0.0083947377
0.14431553 -0.3096908 0.66993779 0.81393588 -0.0029937716 -0.58094704 0.021641111
0.078894056 -0.32168102 0.62025732 0.65342349 0.057073172 -0.75483799 0.0021242127
0.085461639 -0.36957416 0.61939675 0.6575923 0.050787855 -0.75166017 0.00024491653
0.16549723 -0.42309588 0.69683349 0.9459815 -0.32292253 -0.028983628 0.064274743
0.1013539 -0.35626683 0.63366902 0.65913856 0.05595744 -0.74993664 0.0022769384
0.12015533 -0.3554081 0.64966106 0.68131703 0.063435279 -0.72923458 0.0049184039
0.12732537 -0.40670326 0.65504301 0.72020102 0.017503392 -0.69354463 0.0078316405
0.060278308 -0.37984234 0.59629607 0.60033154 0.043061636 -0.79859108 0.0058385362
0.095452525 -0.40513688 0.62435931 0.66253191 0.051710512 -0.74724662 0.00016511991
0.057166431 -0.34401754 0.59508306 0.59665507 0.072513945 -0.79921496 0.0087059559
0.059596736 -0.22654684 0.6022799 0.55137718 -0.0036420187 -0.83424813 0.010703535
0.15709087 -0.38085714 0.68413651 0.92814559 0.026539903 -0.37126979 0.065406971
0.12625363 -0.2916199 0.6609599 0.71608055 0.053393874 -0.69597256 0.011574282
0.054774325 -0.31410846 0.59408301 0.57011956 0.055410355 -0.81969106 0.011513529
0.13940831 -0.3298527 0.66487712 0.78682387 0.029653421 -0.61646485 0.023857392
0.078604057 -0.3132619 0.62018567 0.65336585 0.056608465 -0.75492281 0.0022959884
0.070167996 -0.34768528 0.60666907 0.64511591 0.068303853 -0.76102567 0.0026918924
0.12415916 -0.34787703 0.65309584 0.6987561 0.058198318 -0.71298867 0.007431983
0.12231891 -0.32860321 0.65409553 0.70020717 0.064453505 -0.71102434 0.0086741624
6.7998597e-05 -0.12130522 0.60800892 -0.160634 0.9189235 -0.36024484 0.073654138
0.048843335 -0.1652509 0.59495026 0.51392448 0.24345641 -0.82256347 0.050974615
0.05642657 -0.14567366 0.60400414 0.5252043 0.49661112 -0.69104117 0.067234643
0.057564814 -0.15550411 0.60232055 0.56487525 0.36989447 -0.73762733 0.057034269
0.044026494 -0.14620322 0.59356499 0.47469425 0.42476326 -0.77087057 0.071779422
0.050941024 -0.21346578 0.59627914 0.46594965 -0.01951196 -0.88459605 0.024794078
0.017556796 -0.3947008 0.5614816 0.07436052 -0.16584694 -0.98334396 0.090455711
0.049376111 -0.22018228 0.59478736 0.44697198 0.0078704143 -0.89451337 0.027439499
0.0037933211 -0.36316639 0.55948377 -0.098199248 -0.03416634 -0.99458003 0.068863235
0.053251747 -0.2896277 0.5953393 0.54407001 0.052054018 -0.83742356 0.016346317
0.07911589 -0.38832927 0.612679 0.65674102 0.049892716 -0.75246388 0.00045856263
0.056718834 -0.41868353 0.59038883 0.59275746 -0.026107615 -0.80495775 0.0088721849
0.070019305 -0.38582981 0.60454226 0.63809001 0.039530843 -0.76894629 0.0010982723
0.1498308 -0.39528319 0.67437696 0.84044629 -0.0030063186 -0.54188657 0.047949169
0.15481071 -0.38940486 0.68149179 0.90343738 0.0090724332 -0.42862406 0.064297661
0.043479804 -0.15666689 0.59169555 0.48089457 0.29732463 -0.82482636 0.062235318
0.089860275 -0.3732321 0.62284333 0.65764868 0.048218299 -0.75178009 0.00025248236
0.032856341 -0.25079843 0.58245635 0.21634209 0.016789608 -0.97617322 0.059210505
0.059727408 -0.39748609 0.59430027 0.59724945 0.021312809 -0.80177242 0.0068463096
0.05080647 -0.19981864 0.59470928 0.50995404 0.02192447 -0.85992229 0.017592642
0.088614553 -0.4044272 0.61929548 0.66185659 0.052062824 -0.74782026 0.00018803655
0.061430961 -0.29566544 0.6017437 0.59357059 0.051849052 -0.80311 0.0075621535
-0.072080396 -0.11866968 0.70448315 -0.24821955 0.95947558 -0.13339265 0.038305294
-0.045430832 -0.11581696 0.7379697 -0.11226528 0.99247891 0.048807051 0.023538535
-0.066457264 -0.11822794 0.76675564 -0.27016276 0.9238373 0.27117679 0.078307673
0.14122117 -0.41785592 0.66668683 0.77696353 0.007154868 -0.62950498 0.02423962
0.098188646 -0.3564193 0.63283366 0.65581208 0.058265943 -0.75267231 0.0024261489
0.0033751118 -0.20917724 0.56725979 -0.14345859 0.0083896574 -0.9896208 0.068385892
-0.0029070522 -0.30505735 0.56438625 -0.24211118 -0.012198043 -0.97017181 0.058508135
0.0046204766 -0.26441678 0.56495661 -0.11158854 -0.0092134234 -0.99371183 0.059706759
0.054913107 -0.38117564 0.59170955 0.57577878 0.030615659 -0.8170321 0.012783759
0.022320148 -0.33905283 0.56870651 0.22086518 0.070935145 -0.97272134 0.069284782
-0.0016085386 -0.19858713 0.56781209 -0.22826439 0.037054025 -0.97289377 0.066567086
0.0058360798 -0.41547763 0.56230557 -0.11620312 -0.11802405 -0.98618823 0.09242858
0.072056964 -0.2766569 0.61874473 0.65853357 0.037668325 -0.75160801 0.0032836129
0.028159956 -0.31431997 0.572954 0.22862568 0.078174256 -0.97037065 0.06687811
-0.008279602 -0.11845636 0.68528593 -0.030262098 0.99783331 -0.058419779 0.0022864924
0.063677914 -0.36006185 0.60105133 0.61080354 0.060775355 -0.78944623 0.0069753365
0.092506535 -0.38095343 0.62402934 0.65896708 0.050701503 -0.75046104 0.00023736586
0.10972577 -0.36573842 0.64108336 0.66715103 0.047829468 -0.74338531 0.00094575848
0.025012437 -0.33128443 0.56978101 0.23538618 0.064301699 -0.96977246 0.069364734
0.029566275 -0.35810652 0.57250798 0.3558391 0.045586303 -0.93343478 0.057032149
0.016839962 -0.21534601 0.56829613 0.14152518 -0.018831177 -0.98975557 0.06237372
0.032858249 -0.28260118 0.58139753 0.22498287 0.043994568 -0.97336894 0.056187551
0.002975605 -0.3220948 0.56315833 -0.12224656 0.090097435 -0.98840195 0.066938125
0.0044569783 -0.35719827 0.56051403 -0.10046104 -0.020725755 -0.99472505 0.069090433
0.035426937 -0.36376971 0.57650894 0.41532943 0.023062978 -0.90937871 0.050853275
0.083680548 -0.39824677 0.61566663 0.65732306 0.050143335 -0.75193882 0.00041603556
0.032549087 -0.1228334 0.60526592 0.11799773 0.91838664 -0.37768042 0.062674418
0.0047711344 -0.15464467 0.56514978 -0.18760279 0.30615413 -0.93331391 0.10307635
-0.046764173 -0.1183385 0.69658166 -0.12999263 0.98285234 -0.13077904 0.023709403
0.039586101 -0.3941952 0.57697034 0.3854284 -0.17715071 -0.90557301 0.059468754
0.02011095 -0.20534123 0.57449538 0.1860669 0.0034751589 -0.98253089 0.056820892
0.0038808906 -0.1879238 0.56486857 -0.12994717 0.066629425 -0.98927969 0.077622049
-0.1241965 -0.4102664 0.69208854 -0.9413504 -0.068963841 -0.33030802 0.057760395
0.061263449 -0.37996483 0.59718823 0.6062305 0.038503118 -0.79435641 0.0050477237
-0.027845671 -0.26475886 0.58672613 -0.62409174 0.0081133358 -0.78130895 0.024534835
0.050943855 -0.36080533 0.59003228 0.54693907 0.051851574 -0.83556503 0.021984514
0.051154759 -0.40073541 0.58604652 0.5307554 -0.02676058 -0.84710252 0.031138377
0.065112881 -0.36868444 0.6019392 0.6153087 0.042782348 -0.78712445 0.0041853781
-0.022745864 -0.12779649 0.59816515 -0.41552463 0.73229688 -0.53951889 0.094173282
0.0058785961 -0.33546659 0.56242371 -0.0048125689 0.027111808 -0.9996208 0.075876705
-0.11866844 -0.41364473 0.68152237 -0.89202708 -0.054382022 -0.44869843 0.03827142
0.0035091056 -0.27299735 0.56539041 -0.20042989 -0.027342865 -0.97932637 0.056177787
0.078818887 -0.38862076 0.61236173 0.65586996 0.049464718 -0.75325155 0.00049562752
-0.028070113 -0.26575837 0.58743721 -0.62395859 0.011897636 -0.78136688 0.024718516
0.068978399 -0.11811916 0.68788737 0.11267375 0.98690498 -0.11542565 0.018871216
-0.12794021 -0.36920142 0.70225692 -0.94078529 -0.015185942 -0.33866262 0.039971337
0.03607269 -0.11649388 0.78959286 0.070302665 0.98187453 0.17601115 0.026126342
0.024136934 -0.11878984 0.66644782 0.022387819 0.99575335 -0.089297332 0.0052949251
0.0047108317 -0.11614751 0.75599986 -0.010660305 0.99988723 0.010577139 0.002266333
-0.09244132 -0.31440049 0.65888798 -0.77486265 0.030459762 -0.63139528 0.0014374224
-0.07696186 -0.23138569 0.64509028 -0.75463551 0.028788902 -0.65551233 0.00023057316
0.14740856 -0.14077879 0.69727081 0.77882195 0.60944682 -0.14836085 0.080781646
0.086034834 -0.43391088 0.61286837 0.65644902 0.045142621 -0.75301844 0.00086000998
0.087077625 -0.43395621 0.61363536 0.66054749 0.050778538 -0.74906516 0.00071017537
0.043660961 -0.12046631 0.62879044 0.14658765 0.96557933 -0.21486889 0.036951106
0.034692559 -0.12324708 0.59805429 0.16236007 0.87559223 -0.45494777 0.073388375
-0.027192129 -0.23640303 0.587044 -0.63065177 0.04034334 -0.77501667 0.02412468
-0.017317634 -0.20484391 0.57934535 -0.5072422 0.028624415 -0.86132807 0.049835224
-0.049017113 -0.32459795 0.61115295 -0.71737468 0.016922187 -0.696482 0.0019593681
-0.026795032 -0.23105571 0.58644754 -0.63770151 0.021278447 -0.76998967 0.022955529
-0.059498288 -0.28360197 0.62439716 -0.74783522 0.019959193 -0.66358429 0.00029467209
-0.027714945 -0.38301018 0.58705658 -0.51529264 0.017527793 -0.85683501 0.033208981
0.083903559 -0.39587721 0.61611223 0.65705818 0.049973931 -0.75218165 0.00040041097
0.0050667319 -0.34156948 0.56942374 0.010917366 0.02637038 -0.99959266 0.077976018
-0.089253232 -0.42546093 0.65002352 -0.75564951 -0.00017876661 -0.65497613 0.0011663809
-0.0098775476 -0.20125872 0.57489669 -0.34685606 0.03982709 -0.9370724 0.060442422
-0.0095352223 -0.20059881 0.57399833 -0.34398723 0.036555599 -0.93826246 0.061038438
-0.00057427236 -0.19073558 0.56636071 -0.18650015 0.05157084 -0.9811005 0.073660441
-0.033718448 -0.26318297 0.59354728 -0.65245497 0.014942273 -0.75768018 0.018763522
-0.094523653 -0.36719942 0.65890437 -0.77986604 0.029015889 -0.62527359 0.0020258711
-0.091581233 -0.34681076 0.65674067 -0.76890975 0.031733621 -0.6385693 0.0012909058
-0.084451161 -0.25845331 0.652071 -0.76173115 0.027958304 -0.64728969 0.00059867988
-0.082207695 -0.2606802 0.64949775 -0.758578 0.026372703 -0.65104818 0.00045284434
-0.064418443 -0.28377369 0.62989223 -0.74959248 0.021860991 -0.6615386 0.00015369619
0.14586535 -0.12801181 0.69599754 0.7014479 0.69893456 -0.1395043 0.080996089
0.081265002 -0.11994558 0.64862949 0.27323064 0.91058928 -0.31011641 0.054914843
0.048353463 -0.12393966 0.61245894 0.24279617 0.87912661 -0.41010556 0.062235549
0.098410308 -0.11855591 0.68829107 0.27777764 0.95163035 -0.13129865 0.039563555
0.063338503 -0.38647991 0.5988664 0.60865957 0.033335011 -0.79273093 0.0046257749
0.056508642 -0.12539738 0.6151095 0.34415886 0.84824663 -0.40253249 0.070054077
0.1222802 -0.1283527 0.67214203 0.48806414 0.81782502 -0.30488625 0.064244866
-0.042929552 -0.12300153 0.61856997 -0.48896706 0.79285645 -0.36371684 0.065856509
-0.051372159 -0.11906531 0.67682201 -0.21255443 0.94774574 -0.23790459 0.045345996
-0.070567615 -0.11756422 0.71793228 -0.22695702 0.9737252 -0.018705709 0.039226163
-0.053083502 -0.12426883 0.64979208 -0.36964864 0.85965079 -0.35264754 0.078798249
0.0067493184 -0.11876398 0.67038548 -0.01718607 0.99771249 -0.065379739 0.0018922538
-0.053896841 -0.27228463 0.61709982 -0.73316222 0.015557732 -0.67987585 0.0010282195
0.0019254241 -0.1314747 0.57397467 -0.12831831 0.624852 -0.77012628 0.11803928
-0.023513705 -0.12401064 0.60719496 -0.3633388 0.84451252 -0.39342541 0.076469705
-0.047722209 -0.18347014 0.61298698 -0.72896296 0.10697242 -0.67614347 0.011646573
-0.05524414 -0.13843736 0.62720978 -0.60835886 0.6584357 -0.44312739 0.070187137
-0.0094811171 -0.13855733 0.57359731 -0.31166995 0.45651153 -0.83334208 0.11189993
-0.0017472173 -0.30752146 0.56840044 -0.22406112 -0.010722388 -0.97451615 0.063861214
-0.042727385 -0.11626131 0.73084581 -0.094305031 0.99482715 0.037754681 0.01903745
-0.12698016 -0.2133705 0.71080512 -0.96347028 -0.0178978 -0.2672165 0.0656626
-0.12509827 -0.2313388 0.70708668 -0.94374436 -0.036747463 -0.32862771 0.052273069
-0.12498358 -0.23022135 0.70617479 -0.93864721 -0.036587749 -0.34293267 0.051049896
-0.1303273 -0.29716757 0.7176404 -0.9959873 -0.041622389 -0.079227366 0.067808464
-0.088583536 -0.26911923 0.65447229 -0.76762974 0.027307617 -0.64031148 0.00084907899
-0.06231166 -0.24192369 0.62995648 -0.75071484 0.025579756 -0.66013092 0.00016955842
-0.087709568 -0.2398507 0.65571576 -0.7696566 0.035293251 -0.63748193 0.00067928631
-0.068529151 -0.2297084 0.63680398 -0.75403261 0.027898598 -0.65624416 0.00015105605
-0.13552244 -0.23263685 0.71832949 -0.99151599 -0.062808499 -0.11380368 0.055655982
-0.063097112 -0.17997266 0.63178259 -0.76778376 0.15486267 -0.62171191 0.018051734
-0.068616629 -0.2368262 0.63617754 -0.75411129 0.026602592 -0.65620768 0.00014851851
0.012869061 -0.12671708 0.57869077 0.017670803 0.71211994 -0.70183545 0.11012764
0.026683733 -0.12528212 0.58539665 0.19360034 0.77366126 -0.60329694 0.085493855
-0.059862349 -0.12062915 0.64236701 -0.45303273 0.79820693 -0.39702258 0.079695396
-0.069332838 -0.12731983 0.65048504 -0.48524848 0.75837886 -0.43519574 0.085927188
-0.031044833 -0.1161487 0.73832405 -0.084001318 0.99600255 0.030375432 0.014100238
0.060919385 -0.11771228 0.70203674 0.040385954 0.99849659 -0.037061311 0.002353407
-0.017933434 -0.12705828 0.59340501 -0.36974853 0.71915066 -0.58830976 0.10136873
0.040372219 -0.11710963 0.76898348 0.065844998 0.996351 0.05430688 0.0070944936
-0.024861706 -0.11721714 0.70841533 -0.033115789 0.99819911 -0.050019275 0.0015747302
-0.030300273 -0.30264196 0.58849776 -0.6091873 -0.037107322 -0.79215771 0.02277814
-0.037643868 -0.15135419 0.60469747 -0.63555127 0.45942199 -0.62048864 0.069352113
-0.013691074 -0.19785717 0.57622433 -0.44788384 0.056373112 -0.89231282 0.05315898
-0.043097157 -0.31872642 0.60414976 -0.6690737 0.001557358 -0.74319446 0.0107252
-0.029389091 -0.26254091 0.58871835 -0.63702571 0.0091767721 -0.77078795 0.02025013
-0.017815363 -0.13572091 0.58596694 -0.39463541 0.57939422 -0.71313763 0.10345428
-0.066496126 -0.15551962 0.63672423 -0.7191093 0.44024336 -0.53764999 0.067908481
-0.05272878 -0.27608326 0.61573273 -0.73107839 0.012952732 -0.68217057 0.0010593021
-0.0079421643 -0.23580351 0.57084262 -0.40577424 0.045245282 -0.9128527 0.061317857
-0.017501118 -0.13327359 0.58780533 -0.38188156 0.64122301 -0.66558206 0.10416858
-0.064424209 -0.31737411 0.62836587 -0.74826658 0.027198769 -0.66284037 0.00027520116
-0.0068604434 -0.15524989 0.56952345 -0.30947775 0.30317488 -0.9012816 0.091397084
-0.026137207 -0.2823019 0.58463925 -0.60244769 -0.00054678321 -0.79815817 0.027635036
-0.030939002 -0.3065747 0.58947104 -0.60823381 -0.036172736 -0.79293329 0.022624617
-0.056279402 -0.16965345 0.62394756 -0.77041721 0.26441097 -0.58012426 0.04206682
-0.014460974 -0.15154946 0.57514012 -0.37317932 0.33624071 -0.86468452 0.094649442
-0.063155711 -0.15234978 0.63323361 -0.70201623 0.4812904 -0.52491206 0.07283926
-0.024381278 -0.34402412 0.58393753 -0.52869076 0.0072331587 -0.84878367 0.025350165
-0.016180716 -0.15091611 0.57690156 -0.41540778 0.34267661 -0.84262037 0.090864629
-0.066550396 -0.18618202 0.63494492 -0.75693613 0.11162768 -0.64388424 0.0090456223
-0.031600948 -0.26431537 0.59098351 -0.64240277 0.0077192276 -0.76632828 0.020216955
-0.091096461 -0.12460319 0.6868583 -0.50877535 0.80324286 -0.30975547 0.066895194
-0.070843183 -0.11891004 0.69824362 -0.24225478 0.95571184 -0.16711518 0.033897359
-0.12852503 -0.17799027 0.71321803 -0.95526284 0.22485428 -0.19212881 0.067256056
-0.12575859 -0.21329348 0.70821053 -0.9515757 -0.018602679 -0.30685124 0.06127638
0.094352134 -0.11833359 0.7612077 0.35109925 0.91667044 0.19090505 0.053409003
-0.055651937 -0.15065961 0.62528491 -0.7258448 0.4705292 -0.50174862 0.066285364
-0.055422157 -0.18772264 0.62217373 -0.75006121 0.089031883 -0.6553483 0.0050876364
-0.018331271 -0.11717979 0.7209745 -0.012923316 0.99963856 -0.023575278 0.00037246876
-0.072860189 -0.25548604 0.63902456 -0.75107157 0.025164912 -0.65974098 0.00014751835
-0.068131074 -0.1274668 0.65201402 -0.46366724 0.78002036 -0.42021534 0.086813919
-0.032294448 -0.11627062 0.72924119 -0.067109063 0.99759644 0.017253956 0.010175718
-0.014303119 -0.19453669 0.57577741 -0.4477815 0.063657567 -0.89187407 0.054462958
-0.063527986 -0.29720783 0.62808621 -0.74738735 0.023095503 -0.66398704 0.00022733449
-0.038171954 -0.17644982 0.60106415 -0.69263065 0.14617591 -0.70632535 0.024238782
0.021523038 -0.12403213 0.58866888 0.13336544 0.83765393 -0.52966923 0.083734363
-0.0078843627 -0.14193256 0.57052583 -0.31969133 0.39239684 -0.86245131 0.1054168
0.032882221 -0.1169778 0.76049125 0.04549855 0.99851376 0.03000088 0.0034504188
-0.047844794 -0.1317233 0.62250859 -0.52915418 0.75673002 -0.38386923 0.066868968
-0.02397522 -0.13822225 0.59092784 -0.45478591 0.57664114 -0.67871553 0.09843187
-0.037930049 -0.18619739 0.60104758 -0.69445884 0.091978051 -0.71362942 0.016197264
-0.052364096 -0.36496708 0.61099559 -0.71410686 0.03164595 -0.69932097 0.0014657513
-0.061943866 -0.24993505 0.62884247 -0.7493872 0.023648674 -0.66170955 0.00017599085
0.0049179425 -0.12719481 0.58039361 -0.13133019 0.71775532 -0.68379796 0.1149779
-0.06480664 -0.2996805 0.62926894 -0.74842727 0.023057753 -0.66281587 0.0002073778
-0.032977276 -0.12084596 0.81564355 -0.31786326 0.88698643 0.33498964 0.06138809
0.024148602 -0.12456916 0.58940601 0.13502991 0.84356433 -0.51977509 0.081899144
-0.0063013863 -0.13004464 0.58013952 -0.2618145 0.65847802 -0.70559186 0.12041766
-0.029293533 -0.12750287 0.60501724 -0.43213221 0.7744 -0.46213248 0.084227376
0.005969625 -0.21686482 0.56836796 -0.050734147 -0.0015724157 -0.99871093 0.064081244
-0.0029785598 -0.2688702 0.56417686 -0.30220813 -0.040447008 -0.95238352 0.054784209
-0.016090291 -0.23671938 0.57578194 -0.5150286 0.057180069 -0.85526371 0.046791494
-0.037992757 -0.11901684 0.68134248 -0.17881325 0.96543485 -0.18963476 0.040860135
0.023370203 -0.12692508 0.86062437 0.12223414 0.58592421 0.801094 0.11714993
-0.044345606 -0.17465998 0.60916561 -0.71994144 0.15293138 -0.67697591 0.024218172
0.064153321 -0.11841693 0.66436952 0.13957633 0.97161335 -0.1910129 0.034400295
-0.0050781406 -0.1183183 0.68431371 -0.029118998 0.99789429 -0.057957623 0.0021959047
0.0075721857 -0.3848612 0.55662119 -0.026006155 -0.10711233 -0.99390674 0.081606358
0.13790475 -0.12307014 0.69454396 0.54665685 0.82821953 -0.12336372 0.063072316
0.11051939 -0.11940118 0.69086641 0.35925278 0.92424697 -0.12924834 0.048392426
0.0020270536 -0.12066498 0.62526894 -0.11588971 0.95561975 -0.27085143 0.047992457
-0.039568827 -0.19391067 0.60282296 -0.70602554 0.05976297 -0.70566016 0.01016008
0.011740008 -0.11701893 0.69983017 -0.0002987661 0.99959534 -0.028444842 0.00011297363
-0.046402559 -0.12021816 0.6644069 -0.27840537 0.92170078 -0.27010792 0.065028638
-0.058023468 -0.12019589 0.6364243 -0.47829232 0.77489984 -0.41323936 0.080480844
-0.089755222 -0.12435844 0.68389803 -0.49065265 0.80616945 -0.33068207 0.066571586
-0.059832484 -0.12300598 0.63562602 -0.50064373 0.75317365 -0.42671466 0.080294505
0.036560778 -0.11795799 0.73463988 0.01935754 0.99976695 -0.0095573887 0.00029416985
-0.03707689 -0.11493392 0.77004546 -0.18796867 0.96709383 0.1714565 0.052216589
-0.0070615197 -0.23431535 0.57018721 -0.3917768 0.027884848 -0.91963768 0.058156915
0.023084186 -0.11682135 0.76276022 0.02868749 0.99932069 0.02313211 0.0016548986
-0.092450157 -0.11799146 0.73417896 -0.42669481 0.90071267 0.081536576 0.078863546
-0.01828431 -0.12809893 0.59242207 -0.37455851 0.70516306 -0.6020391 0.10170709
0.018199647 -0.12310776 0.85392475 0.087333307 0.70176262 0.70703757 0.12199382
0.052175257 -0.11659527 0.77314359 0.13228118 0.98698139 0.091484852 0.023413854
0.070238747 -0.12409268 0.62828732 0.39746013 0.84212583 -0.36448529 0.062071979
0.039197382 -0.12140601 0.60007966 0.18237519 0.88398701 -0.43047211 0.064402759
-0.049346585 -0.19150257 0.61480153 -0.74169707 0.075269707 -0.66649818 0.0048706476
0.0056981822 -0.22483853 0.56801778 -0.02717782 -0.0095951986 -0.99958456 0.061631668
0.13078082 -0.12005618 0.69690728 0.48766214 0.86682326 -0.10393777 0.058226567
-0.11706586 -0.123731 0.72966903 -0.71949661 0.68308479 0.12537855 0.093669333
0.078884847 -0.11820144 0.69037968 0.13944158 0.98341501 -0.11597843 0.021629931
-0.0071733003 -0.14399923 0.57001239 -0.32043484 0.38305742 -0.86636519 0.10519225
0.0027568033 -0.11646248 0.75243878 -0.011081569 0.99992949 0.0042535434 0.0019640746
0.064069577 -0.11760325 0.71152115 0.056507718 0.99833643 -0.0114576 0.0030903616
0.076157898 -0.11793649 0.69780588 0.12931475 0.98816127 -0.082553044 0.018295014
-0.036731631 -0.11733948 0.80882114 -0.32465437 0.89510697 0.3055864 0.065712519
0.12755606 -0.12042069 0.7069639 0.47270897 0.87976426 -0.050607853 0.055825651
0.016454862 -0.11597756 0.7966159 0.02660062 0.98281646 0.18265872 0.026997436
-0.1129347 -0.12213849 0.73460412 -0.66695279 0.7263549 0.16608006 0.092116997
-0.11146054 -0.12160207 0.73306978 -0.63395435 0.76157773 0.13454098 0.090043105
-0.062593371 -0.11800182 0.71161896 -0.18598236 0.980829 -0.058180906 0.029841399
-0.01553022 -0.11948052 0.66709816 -0.15530832 0.97184616 -0.17718455 0.034393955
-0.081310444 -0.11858927 0.76990062 -0.40733641 0.83582073 0.36807707 0.084380344
-0.024952814 -0.33057719 0.58403772 -0.54953533 -0.0087974155 -0.83542424 0.026523685
-0.046815917 -0.21021293 0.61298102 -0.71306926 0.02460527 -0.70066172 0.0055903122
-0.054396797 -0.11969833 0.79676872 -0.37297723 0.84745264 0.37777254 0.078135639
-0.13518146 -0.19126965 0.7243588 -0.98700672 0.10792214 0.11903995 0.074462831
-0.13039784 -0.21453772 0.71750784 -0.99073279 -0.0069306837 -0.13564809 0.073578633
0.10450758 -0.11806843 0.72015887 0.31726161 0.94823545 0.013949292 0.042865258
-0.12558818 -0.1306524 0.72124308 -0.82555622 0.561795 0.053322516 0.091319226
-0.037010562 -0.41754499 0.59370196 -0.65679038 -0.037413213 -0.7531445 0.0067255469
-0.028400324 -0.42331409 0.58571166 -0.55012023 -0.05153859 -0.83349359 0.042040374
-0.086110689 -0.21768068 0.65539122 -0.76993841 0.035793267 -0.63711357 0.0005930317
0.020432457 -0.12106781 0.84698564 0.10145303 0.76252049 0.63896 0.11539799
0.054508116 -0.11736891 0.7501294 0.088582978 0.99537784 0.037095524 0.010122758
-0.013337554 -0.12154558 0.83012521 -0.19949643 0.86815721 0.45442739 0.086746983
-0.068131566 -0.11964424 0.6900304 -0.25588757 0.94102007 -0.22136582 0.039554201
-0.061864994 -0.12218265 0.78898567 -0.36760542 0.845761 0.38672304 0.084332108
-0.12435647 -0.29226762 0.70047355 -0.9314056 0.012672739 -0.36376226 0.041816369
-0.13420682 -0.19333635 0.73067409 -0.96749043 0.086462833 0.2376685 0.073405549
-0.10961722 -0.1228442 0.74492729 -0.63847458 0.71426439 0.28666461 0.090600222
-0.072665714 -0.11802372 0.77643579 -0.34964693 0.85409814 0.38504991 0.08731097
-0.096640669 -0.12803537 0.68225986 -0.5770942 0.72931093 -0.36751583 0.066545486
-0.12787755 -0.28311628 0.73083925 -0.98840886 -0.090700336 0.12174325 0.054869279
-0.12304855 -0.29484603 0.69725472 -0.92209828 0.021715211 -0.3863461 0.039175473
-0.13537337 -0.1852541 0.72043186 -0.98952913 0.14433208 0.00052626361 0.07491567
-0.044122487 -0.40822825 0.82023346 -0.63218445 -0.0061786412 0.77479333 0.0014336434
-0.12610056 -0.28603265 0.70741385 -0.97276902 -0.012203761 -0.231455 0.060938284
-0.11086769 -0.12277131 0.74105483 -0.65318972 0.71853238 0.23886089 0.092426561
-0.051513661 -0.25452012 0.80790985 -0.67034125 0.020661784 0.74176532 0.00013817746
-0.084948756 -0.17026274 0.65734613 -0.77179372 0.25913438 -0.5806753 0.040035795
-0.073849805 -0.24802808 0.63988072 -0.75251204 0.027429208 -0.65800697 0.00016276033
-0.12740515 -0.21520382 0.71261734 -0.97286004 -0.00084597117 -0.23139307 0.06675747
-0.13404721 -0.23430845 0.72052497 -0.99528259 -0.059887044 -0.07632944 0.061499715
-0.080274783 -0.15777466 0.65241903 -0.75366676 0.34849694 -0.55725783 0.052521251
-0.041605193 -0.40615159 0.59929436 -0.65690917 -0.025173873 -0.75354928 0.0062149013
-0.080352053 -0.24929193 0.64701647 -0.75411844 0.029478736 -0.65607655 0.00029971043
-0.064379171 -0.27948895 0.79706734 -0.67624646 0.031660415 0.7359947 0.0002276657
-0.087591313 -0.30316249 0.6537708 -0.77008319 0.031128386 -0.63718349 0.0011502323
-0.13417593 -0.22645104 0.72256845 -0.99879169 -0.034568205 0.034930412 0.054511216
-0.085169762 -0.13541134 0.66403234 -0.58746821 0.64337361 -0.49086803 0.062220085
-0.12816738 -0.31136492 0.70642602 -0.96082669 0.021447962 -0.27631858 0.061283283
-0.069838181 -0.36124831 0.797261 -0.6621024 0.029408513 0.74883616 0.00036272316
-0.07981398 -0.16441588 0.65192097 -0.76045656 0.30428067 -0.57368898 0.048822995
-0.13438015 -0.17026953 0.72883552 -0.95235002 0.23220448 0.1977634 0.0681464
-0.088536352 -0.28683773 0.77573264 -0.74844009 -0.0015650478 0.66320056 0.0084654912
-0.13364021 -0.23744364 0.72233331 -0.99813789 -0.059621524 -0.012885294 0.055861805
-0.0293057 -0.28737977 0.830019 -0.59886605 0.022925328 0.80052108 0.0076129893
0.0019098152 -0.13226128 0.85040241 -0.17846784 0.57032108 0.80179989 0.1267405
-0.07584478 -0.12905072 0.77943224 -0.45070848 0.74163133 0.49683473 0.094015025
-0.13524757 -0.15320574 0.72356933 -0.94012225 0.34079114 -0.0056048539 0.076795846
-0.060474869 -0.11845848 0.78426057 -0.34851804 0.85997546 0.3727968 0.087522
0.02162319 -0.12088138 0.61368513 0.046959661 0.94877422 -0.31244564 0.050675202
0.0032323308 -0.1896698 0.85296994 -0.30198854 0.077945381 0.95011967 0.035892345
-0.047373392 -0.40274876 0.81675982 -0.64727086 0.014284288 0.76212627 0.00033545855
-0.11884807 -0.22366007 0.74587327 -0.91601652 0.01605727 0.40081918 0.05551973
0.0047065448 -0.13261491 0.85285091 -0.11129473 0.56807065 0.81541967 0.12636554
-0.12839995 -0.18251246 0.73878384 -0.93348944 0.15335655 0.32415929 0.063006893
-0.12693746 -0.14525187 0.73095649 -0.88335681 0.43351766 0.17816631 0.090066321
-0.074279942 -0.11854241 0.77537704 -0.38523659 0.82679719 0.40987715 0.090046957
-0.13106528 -0.23378855 0.73312438 -0.98579997 -0.035085708 0.1642174 0.056788355
-0.1347376 -0.1892527 0.73284876 -0.95433271 0.11709964 0.27483949 0.065957725
0.00099968945 -0.18666542 0.85210216 -0.33590919 0.080703691 0.93843055 0.037590288
0.0033697218 -0.26557332 0.85814017 -0.30465105 0.028942572 0.95202422 0.051962759
-0.00092662242 -0.34998769 0.85357243 -0.34581485 -0.050096944 0.93696451 0.044416811
-0.0082004927 -0.14337263 0.84508908 -0.38533002 0.40451339 0.82939118 0.10662039
-0.13273968 -0.18210134 0.73301351 -0.94414264 0.16293335 0.2864393 0.064686246
0.010357594 -0.24899526 0.86217421 -0.23307496 0.052517388 0.97103959 0.053676058
-0.013100951 -0.15511227 0.83997351 -0.45341173 0.31523341 0.8336941 0.085431151
-0.12359285 -0.22732522 0.7418775 -0.94718248 -0.0071744202 0.3206149 0.055308741
-0.022891091 -0.39038593 0.83879024 -0.54385906 -0.034504481 0.83846688 0.017458066
-0.024675326 -0.21337125 0.83304876 -0.54074687 0.03451005 0.84047723 0.016615905
0.017450737 -0.3869856 0.86797214 -0.19042197 -0.11828094 0.97455066 0.072613306
-0.11139882 -0.41816169 0.76413393 -0.86339331 0.037053749 0.50316888 0.041880328
-0.10874001 -0.38695732 0.7641803 -0.85573089 0.045007646 0.5154599 0.030311693
0.0187613 -0.29929307 0.86618549 -0.042587578 0.013084301 0.99900705 0.06556844
0.019009603 -0.34266067 0.86451948 -0.060428288 -0.045505628 0.9971348 0.058358371
0.019533591 -0.33396539 0.86482948 -0.093053795 -0.025367105 0.99533784 0.067845225
-0.11146427 -0.42101923 0.76465678 -0.86389631 0.063777044 0.49961558 0.045385364
-0.13322891 -0.40709609 0.7253077 -0.97274727 -0.12685446 0.19408968 0.05840975
-0.0093168207 -0.13127092 0.84098619 -0.29641047 0.65550995 0.69458443 0.10797519
-0.13175549 -0.2245383 0.73274088 -0.98925453 -0.019824473 0.14485359 0.058096889
-0.096597672 -0.14122333 0.76241279 -0.66589743 0.57670969 0.47327226 0.080379829
0.020213122 -0.25800425 0.86494577 -0.083141021 0.041978903 0.99565327 0.054931987
-0.049292993 -0.42179129 0.81589717 -0.651586 0.015597833 0.75841439 0.00021872448
0.014572597 -0.25805601 0.86304486 -0.16099212 0.032990407 0.98640412 0.048115056
-0.12576668 -0.24048126 0.73833674 -0.97498888 -0.050244499 0.21649991 0.055219796
-0.12988122 -0.19580938 0.73980248 -0.9219116 0.072997212 0.38046083 0.062634125
-0.11401904 -0.39053807 0.75946862 -0.88301885 0.033785649 0.46811995 0.039835915
0.020775698 -0.29415333 0.86718571 -0.014293575 0.022967722 0.99963403 0.061271735
0.020766575 -0.17810714 0.86248493 0.063087985 0.11460392 0.99140596 0.044745442
-0.027200017 -0.28819895 0.8328824 -0.5930506 0.022685338 0.80484551 0.0086850235
0.011726218 -0.29969099 0.86280525 -0.14789726 -0.0049889358 0.98899013 0.066000253
0.017750895 -0.38233584 0.8677302 -0.19073763 -0.12459198 0.97370225 0.066830792
-0.13507016 -0.15102437 0.72416407 -0.92425138 0.37715051 0.059302691 0.081462756
0.011053314 -0.33970544 0.86231387 -0.28358865 -0.036559947 0.95824879 0.049425296
0.047599494 -0.11917158 0.82394624 0.21597973 0.89190722 0.3973088 0.072758816
0.021541225 -0.30244759 0.86741269 0.02082289 0.0156154 0.99966121 0.061785012
0.061877079 -0.11930141 0.64711511 0.19428203 0.95521122 -0.22321759 0.046011958
0.016239176 -0.1462813 0.85876435 -0.01961467 0.43344262 0.90096772 0.1242654
-0.12992623 -0.13454455 0.73174936 -0.83956498 0.5061087 0.19744501 0.08518599
0.02505319 -0.12305043 0.85384202 0.11560109 0.69730055 0.70739543 0.11988618
0.025138091 -0.14670202 0.86163193 0.12165143 0.3991785 0.90876698 0.11991856
0.015779829 -0.19410895 0.86073917 0.053057805 0.056237105 0.99700671 0.039235566
0.018031141 -0.12929349 0.85732424 0.065665133 0.59564543 0.80055892 0.12490512
0.027472934 -0.12327855 0.85720229 0.1548643 0.645293 0.74807352 0.11999069
0.0076512964 -0.29333687 0.86036646 -0.19236432 0.026087541 0.98097676 0.060715098
0.023908913 -0.283198 0.86676884 -0.057975661 0.028886771 0.99790001 0.057403881
-0.010612774 -0.11945591 0.66820717 -0.10659753 0.98544675 -0.1324075 0.018832931
0.012241877 -0.12626113 0.58422357 -0.0022274512 0.7528255 -0.65821636 0.114773
0.11092029 -0.12219103 0.75430769 0.4267053 0.87843394 0.21511929 0.062390372
0.073418766 -0.11986822 0.80377209 0.40030795 0.85490638 0.32998261 0.055389252
-0.034413099 -0.35823801 0.82866377 -0.60778093 0.019013043 0.79387707 0.0021402198
-0.022091758 -0.2835097 0.83681083 -0.56889558 0.030678449 0.82183737 0.013192276
0.019342618 -0.24530713 0.86255533 0.067643866 0.061700147 0.99579984 0.070206508
0.021261532 -0.12959093 0.86081445 0.092725813 0.55978876 0.82343102 0.11984658
0.010798206 -0.25581673 0.86223465 -0.24939568 0.037338976 0.96768153 0.050696399
0.0219806 -0.39806962 0.86718023 -0.18910389 -0.11869039 0.97475761 0.07528495
0.059430301 -0.16854173 0.83735579 0.62750161 0.19196212 0.75458086 0.056155983
0.021061357 -0.1254317 0.85849929 0.10232205 0.61371958 0.78286558 0.11801106
-0.11865547 -0.12472758 0.73347902 -0.7422877 0.64927477 0.16568403 0.086920552
-0.12869158 -0.24625413 0.73668915 -0.97728926 -0.06421221 0.20194729 0.050629877
0.054953437 -0.12436951 0.8309626 0.3026334 0.8304894 0.46765414 0.089652069
-0.050609536 -0.11713217 0.78755265 -0.31495965 0.89781672 0.30777517 0.078279123
-0.098983116 -0.11870144 0.73575813 -0.51905632 0.84349722 0.13817692 0.089965805
-0.070309423 -0.11905935 0.6952076 -0.25596324 0.94849014 -0.18668008 0.036525708
-0.084327221 -0.15771711 0.77675843 -0.64193767 0.36271396 0.67554021 0.056099605
0.045681983 -0.11679758 0.83054763 0.20179135 0.88166744 0.42654765 0.07962776
0.0024687382 -0.11512783 0.84201109 -0.0079694893 0.8652125 0.50134206 0.10412818
0.019403005 -0.11926932 0.65952271 0.032693461 0.99392539 -0.10508762 0.0086452458
0.10625093 -0.12285297 0.76914626 0.44725442 0.85255665 0.27038977 0.066735148
0.025920078 -0.13620666 0.85809433 0.16826248 0.52368236 0.83513147 0.12211112
-0.019080419 -0.13029526 0.82948595 -0.36074188 0.72081888 0.59184921 0.083520189
0.010272122 -0.35632631 0.86483574 -0.1497667 -0.094852932 0.98416102 0.055544712
0.0423747 -0.11669327 0.77907246 0.094481543 0.99128336 0.09181799 0.014996865
0.080544114 -0.12116084 0.80307126 0.45186049 0.81190133 0.36964625 0.074764177
0.0086114584 -0.12641372 0.57840514 -0.03326378 0.70340693 -0.71000856 0.11780157
0.033714466 -0.11666219 0.77787542 0.066866376 0.99460793 0.079271808 0.0098634418
0.042229313 -0.117536 0.69988519 0.015196805 0.99934596 -0.032813448 0.00050862372
0.049836658 -0.11797647 0.68226665 0.054676097 0.99511582 -0.082188793 0.0083092144
0.01714202 -0.26582792 0.86483788 -0.17576492 0.042219799 0.98352641 0.047988329
0.0011067429 -0.1178616 0.69014555 -0.010619707 0.99908322 -0.041470841 0.00028425269
0.022070266 -0.35144049 0.86585939 -0.0047457875 -0.076480322 0.99705982 0.060562011
0.011404136 -0.32358426 0.86300611 -0.21456803 0.0045288452 0.97669858 0.052445982
-0.13309765 -0.40307158 0.72957695 -0.97318757 -0.10934043 0.20236284 0.053845897
