# .PCD v0.7 - Point Cloud Data file format
VERSION 0.7
FIELDS x y z
SIZE 4 4 4
TYPE F F F
COUNT 1 1 1
WIDTH 1406
HEIGHT 1
VIEWPOINT 0 0 0 1 0 0 0
POINTS 1406
DATA ascii
-0.01746757 -0.153184 0.57666862
-0.044595391 -0.1170351 0.61949188
-0.0048131938 -0.1198524 0.59977251
-0.05701172 -0.39235979 0.61396801
-0.1294636 -0.38210571 0.70040357
-0.06771338 -0.39630249 0.62259603
-0.078659117 -0.2198967 0.64650577
-0.088668533 -0.34585109 0.77376902
-0.075829573 -0.360396 0.78934342
-0.061014529 -0.2475013 0.80042893
-0.043744739 -0.1784253 0.80679709
-0.060954329 -0.374428 0.80185318
0.043991089 -0.1158817 0.77594548
-0.077136748 -0.24394961 0.63363791
-0.07513535 -0.30314219 0.63458991
-0.054292079 -0.29237419 0.61105913
-0.05466938 -0.2198834 0.79962021
-0.01185894 -0.13752121 0.57225698
-0.03467375 -0.1184683 0.72899348
-0.001660645 -0.1191548 0.66003299
-0.1213192 -0.29054111 0.74033052
-0.1323958 -0.3258248 0.70349288
-0.03350997 -0.41557691 0.81746411
-0.01597744 -0.2306376 0.57069421
-0.05422616 -0.25540179 0.61915118
-0.06481725 -0.15968069 0.63825297
-0.046260741 -0.1158716 0.79414922
-0.089450806 -0.2374447 0.65528482
-0.005484432 -0.1216061 0.56113732
-0.079696417 -0.34092391 0.78323323
-0.091524117 -0.3170321 0.65864772
-0.041767001 -0.41200751 0.81905049
-0.0089224866 -0.21919221 0.56286162
-0.0094758272 -0.37273911 0.56972748
-0.0051386948 -0.26864961 0.55647391
-0.067764618 -0.2400509 0.62898213
-0.1146972 -0.28732371 0.68410921
-0.1010611 -0.3700504 0.66564739
-0.068870962 -0.3664065 0.62889791
0.0098900786 -0.354974 0.55385667
-0.03369214 -0.119236 0.62304288
-0.1169252 -0.32411039 0.68322861
-0.02957928 -0.30869409 0.58604783
-0.088285454 -0.35959011 0.64607972
-0.01662131 -0.1997239 0.57282841
-0.047293521 -0.1884194 0.60852498
-0.0273537 -0.2264999 0.5790484
-0.1073952 -0.29050559 0.66816401
-0.03093213 -0.41923049 0.58671951
-0.01092672 -0.1450782 0.56315643
0.1364516 -0.1180823 0.69423091
-0.062910557 -0.1165933 0.78987288
0.01938254 -0.1174372 0.69549543
-0.063765287 -0.2822046 0.79591769
-0.001713455 -0.1146252 0.77032721
0.01518691 -0.1144457 0.85012883
-0.13106211 -0.23738711 0.73292392
-0.1275088 -0.29027721 0.73287249
-0.074745357 -0.28211251 0.7838819
0.1125953 -0.1197547 0.69282258
0.099322744 -0.1164705 0.73124021
-0.14157189 -0.28164399 0.72865969
-0.1249829 -0.2440969 0.73797131
-0.1053982 -0.28668299 0.75848401
-0.1135099 -0.26638651 0.74967039
-0.093061693 -0.28451249 0.77105248
-0.080093034 -0.3032425 0.78124589
-0.05989778 -0.34450909 0.62324822
0.1156097 -0.1294136 0.6750406
-0.1378746 -0.2954711 0.70682311
-0.054462701 -0.1691459 0.62149388
0.071598053 -0.1163415 0.69192177
-0.079815634 -0.2949101 0.77368712
0.03885543 -0.1194627 0.61773503
-0.025511529 -0.34492019 0.58238357
0.006665051 -0.2298737 0.86055768
-0.14480861 -0.23048221 0.71801072
-0.14244211 -0.2307165 0.72084707
0.092930913 -0.1158883 0.72783148
-0.03640914 -0.185699 0.60199738
0.12903769 -0.1218183 0.70340002
-0.072518803 -0.2355614 0.63471538
-0.1179273 -0.28603691 0.68783623
-0.059736189 -0.1314773 0.79238611
-0.085308671 -0.1200301 0.76964748
-0.075646937 -0.271855 0.63192117
0.0034640429 -0.1966664 0.5529896
0.077063322 -0.1187294 0.69748062
-0.051289771 -0.1823561 0.6142512
-0.1421067 -0.23991939 0.72169918
-0.1217505 -0.32167789 0.68791687
-0.0091905594 -0.40786171 0.84690088
-0.027058421 -0.1131121 0.70420408
-0.01351929 -0.23854619 0.57124639
-0.1350138 -0.31020841 0.7037878
-0.071766198 -0.13825101 0.63978988
-0.049497541 -0.41894081 0.61141008
-0.02474636 -0.31481051 0.57509828
-0.1053356 -0.31000161 0.67272288
-0.064715028 -0.32732099 0.63161713
-0.01707715 -0.26360911 0.58609772
-0.02011025 -0.27886379 0.57416803
-0.06156224 -0.181936 0.6260587
0.083254129 -0.1182115 0.7630651
0.023751341 -0.1209546 0.57597268
-0.0002095103 -0.27139401 0.55823833
-0.032178491 -0.41599929 0.58715492
0.1001975 -0.1158581 0.69675368
-0.00065732002 -0.1929469 0.56421357
0.002103627 -0.27916521 0.55754179
0.1386998 -0.41301951 0.6594708
0.01951897 -0.1161953 0.64963078
0.0017931761 -0.3660503 0.55883598
0.01191705 -0.1629411 0.55795038
0.0586472 -0.3466841 0.59462762
-0.003495187 -0.118593 0.61402237
0.052866179 -0.1645572 0.58990782
0.01060975 -0.39080971 0.54892749
0.1398575 -0.41915989 0.66171432
0.121731 -0.19757719 0.6610682
0.01944901 -0.34295061 0.56302238
0.076516487 -0.17373221 0.61614043
0.03804338 -0.3328205 0.57856202
0.040191021 -0.14968079 0.59045953
0.037851021 -0.35773319 0.57644111
0.16667859 -0.41944981 0.69139582
0.02197339 -0.2068937 0.56882912
0.045457602 -0.1456293 0.5902347
0.042170521 -0.39205381 0.57699138
-0.002690732 -0.26138261 0.5600841
0.08319217 -0.3705954 0.62034649
0.063102514 -0.25904199 0.60390741
0.077755027 -0.31789061 0.61367822
0.05640009 -0.128856 0.59662682
0.065438092 -0.32605919 0.6026808
0.1173788 -0.3557514 0.64943129
0.1023274 -0.157611 0.63833129
-0.0001636446 -0.21048249 0.5585928
0.025531771 -0.1241807 0.57029408
0.01719174 -0.284026 0.56441432
0.02222061 -0.32465181 0.56430101
-0.02750859 -0.4202345 0.58036321
0.059688762 -0.14532851 0.59916991
0.055767119 -0.31783649 0.59598899
0.064716652 -0.1206051 0.61017472
0.062688649 -0.37964651 0.59031337
0.061140601 -0.220458 0.60230148
0.017390219 -0.39623311 0.55082232
0.062172819 -0.33742559 0.59680998
0.13013551 -0.33406031 0.65675062
0.074503988 -0.1572163 0.61960882
0.064917237 -0.14079989 0.6136663
0.053746101 -0.28980151 0.59307748
0.020537989 -0.17967141 0.56938022
0.05239981 -0.116065 0.67459291
0.1158464 -0.2495442 0.64976197
0.05942297 -0.15590531 0.59955841
0.0088125169 -0.15655559 0.55339289
0.049246021 -0.1704554 0.59059203
0.062433179 -0.22721121 0.596214
0.01831397 -0.22547591 0.58087772
-0.0032045839 -0.3078056 0.5565623
0.050125301 -0.2004512 0.59497958
-0.0022012589 -0.2903659 0.55733168
0.13950621 -0.332353 0.66615891
0.078070611 -0.40869731 0.60080397
0.04332551 -0.15711381 0.59125012
0.088373318 -0.1176214 0.63849831
0.1175738 -0.35847801 0.64482337
0.078997821 -0.2021829 0.61429232
0.1297607 -0.1507578 0.66271323
0.01007625 -0.18720829 0.56460178
0.032136139 -0.34407839 0.57152981
0.076485664 -0.38476631 0.61186278
0.028171539 -0.37018031 0.56876922
0.006138504 -0.4245539 0.56279612
0.02756482 -0.3059262 0.56977761
0.03118578 -0.23013569 0.57717133
0.097831704 -0.4088513 0.62208128
0.1339602 -0.2240252 0.67191678
0.1243906 -0.40270811 0.65333289
0.1460488 -0.40103421 0.66974229
0.03300849 -0.25196329 0.57861632
0.075345322 -0.27691349 0.61393148
0.15984119 -0.3954187 0.67287892
0.052449629 -0.2135063 0.5953846
0.1461933 -0.3117235 0.6687609
0.1521509 -0.36605191 0.67923468
0.062959373 -0.14983919 0.59942538
0.091185153 -0.34962639 0.62411189
0.042923719 -0.31495699 0.58559352
0.05220357 -0.41102919 0.58332157
0.084335543 -0.1969378 0.6276086
0.04553755 -0.13810471 0.59220272
0.15715951 -0.3808215 0.68305391
0.1209987 -0.34395239 0.65243459
0.079688579 -0.3135452 0.6151107
0.1050237 -0.35596329 0.63016587
0.1683647 -0.36039329 0.69898403
0.1177769 -0.35353321 0.66691989
0.1440835 -0.290104 0.6679889
0.1251 -0.14169469 0.66180182
0.049137741 -0.1170306 0.6143142
0.05384329 -0.1206442 0.60165018
0.046657931 -0.1217408 0.59127659
0.093174741 -0.1323141 0.61848521
0.1539866 -0.25580689 0.68838829
0.0037662389 -0.41853881 0.55767769
-0.07322371 -0.1161147 0.77640659
0.087628476 -0.212218 0.62165731
0.10362 -0.3996107 0.62025458
0.072831169 -0.1343067 0.60933381
0.121782 -0.28977051 0.66216332
0.15458921 -0.27703229 0.69068938
0.061955709 -0.29643849 0.60165209
0.01474491 -0.1947723 0.56120342
0.031146379 -0.31285861 0.56930482
0.150712 -0.39947221 0.6765815
0.107038 -0.1822848 0.64576238
0.029078539 -0.35725611 0.56958997
0.068989567 -0.1757254 0.61144602
0.023365561 -0.22775009 0.57547992
0.1486184 -0.42185581 0.66174972
0.1229738 -0.32537559 0.64795017
0.1113707 -0.34759489 0.64015943
-0.55420882 -0.57242721 1.105415
0.1567643 -0.3902058 0.68095958
0.033131089 -0.28211451 0.58016121
0.069932617 -0.38709861 0.60425341
0.097540893 -0.35576469 0.63153791
0.120522 -0.162901 0.65575069
0.082387634 -0.39791009 0.61438012
0.037144881 -0.3965064 0.57667023
0.076732457 -0.1704286 0.6144889
0.1056035 -0.2065668 0.64199811
0.027143721 -0.14015549 0.57719791
0.1451897 -0.1678042 0.67605752
0.16646209 -0.33456951 0.68975699
0.066210583 -0.36039031 0.5970068
0.083671018 -0.1447318 0.6193288
0.079688847 -0.3535473 0.60791248
0.067637503 -0.3481178 0.60796481
0.16217209 -0.2208218 0.68611729
0.162626 -0.27609271 0.68734813
0.05374917 -0.1807785 0.59657371
0.1102399 -0.3625856 0.63661432
0.036486939 -0.36315101 0.57340908
0.1441049 -0.2297782 0.66680342
0.1021117 -0.1620992 0.64058429
0.064737558 -0.1158515 0.64730328
0.064371929 -0.2174001 0.61749637
0.076069891 -0.2420719 0.61770761
0.1100251 -0.29842281 0.64512128
0.061209772 -0.38430771 0.60013241
-0.02269244 -0.1128789 0.67997468
-0.071766347 -0.1171186 0.70210779
-0.087956637 -0.1185928 0.74660182
-0.05489647 -0.1137894 0.70054698
-0.0114612 -0.1153771 0.68955618
0.017954599 -0.30500409 0.56158102
0.01019475 -0.38610429 0.54927021
0.001512378 -0.15396731 0.55517173
0.05758753 -0.4013426 0.57838559
0.1409691 -0.32516289 0.66473871
0.13570011 -0.20221689 0.67263198
0.097964063 -0.1907604 0.6414488
0.068249322 -0.16332839 0.61575693
-0.01914902 -0.1125969 0.76626122
0.076021492 -0.26745859 0.61391509
0.1040986 -0.1753145 0.63580942
0.048432872 -0.24000859 0.59381533
0.1232901 -0.2724818 0.65920669
0.019352291 -0.2135306 0.56448603
0.004200459 -0.32303539 0.5568738
0.065950483 -0.1870842 0.60808402
0.024341639 -0.18722311 0.56670642
-0.1312228 -0.40725279 0.68481928
-0.043598529 -0.1114679 0.7324695
0.0035218 -0.1850705 0.55340511
0.02912079 -0.33772331 0.55963832
-0.57556832 -0.56792021 1.09246
0.016765529 -0.29861739 0.55249751
0.021672839 -0.3119202 0.56620401
0.017206419 -0.30757689 0.56585163
0.01273537 -0.29480451 0.5535599
0.02557325 -0.33004871 0.56670338
-0.43194851 -0.46159089 0.8717134
-0.126413 -0.4059695 0.68443072
0.017461751 -0.28956449 0.56379402
0.0061204731 -0.22965661 0.55095088
0.0046691601 -0.1641112 0.55321121
-0.1228097 -0.4165214 0.67996198
-0.4860872 -0.47607511 0.86439449
-0.58779979 -0.4338268 1.007741
-0.04302692 -0.1218984 0.61227822
0.0065771942 -0.1202468 0.69400162
0.075166941 -0.1219883 0.62579387
-0.026016289 -0.30736271 0.58591729
0.082529657 -0.1185668 0.64077681
0.001024365 -0.1199425 0.67576408
-0.029767331 -0.2116202 0.59421462
-0.00094169378 -0.1349479 0.56328642
-0.049259961 -0.27711141 0.61623353
-0.1032105 -0.28387931 0.67367882
-0.1115691 -0.32241371 0.68194503
-0.0091091394 -0.14669549 0.56975287
-0.047029939 -0.17042559 0.61061138
-0.08264339 -0.33722159 0.64661431
-0.02069959 -0.28771761 0.57774937
-0.104346 -0.3217873 0.67514098
-0.041076899 -0.38024479 0.60556769
-0.0043336749 -0.29837391 0.56769723
-0.024874389 -0.26776519 0.58247709
-0.12647191 -0.23057739 0.70918107
-0.048921291 -0.27330789 0.62014681
-0.02038407 -0.138974 0.57648981
-0.007794023 -0.2357237 0.56803608
-0.04349697 -0.18022411 0.61255538
-0.01470613 -0.150295 0.5759365
-0.001147658 -0.1300585 0.56613982
-0.01094329 -0.1557294 0.56872392
-0.091421187 -0.3474986 0.6597445
0.086566813 -0.112301 0.64827478
-0.085192978 -0.27341321 0.65671152
-0.1336813 -0.2995691 0.71206778
-0.00714922 -0.1328842 0.56576759
-0.032601122 -0.1230255 0.71577132
-0.01327676 -0.1992479 0.57069927
-0.1098311 -0.28741479 0.69172412
-0.006032526 -0.1572583 0.56474221
-0.045020279 -0.1600395 0.6140939
-0.01676753 -0.1231871 0.61443162
-0.1030872 -0.3435013 0.67361659
-0.04393607 -0.319855 0.60453808
-0.1142621 -0.3257843 0.68599331
-0.046221908 -0.183836 0.61605269
0.032674432 -0.1184896 0.58093637
-0.039234638 -0.1188901 0.7285679
-0.01110268 -0.1220377 0.67061841
-0.1288259 -0.31589311 0.71026462
-0.01951802 -0.13211291 0.58202302
-0.1355734 -0.3009485 0.71545708
0.1016103 -0.117574 0.73089749
-0.083329856 -0.30948469 0.65008342
-0.094860792 -0.119072 0.73133022
-0.1210988 -0.2948285 0.6987412
-0.1052762 -0.3221966 0.67279422
-0.067092359 -0.2774297 0.63505572
-0.12825049 -0.2303087 0.71076077
0.047083318 -0.1190688 0.77658129
0.00045186281 -0.1223601 0.5600602
-0.0016198159 -0.2215165 0.56350821
0.1126265 -0.1194015 0.69046909
0.006706059 -0.3485027 0.56266248
-0.1033645 -0.1192377 0.72962219
0.05627289 -0.1165675 0.74951321
-0.022000881 -0.1236172 0.6239742
-0.070418358 -0.25378111 0.64065027
0.082878381 -0.1109696 0.79312593
-0.01246113 -0.1196882 0.681723
-0.1313408 -0.2108935 0.7131421
-0.02477509 -0.1110017 0.81686699
-0.092911176 -0.31750771 0.66113538
-0.029658729 -0.1191792 0.67480189
0.0080227852 -0.1160111 0.67178702
-0.06099784 -0.2428671 0.6291039
-0.02190965 -0.1158816 0.70892233
-0.004291594 -0.14632151 0.56234109
0.030456111 -0.1184265 0.63848889
0.00054842228 -0.27215171 0.55902392
0.002016783 -0.1199951 0.57633418
0.01517195 -0.120323 0.57109022
0.053837039 -0.1187038 0.61415893
0.022416919 -0.1224632 0.58720762
-0.05887479 -0.3005141 0.63247597
-0.0073734522 -0.1164081 0.83943921
-0.085646838 -0.1228411 0.76889658
-0.052161012 -0.1138442 0.7415998
0.1049985 -0.1177279 0.66461349
-0.018331319 -0.19456419 0.57055283
-0.114527 -0.1165805 0.73721009
-0.002364665 -0.1181827 0.66293138
-0.1031221 -0.29684919 0.67548788
-0.1321227 -0.2157404 0.71599883
0.01931745 -0.1146816 0.85257351
-0.038056079 -0.1113468 0.80716628
-0.060261071 -0.1181997 0.79228622
-0.084398933 -0.36339441 0.64908987
-0.044907272 -0.2982263 0.613702
0.1353437 -0.1179682 0.69181818
-0.06288904 -0.3706111 0.63003391
-0.1287947 -0.32704309 0.70394421
0.077565491 -0.1181253 0.69920588
0.02013981 -0.1162902 0.79918891
0.069944561 -0.1191892 0.66395128
-0.031241421 -0.3068814 0.58925509
-0.021811839 -0.2290239 0.5817827
-0.037410859 -0.1516719 0.60333979
-0.026647929 -0.1207574 0.60487062
0.038978249 -0.1194607 0.59871072
-0.057020899 -0.118876 0.7101
0.066533543 -0.1179316 0.71035922
-0.080635488 -0.1309876 0.77905101
-0.12718759 -0.21764681 0.73111612
-0.1425111 -0.28054029 0.72826302
-0.089847483 -0.29891729 0.66413271
-0.1126062 -0.1155577 0.71915162
-0.13196909 -0.2002458 0.73630148
0.0182105 -0.1206985 0.58900118
-0.078612767 -0.1183725 0.77811491
0.096347749 -0.1210426 0.70065957
0.01936781 -0.1150146 0.66824901
0.066981614 -0.1171322 0.70186269
-0.14356411 -0.22783589 0.72238702
0.069015197 -0.1201241 0.72286832
-0.038322631 -0.1154233 0.80010659
0.1131086 -0.1199727 0.70605707
0.037516449 -0.1164856 0.60435963
-0.01169553 -0.1190832 0.83645308
0.08011812 -0.1169499 0.79891717
0.04014409 -0.1174627 0.84487683
0.063467801 -0.1197436 0.66678733
0.031091901 -0.1185057 0.87060088
0.043845471 -0.1155195 0.68608958
0.040709559 -0.119229 0.85673052
0.072008222 -0.1187088 0.80470997
0.033381522 -0.1152809 0.85427588
-0.01942909 -0.1210604 0.62162793
0.12828919 -0.1163875 0.70065898
0.088112533 -0.1182105 0.63325882
0.1086303 -0.1142454 0.72511178
0.094919711 -0.2106162 0.79516423
-0.01067621 -0.1145211 0.76682132
0.1705509 -0.19841909 0.70772278
0.078681767 -0.1181116 0.6432544
0.1152698 -0.1230862 0.76775998
0.00055128342 -0.1161353 0.75476778
0.040433291 -0.1233893 0.85788918
0.1097555 -0.17536309 0.77766627
0.1039468 -0.2087125 0.78963768
0.081625879 -0.21144301 0.81841928
0.1071702 -0.1658318 0.77625167
0.1710842 -0.28025511 0.70055252
0.0609948 -0.1148222 0.7940917
0.037318472 -0.122173 0.65390098
0.092055142 -0.2287883 0.79988992
0.06078434 -0.2005178 0.83675277
0.1444615 -0.1942486 0.73921132
0.082935601 -0.1213087 0.80921263
0.060145382 -0.1706049 0.83732551
0.099401772 -0.1206281 0.79020619
0.121697 -0.18773431 0.76582438
0.088740528 -0.22605669 0.79782528
0.1041497 -0.1125741 0.75260538
0.1180782 -0.1184916 0.66840923
0.1203185 -0.1264457 0.76521319
0.095656604 -0.17241471 0.79434359
0.1584536 -0.1551816 0.72749949
0.051847879 -0.1851964 0.84886873
0.05271044 -0.1190694 0.75364482
0.01457793 -0.1178508 0.80050719
0.081021249 -0.1264953 0.80973589
0.1573475 -0.216199 0.7227897
-0.1320127 -0.1177086 0.72715622
0.058960412 -0.27640969 0.83754653
0.05567959 -0.1180576 0.71514797
0.168717 -0.14198761 0.70293683
0.067107923 -0.1184032 0.6903398
0.057702541 -0.124651 0.83309609
0.1157019 -0.36203021 0.77351791
0.048261609 -0.3917796 0.85466373
0.02119738 -0.4027299 0.87071621
0.1113073 -0.39905739 0.7792424
0.095036179 -0.36249009 0.79647952
0.044192731 -0.34419361 0.86162078
0.101844 -0.25486591 0.78311229
0.100139 -0.4204039 0.7876032
-0.018084969 -0.1121944 0.75434458
0.0041575432 -0.1169985 0.69358939
0.035715941 -0.1152803 0.76481098
0.13035659 -0.1162029 0.75075787
0.1046811 -0.2532551 0.77853882
0.1220328 -0.2239815 0.76806802
0.03879809 -0.1558473 0.85989982
0.095104307 -0.27927491 0.80318832
0.094023317 -0.2480233 0.79836071
0.085207701 -0.245233 0.81531399
0.063707948 -0.3976483 0.82847512
0.17120311 -0.30303031 0.70693308
0.1476922 -0.1256849 0.73481178
0.094639331 -0.26654091 0.80266839
0.062067568 -0.35042849 0.83682621
0.1669521 -0.25364721 0.70765787
0.1110047 -0.30525151 0.77812111
0.063410789 -0.3956759 0.8345921
0.149783 -0.4006215 0.73373431
0.063329853 -0.31286979 0.83510911
0.080761582 -0.248896 0.81561702
0.1705624 -0.1738587 0.70345712
0.1155513 -0.36034691 0.77624559
0.1719394 -0.25161049 0.70741892
0.133535 -0.3981944 0.75503987
0.096649833 -0.39486179 0.80053961
0.1216165 -0.1868009 0.76662838
0.1337676 -0.34199339 0.75853223
0.1721613 -0.20323069 0.70578098
0.1737839 -0.3108725 0.70264637
0.15084431 -0.2376487 0.73123211
0.070194721 -0.1200119 0.8221029
0.098334163 -0.36045009 0.79605651
0.1094203 -0.20754001 0.78279978
0.1341662 -0.36376151 0.75719053
0.045802619 -0.34696731 0.85695541
0.094119489 -0.39843619 0.80131078
0.14696661 -0.123699 0.73311418
0.1466839 -0.33507529 0.73690218
0.1082012 -0.28233841 0.77919543
0.1482816 -0.3244231 0.73837543
0.1060086 -0.37937179 0.78818017
0.02523404 -0.19287349 0.8716653
0.1093304 -0.1146409 0.69120091
0.1004592 -0.1229238 0.79105937
0.1661372 -0.27565941 0.71759403
0.120135 -0.1470969 0.77148843
0.057857811 -0.1319968 0.83436382
0.1087106 -0.27846351 0.78180861
0.1689495 -0.3498354 0.70595562
0.171352 -0.40789989 0.70431697
0.049829692 -0.1197049 0.84672242
0.032479759 -0.42420709 0.86950529
0.08204475 -0.2811341 0.81100142
0.02775747 -0.2186318 0.87095511
0.066478372 -0.13491461 0.82537907
0.1285641 -0.4162868 0.75653899
0.044963211 -0.1499964 0.85414922
0.14233559 -0.2207436 0.74415082
0.030511471 -0.19994131 0.86859602
0.1277588 -0.261926 0.76102322
0.033512149 -0.42044589 0.85965967
0.039928969 -0.2351124 0.86100948
0.036106531 -0.16684771 0.86628211
0.15589631 -0.2238158 0.72390193
0.060802609 -0.25863019 0.83841437
0.065871507 -0.13142981 0.83285952
0.036180079 -0.1826525 0.86349881
0.1167051 -0.2336264 0.77799779
0.083608776 -0.2209193 0.81125438
0.1118137 -0.2665931 0.77653599
0.030350801 -0.17488819 0.87239712
0.065247543 -0.1423689 0.83290273
0.105201 -0.1214823 0.78087378
0.1409872 -0.38764119 0.74529523
0.1299645 -0.23899961 0.76348579
0.1111711 -0.1302861 0.77858847
0.057962209 -0.40512511 0.84538978
0.04689962 -0.36295 0.85740751
-0.099283643 -0.1149582 0.73039579
-0.0420506 -0.1142617 0.79897249
-0.02109039 -0.1170918 0.81915021
0.1095881 -0.1189376 0.69838709
0.063168228 -0.1170494 0.70594901
0.04014552 -0.1148077 0.70678759
0.14656261 -0.26201841 0.74108231
0.1697268 -0.30180901 0.71122563
0.1498777 -0.32759389 0.73615539
0.046283539 -0.14349189 0.84659529
0.15737461 -0.2168819 0.7209419
0.07100457 -0.2074755 0.82178879
0.1067113 -0.16941971 0.78230321
-0.45514989 -0.42647189 0.69796479
0.041539911 -0.41041541 0.85922557
0.16039491 -0.1283026 0.72106779
0.1374663 -0.15055799 0.74869019
0.1740993 -0.2511805 0.69793099
0.082267821 -0.2114031 0.8082549
0.1072533 -0.1922259 0.78057212
0.099284589 -0.19323041 0.79187918
0.073789783 -0.21973871 0.82388997
-0.1095949 -0.118038 0.70834482
-0.29678991 -0.42211509 0.86765981
0.02253917 -0.40771821 0.87461019
-0.0300253 -0.1162539 0.71941608
0.1302906 -0.1193331 0.75647002
0.1555739 -0.1788349 0.72400612
-0.1147204 -0.1194505 0.7358278
0.13593701 -0.16621441 0.74397892
0.1231576 -0.26270309 0.76040548
0.1120624 -0.40286949 0.77440208
0.122849 -0.14826269 0.76796222
0.1337682 -0.1199893 0.75144279
0.1585111 -0.28118601 0.72674322
0.17116991 -0.31848061 0.70820159
0.16316161 -0.38470861 0.71418363
0.06700632 -0.1586246 0.83229589
0.09449929 -0.1835368 0.79201138
0.1010258 -0.27759829 0.79026508
0.1727021 -0.2932702 0.70215809
0.13822749 -0.4127478 0.74912977
0.094612688 -0.186713 0.7965588
0.044906821 -0.1667951 0.85336071
0.054580629 -0.1886549 0.84476978
-0.1040477 -0.1180032 0.68824559
0.078101367 -0.223488 0.81782663
-0.02051622 -0.1131705 0.8007375
-0.090257697 -0.1206307 0.69200009
-0.098913252 -0.1191002 0.71059197
-0.1024385 -0.1114564 0.73323488
0.0079318276 -0.1175741 0.84482032
0.025485629 -0.3534582 0.86929768
-0.32442191 -0.42292401 0.84134167
0.02693403 -0.3539933 0.87071508
0.01122838 -0.1194823 0.70337522
0.048580941 -0.1171897 0.71712267
0.038047079 -0.1172911 0.74194539
-0.02869999 -0.1159673 0.66408008
0.099416643 -0.1208148 0.6906184
0.057253119 -0.1186116 0.69954443
0.052228391 -0.1134269 0.75750393
0.02979115 -0.11764 0.58344072
0.14340609 -0.113688 0.69636732
0.03983504 -0.1171107 0.81630898
0.050817009 -0.1186758 0.83611602
0.040144291 -0.1162457 0.79687363
0.050489459 -0.1187513 0.77548939
0.061949071 -0.1479329 0.83548808
0.1715104 -0.13697749 0.70977998
0.14486019 -0.2576229 0.74274462
0.0500747 -0.1187209 0.79637468
0.16782659 -0.28357089 0.70375383
0.16837309 -0.37684631 0.70907432
0.117826 -0.119383 0.73449707
0.039963659 -0.1097617 0.83682913
0.048914429 -0.22693139 0.84627122
0.073111333 -0.1218123 0.78197229
0.1571615 -0.15623491 0.72731477
0.1239989 -0.2070902 0.7568866
0.1439385 -0.202712 0.73820329
0.1033144 -0.33616871 0.7898016
-0.073983282 -0.1189248 0.67336792
0.05272216 -0.1172807 0.74523681
-0.021604421 -0.1186601 0.71275407
0.041593131 -0.18064401 0.85843891
0.02771014 -0.1170222 0.61823303
0.05424881 -0.1332881 0.84596157
0.043725371 -0.1356131 0.85335922
0.02912879 -0.42504439 0.86876208
0.033031762 -0.25222969 0.8685621
0.057991419 -0.1704302 0.83912992
0.1669919 -0.3507044 0.70105839
0.1677015 -0.35761261 0.70420778
0.1599974 -0.25249609 0.7203759
0.043489661 -0.1414939 0.85319418
0.059318841 -0.26081151 0.84726912
0.044522788 -0.19148239 0.8532151
0.1740582 -0.19607981 0.70039898
0.080395818 -0.31697831 0.81137693
0.072771966 -0.26187861 0.82906348
0.05405527 -0.2076776 0.84484702
0.055143271 -0.33868769 0.84690279
0.01441157 -0.115361 0.72202581
0.02334768 -0.24608959 0.87149441
0.042629931 -0.1596203 0.85982817
0.04784796 -0.2400202 0.86362159
0.142952 -0.4030495 0.74687088
0.16655099 -0.41397041 0.71513802
-0.034867048 -0.1141844 0.77781558
-0.074791104 -0.1190217 0.68660891
-0.03339079 -0.1144831 0.72728658
-0.0080720186 -0.1157105 0.79335457
0.04588842 -0.1197469 0.8222726
-0.0036357639 -0.1163922 0.84117758
0.026407359 -0.31876341 0.86970317
0.023772299 -0.27190831 0.87467611
0.030480091 -0.28495359 0.8667978
0.044676069 -0.27301839 0.86318183
0.027140319 -0.2827867 0.87121201
0.039576828 -0.25762281 0.865013
-0.04932576 -0.1173278 0.63670611
-0.020421149 -0.1199665 0.65322918
-0.045569122 -0.1186176 0.67427742
-0.0085911145 -0.1209528 0.6518842
-0.009318471 -0.1168301 0.67279983
0.01275921 -0.1202779 0.67910308
-0.035465032 -0.1226546 0.62220752
-0.03179675 -0.119409 0.6737442
0.071309887 -0.1216588 0.65793443
0.050812662 -0.1189998 0.75315553
0.051749799 -0.1173006 0.73265219
0.16679689 -0.28688079 0.71208543
0.1674722 -0.26824069 0.71267778
0.1550879 -0.1762847 0.72595388
0.06168383 -0.26710999 0.8338961
0.0862014 -0.1204866 0.76585162
0.1611592 -0.2555272 0.70882308
0.1053897 -0.34954181 0.80203092
0.03081286 -0.33585131 0.86514109
0.082413107 -0.1241381 0.64462638
0.17633539 -0.187474 0.7076667
0.045754019 -0.25184819 0.86512637
0.1643711 -0.38451511 0.71986002
0.1456915 -0.18945719 0.73575598
0.052986149 -0.26259771 0.84951901
0.023928581 -0.20396429 0.87784618
-0.059987571 -0.1187721 0.63787037
0.098119587 -0.19569629 0.79357761
0.079206653 -0.3320882 0.81847209
0.02467945 -0.29899359 0.87825727
0.027479529 -0.3439762 0.86559522
-0.32967821 -0.41167679 0.82725787
0.067180373 -0.1238412 0.82641792
0.02249616 -0.38591659 0.87309659
0.028284069 -0.29355359 0.88223171
0.067611597 -0.29452711 0.83510083
0.08314842 -0.33082521 0.81692702
0.042603608 -0.1925119 0.85872602
0.059867259 -0.1642167 0.83252108
0.1494433 -0.15096331 0.73626888
0.04592726 -0.2021777 0.86058408
0.1601859 -0.1182941 0.71800828
0.029378381 -0.1460842 0.87230593
0.082005262 -0.323246 0.81316841
0.029158169 -0.1460484 0.87162292
0.1610211 -0.39504951 0.71619052
0.097065657 -0.36369899 0.79818308
0.1013398 -0.21889471 0.78753692
0.1458149 -0.1811804 0.74082339
0.1561991 -0.1992054 0.72808897
0.046541572 -0.33090079 0.8558104
0.1159627 -0.2250268 0.77621031
0.07616362 -0.3186864 0.82025498
0.1621599 -0.1969322 0.71671891
0.16504 -0.1550803 0.7236073
0.110771 -0.35143709 0.78673172
0.1533981 -0.24784701 0.73433721
0.064388692 -0.36960381 0.8257848
0.1665777 -0.33200929 0.71375471
0.16031539 -0.1903777 0.72380757
0.1318894 -0.1625568 0.74883401
0.1223238 -0.1296019 0.76263201
0.031950291 -0.32685259 0.86872101
0.16083381 -0.30633771 0.71553409
0.17375641 -0.21383689 0.69888848
0.090814173 -0.30579409 0.8048799
0.044512268 -0.3004939 0.85576022
0.085737623 -0.1466518 0.80000079
0.1733432 -0.2288942 0.70404953
0.1028633 -0.2276423 0.78714931
0.1553378 -0.21049321 0.72569227
0.080753297 -0.23465151 0.81463152
0.0073056221 -0.26694971 0.85922068
0.074200928 -0.1157967 0.8045432
0.01450491 -0.1174509 0.86305243
0.056614552 -0.1192711 0.79662681
0.0260852 -0.32049161 0.86567199
0.088553607 -0.1151454 0.78248781
-0.1094112 -0.41997489 0.76921332
0.1155979 -0.120982 0.75208718
-0.02827373 -0.2914547 0.82906318
-0.074430197 -0.3616187 0.79075563
-0.01830041 -0.1413953 0.8365519
-0.091166109 -0.41038129 0.77710772
0.025413631 -0.2289483 0.86743528
-0.080846399 -0.1808662 0.77763718
0.017176989 -0.28513139 0.84721822
-0.1294495 -0.2314276 0.73470289
0.092509843 -0.1217568 0.70407021
-0.07752198 -0.1195909 0.77645272
-0.098997802 -0.1165043 0.73865181
-0.076409973 -0.1197422 0.65489662
-0.1302783 -0.1897572 0.72952169
-0.130147 -0.24418791 0.74332452
-0.0070316792 -0.2086391 0.84887439
0.0001965165 -0.34749639 0.85877001
0.027092701 -0.1223536 0.8730433
-0.13179579 -0.1919291 0.73340547
0.0095430017 -0.33577919 0.86255902
0.065893263 -0.117853 0.63477558
-0.0052805538 -0.1453495 0.84705752
-0.135966 -0.1760065 0.72756487
-0.01570284 -0.1224726 0.58136731
0.02141601 -0.17998961 0.87267321
0.019318219 -0.42320859 0.86681581
0.020318029 -0.30123219 0.87020057
0.02365756 -0.3971678 0.87230182
-0.019535299 -0.3977088 0.83721542
0.017339019 -0.25684911 0.86885172
0.024356071 -0.2050292 0.86966538
-0.019895609 -0.1241195 0.58792472
0.01768646 -0.1189102 0.69613361
0.01049268 -0.1198673 0.57502031
-0.03024492 -0.1198801 0.70071948
-0.008988291 -0.1200739 0.67533588
0.023653859 -0.1234627 0.64985859
0.006039768 -0.1140904 0.74168718
0.0047385991 -0.18824489 0.85754693
-0.02677447 -0.3610172 0.83431071
-0.1021946 -0.2378685 0.76677501
-0.079558671 -0.15408941 0.78296351
-0.033170819 -0.1181193 0.76727808
0.021665219 -0.142836 0.86356032
0.0048345332 -0.1328482 0.85851789
-0.1286055 -0.242219 0.74130791
0.0023345649 -0.2268396 0.85491782
0.1220556 -0.1222303 0.67079991
0.1569981 -0.33489311 0.72546202
-0.0089291781 -0.14414489 0.84505302
-0.13097741 -0.28053141 0.7402072
-0.0076056118 -0.130475 0.84608382
-0.1368439 -0.20114461 0.72689569
0.022305069 -0.2664358 0.87116629
0.01389462 -0.29870471 0.8703264
0.022238821 -0.30361021 0.87003958
-0.1432226 -0.1531598 0.72449023
-0.03038105 -0.41228941 0.83150911
-0.065399587 -0.4079794 0.79688001
-0.035276499 -0.38842231 0.82624358
-0.085585058 -0.19736031 0.77252162
-0.1328005 -0.23555399 0.73568219
-0.1125767 -0.29264259 0.75931442
-0.13426439 -0.14961021 0.7280494
-0.066076636 -0.1210277 0.64447123
-0.0056007211 -0.1171472 0.74463928
0.035913501 -0.1204956 0.6045993
-0.092030607 -0.34706649 0.77721339
-0.093439013 -0.16133299 0.77639151
-0.082630873 -0.18090621 0.781214
0.01138237 -0.2505258 0.86036128
-0.1259 -0.21232121 0.74124497
-0.073546022 -0.1167352 0.77727282
0.1307251 -0.17261221 0.75377113
-0.1249573 -0.31139839 0.74348021
-0.043786321 -0.31562579 0.82118928
-0.1211916 -0.1211732 0.73923779
-0.106215 -0.28719711 0.76004362
-0.1327744 -0.2257299 0.73491043
0.0044842358 -0.2296076 0.85987282
-0.137151 -0.29719281 0.73018509
0.01088682 -0.39723101 0.86836499
-0.073211551 -0.4132522 0.79352301
0.023692129 -0.3433083 0.87027949
0.039410561 -0.115274 0.76650637
0.0219543 -0.1118242 0.77281451
-0.00089347363 -0.1206894 0.61359757
-0.054482039 -0.1167332 0.61822289
-0.1124837 -0.1184009 0.74531537
-0.024896471 -0.1176863 0.79659498
-0.1046412 -0.26037699 0.75820971
0.034671161 -0.1217803 0.62472832
0.069928907 -0.1136275 0.76606858
0.099355161 -0.29291621 0.79041541
0.019177079 -0.27288619 0.86950451
-0.1181612 -0.2278551 0.74895072
-0.13069209 -0.39777249 0.73972839
-0.1378054 -0.2020057 0.72899318
-0.001819015 -0.40379459 0.85779279
-0.1022216 -0.3411504 0.77440292
-0.098064452 -0.12846769 0.76604491
0.038402408 -0.25620809 0.86252087
-0.14011709 -0.2307868 0.73196292
-0.1307452 -0.2090034 0.73436332
-0.077632613 -0.13646211 0.78401238
0.029769721 -0.422212 0.87259799
0.015796389 -0.41584039 0.8678906
-0.096790612 -0.2491788 0.76501268
0.01317459 -0.1469419 0.86544389
-0.1117111 -0.1187833 0.69392252
0.054235369 -0.1198665 0.67637342
0.0086708069 -0.26386881 0.8580035
0.02241355 -0.2873103 0.87102222
0.016870201 -0.38584861 0.87591523
-0.086079523 -0.1347051 0.77146381
-0.090543061 -0.14515769 0.76776212
0.01245016 -0.35999069 0.86373001
-0.134758 -0.4186565 0.72051942
-0.12692501 -0.1716572 0.74121988
0.023765801 -0.3317962 0.869672
-0.1216331 -0.27772841 0.74548101
-0.097321182 -0.1401557 0.76545513
-0.088202119 -0.1786422 0.76788592
-0.08859989 -0.18070909 0.7729668
-0.1188808 -0.4110032 0.75619543
-0.1296507 -0.14903571 0.73333859
-0.1038402 -0.39079389 0.76746601
-0.088066787 -0.17078739 0.77555537
-0.1411849 -0.42479381 0.73426121
-0.02340072 -0.42597049 0.84003597
-0.020523701 -0.31703809 0.83964199
-0.0044205491 -0.19458281 0.85176361
-0.13805971 -0.43030691 0.73323119
0.077666789 -0.1975873 0.81373441
-0.095438808 -0.22544619 0.77147049
0.0035964849 -0.27480671 0.85963589
-0.02424112 -0.28262901 0.83158213
-0.038342088 -0.40114659 0.82621109
-0.027789829 -0.1181502 0.67765152
-0.1460906 -0.1438262 0.69353658
-0.095067076 -0.114518 0.66467118
0.058154359 -0.1220165 0.62630939
-0.049358521 -0.39963561 0.8176263
-0.13842911 -0.27234581 0.7332229
0.017661359 -0.1156355 0.76081711
-0.1191006 -0.41309151 0.7580471
-0.004899323 -0.31830761 0.8500638
-0.02889603 -0.37655771 0.83522183
-0.090607263 -0.1901267 0.769862
-0.1246248 -0.40103501 0.74647099
-0.01270717 -0.2123788 0.84286487
-0.050386909 -0.1185405 0.67504108
-0.078605413 -0.1119018 0.76685083
-0.038963079 -0.1140683 0.79845202
-0.060484421 -0.1829651 0.79837757
-0.089964323 -0.26390931 0.77452952
-0.082692184 -0.1547706 0.78429848
-0.098984361 -0.27074969 0.76924312
-0.055667151 -0.19505841 0.80579692
0.0016029479 -0.1175171 0.80440158
0.060703129 -0.1177573 0.7371074
0.062819421 -0.1177674 0.82494527
0.040645208 -0.1215685 0.78410149
0.0077579021 -0.1170218 0.83689499
-0.0046665971 -0.2298568 0.85139471
0.001150489 -0.3042053 0.85968798
0.1384756 -0.21632309 0.75182688
-0.073081017 -0.42634711 0.80016887
-0.1369222 -0.3002426 0.73481178
-0.01817042 -0.1169974 0.77493298
-0.1366376 -0.12875929 0.72819501
-0.056285162 -0.188751 0.80717063
-0.023579599 -0.2422159 0.83250248
0.1588511 -0.2232559 0.72142899
-0.029524241 -0.3041954 0.8351506
-0.090941317 -0.2121312 0.76986438
-0.1195811 -0.2400846 0.74990368
-0.104746 -0.4154028 0.76321429
0.090513073 -0.21796671 0.79519278
-0.1194124 -0.37297249 0.75848919
-0.1060462 -0.20450111 0.75870132
0.02519387 -0.331218 0.86811119
0.02425647 -0.12449 0.59083349
0.047326028 -0.1219559 0.59842652
0.066453099 -0.1203414 0.72442579
-1.6927719e-05 -0.1314923 0.85708368
-0.037549142 -0.41567761 0.82318062
-0.129903 -0.3745364 0.71783912
-0.035157919 -0.41581509 0.83522689
0.02645028 -0.1311865 0.87116802
0.0136264 -0.3873907 0.55000073
-0.1248849 -0.3858411 0.701487
-0.01738379 -0.1990101 0.57205689
-0.064186327 -0.1712871 0.63617742
-0.055826008 -0.1294571 0.62849557
0.03626639 -0.1216185 0.64015728
-0.062102839 -0.39054051 0.6265676
-0.031589691 -0.266801 0.58724499
-0.01429584 -0.2313626 0.57072192
-0.01229711 -0.2931982 0.56669712
0.04856348 -0.1207296 0.80542392
-0.086659484 -0.3628718 0.6502589
-0.087038562 -0.3362686 0.65140837
0.00061815977 -0.1260266 0.56273133
-0.0216818 -0.14490101 0.58118278
-0.056327552 -0.2710762 0.6186294
0.098834887 -0.1173001 0.69475102
-0.05112721 -0.1678838 0.61704743
-0.064922303 -0.1198344 0.63745749
-0.059424311 -0.118692 0.79339957
-0.03016454 -0.1207513 0.71948743
-0.02377574 -0.1328779 0.58363229
-0.053831641 -0.15666009 0.62537152
-0.077640213 -0.30386701 0.63883913
-0.048126761 -0.3006497 0.61077023
-0.01061326 -0.1359721 0.56939852
-0.035011839 -0.41485789 0.59133142
-0.01262499 -0.13851041 0.57249218
-0.003588557 -0.1488727 0.56424528
-0.042114791 -0.1171552 0.79832512
-0.017897289 -0.1530908 0.57665092
-0.1232055 -0.29355389 0.70373458
-0.047435518 -0.1165383 0.61818552
-0.063022763 -0.1556188 0.63976198
-0.1292322 -0.3698456 0.69525838
-0.13582391 -0.2979534 0.7155053
-0.129436 -0.32869351 0.70475322
-0.053849339 -0.1692012 0.62475491
-0.002602607 -0.22267041 0.56398863
-0.01564241 -0.1579258 0.57368112
-0.069513083 -0.26042399 0.63909292
-0.0046603382 -0.34048259 0.56563783
0.0001561642 -0.21731751 0.55763108
-0.1177435 -0.40935719 0.75328213
-0.091985457 -0.31723061 0.66486472
-0.003828526 -0.3090778 0.56141597
-0.071975917 -0.37152141 0.62931401
-0.1139761 -0.41929811 0.75915259
-0.092860579 -0.34234631 0.77418959
0.0051903129 -0.1188924 0.77895659
0.0581997 -0.1195376 0.70987183
0.06372416 -0.1184789 0.66199142
0.099890828 -0.1177543 0.72188932
0.1070366 -0.1199676 0.73348361
0.1063884 -0.1192517 0.73371881
-0.007484294 -0.1334981 0.56038392
0.1300464 -0.1240564 0.70647621
0.07382606 -0.1171044 0.69196588
-0.01024392 -0.1254524 0.67136103
-0.031783272 -0.1219355 0.62857038
0.075477719 -0.119287 0.69725859
-0.001870155 -0.1186442 0.70947248
-0.01872839 -0.1170737 0.71161717
-0.030584721 -0.30933121 0.58878487
-0.1137005 -0.29546201 0.67005777
-0.036627561 -0.1510814 0.60436112
-0.1081563 -0.3189339 0.67288882
-0.067577958 -0.30078381 0.63272363
-0.1341861 -0.2454375 0.73524559
-0.056468591 -0.26616719 0.61856192
-0.02178055 -0.2315955 0.58157313
-0.1191968 -0.3237727 0.68404609
-0.0265218 -0.28644291 0.58379632
-0.1093981 -0.28987139 0.66820282
-0.07311137 -0.25109309 0.63792092
-0.1168493 -0.31761941 0.6825667
0.006954968 -0.1199017 0.75455737
0.067192607 -0.1142071 0.78075647
0.04400545 -0.1209894 0.84401482
0.03919363 -0.1229115 0.76367497
-0.03775179 -0.1175345 0.81100959
0.04887123 -0.1157851 0.74905092
-0.0168657 -0.1164718 0.82089669
-0.02893251 -0.1165487 0.82340813
-0.118711 -0.3406322 0.74672931
-0.07744962 -0.1134264 0.7815578
-0.12716749 -0.41665289 0.74911487
-0.074391961 -0.1188448 0.78183252
-0.071215808 -0.1310301 0.78056842
-0.1213852 -0.31417581 0.70443553
-0.1344479 -0.35951611 0.72865069
-0.03760561 -0.40609011 0.84993267
-0.046322871 -0.37644419 0.59919488
-0.0059463978 -0.1212703 0.65380788
0.01235867 -0.113488 0.6677832
-0.04971515 -0.15558299 0.61356282
-0.096644513 -0.34614989 0.6590032
-0.141954 -0.37920699 0.7218979
-0.13311879 -0.29226261 0.70736861
-0.0008571744 -0.27230909 0.55806291
-0.033585612 -0.41632289 0.58811682
-0.050549999 -0.18345159 0.6145255
-0.093513459 -0.117477 0.68430978
-0.067116506 -0.2398469 0.62818062
-0.14067359 -0.2349907 0.71947801
-0.14247 -0.2312227 0.72292858
-0.057945251 -0.3238408 0.61650431
-0.070581198 -0.27641109 0.63173902
-0.02399309 -0.37662631 0.58505869
-0.069472723 -0.23560721 0.63886547
-0.1159484 -0.28774491 0.68973619
-0.1318465 -0.31382051 0.70933992
-0.1318485 -0.3614724 0.73603702
-0.1174674 -0.2856839 0.68488342
-0.1152962 -0.32835081 0.69482511
-0.086963899 -0.3860192 0.64653063
-0.020936919 -0.2355188 0.57548141
-0.041038569 -0.26275319 0.60139769
-0.03558708 -0.35767451 0.58934158
-0.066524237 -0.18696921 0.63085252
0.13711581 -0.1190633 0.69498563
0.078987479 -0.1217313 0.62749511
0.01330972 -0.1166467 0.69880623
0.069747329 -0.1213919 0.61644882
0.079014033 -0.1207134 0.64971697
-0.0048000221 -0.1204755 0.66463542
0.099296272 -0.1203594 0.74831152
0.0032408829 -0.1218759 0.67611289
-0.055868629 -0.1189143 0.68266708
0.1089873 -0.1167271 0.66029018
0.1203802 -0.1198243 0.75009048
-0.058042292 -0.1215833 0.62880659
-0.1024455 -0.1203485 0.73031151
-0.0293491 -0.2660628 0.58713031
-0.029631879 -0.3083525 0.58842838
-0.078625277 -0.31049049 0.6524781
0.043551739 -0.1233797 0.84043533
-0.005513906 -0.1180214 0.83972079
-0.084270239 -0.1253386 0.77052009
-0.022590039 -0.2197383 0.83534509
-0.1141496 -0.1178414 0.75043619
-0.078436144 -0.16481841 0.77770478
-0.093073793 -0.41568539 0.78336853
-0.050329011 -0.1781771 0.61227959
-0.08637695 -0.31858879 0.65434062
0.003651381 -0.114317 0.66927528
-0.02632973 -0.34640479 0.58435333
0.052179929 -0.1149645 0.59898502
0.003834367 -0.37770399 0.5512557
0.0067480882 -0.3749046 0.56802571
-0.005730107 -0.34196299 0.55825531
-0.045818459 -0.18993869 0.60590249
-0.01662147 -0.54379141 1.161252
-0.030726761 -0.2509867 0.5953486
0.107783 -0.1211074 0.66405731
0.017304059 -0.1222755 0.57060963
-0.016507659 -0.1227908 0.65289038
-0.033940021 -0.1230007 0.68536693
0.087432563 -0.1141723 0.75794232
0.026849531 -0.1188417 0.58218533
-0.01775597 -0.20118611 0.57510859
-0.048930679 -0.31836241 0.60329688
-0.1281386 -0.4067995 0.71619111
-0.01044072 -0.1480653 0.57060069
0.04544099 -0.1145202 0.77915192
-0.1124851 -0.1135015 0.74175352
-0.01767993 -0.18420529 0.83864462
-0.03584468 -0.2063231 0.59354448
-0.1352087 -0.26561129 0.73257059
-0.02630651 -0.49860919 1.14771
-0.047427829 -0.14831419 0.6163826
0.096725047 -0.1152557 0.70708638
-0.034608189 -0.4214972 0.59773171
-0.01418298 -0.1544499 0.56611413
-0.1031677 -0.29993129 0.67327368
-0.046960931 -0.40029871 0.60146141
-0.044372749 -0.17128921 0.60219789
-0.054365691 -0.1392438 0.62815732
0.09134528 -0.1204917 0.76565289
0.058031619 -0.1083998 0.80588788
0.0040770918 -0.1222159 0.74983573
-0.086417086 -0.33582449 0.65044421
0.052114472 -0.2940127 0.59974802
-0.046976801 -0.40050331 0.60022801
0.003025837 -0.1222253 0.74918813
-0.086201161 -0.3354595 0.65042847
-0.026314911 -0.28595069 0.58363843
-0.0094490759 -0.35896099 0.55731511
0.032471441 -0.3484959 0.57615131
0.0095444843 -0.39908329 0.56032687
0.1165138 -0.36168501 0.63798761
0.01715534 -0.4064047 0.56316912
-0.0061600171 -0.34293109 0.56220931
0.062738813 -0.35617441 0.62192041
0.13698991 -0.4105691 0.65907657
0.020835759 -0.34919211 0.57026571
0.1487259 -0.3597883 0.66874951
0.037690122 -0.3688764 0.5891723
-0.056490991 -0.38323459 0.61458749
-0.033237498 -0.41678989 0.58800042
-0.070805728 -0.41978031 0.63318688
-0.028059591 -0.35149941 0.59091169
-0.072749414 -0.42040169 0.63365912
0.067148283 -0.32375661 0.60152882
-0.016248969 -0.33535501 0.57405537
0.084253304 -0.3710604 0.61832333
0.03949929 -0.39381531 0.57706338
0.16518641 -0.42026499 0.69191921
0.035868991 -0.33433989 0.57476091
0.1165486 -0.35242611 0.6389823
0.06134085 -0.38399771 0.59806907
0.13705251 -0.4147025 0.6602782
0.083220899 -0.4105821 0.62672192
0.004580386 -0.41569269 0.55370742
0.060024951 -0.35537979 0.60821891
0.1267162 -0.42313331 0.67981559
0.02034439 -0.32855171 0.5674535
0.05099478 -0.4200435 0.5946703
0.099156953 -0.41010329 0.63150102
0.02848733 -0.3689284 0.56963408
0.16520511 -0.3780877 0.69414061
0.16605669 -0.3615531 0.69386089
-0.1346633 -0.4186112 0.70278227
0.076886453 -0.41430631 0.60993117
-0.034616761 -0.3206127 0.58188432
0.1348727 -0.34180671 0.65554649
-0.0049704239 -0.30870819 0.56006849
0.076446831 -0.35607281 0.61003578
0.02977334 -0.31850249 0.57192183
-0.0033154001 -0.1062996 0.76224911
0.099502347 -0.1184417 0.69793582
0.057281159 -0.1204001 0.62909049
-0.1122548 -0.2189122 0.6844874
-0.1351018 -0.1740129 0.71245599
0.002761744 -0.1230376 0.75094932
-0.01333969 -0.1212628 0.61498702
0.083957262 -0.3713814 0.61843753
-0.01494877 -0.2366727 0.57349288
-0.01448709 -0.23436549 0.57138979
-0.1129251 -0.219961 0.68591362
-0.1083581 -0.31984919 0.67739421
-0.13828941 -0.180171 0.72353148
-0.086520948 -0.33532301 0.64972621
-0.080181152 -0.16111089 0.65020049
0.051513869 -0.29090539 0.59673572
0.1377947 -0.41483831 0.65863287
0.1157585 -0.3651416 0.64411157
0.062416919 -0.34657419 0.6203447
0.1163088 -0.3010256 0.6543237
0.1499365 -0.28667489 0.68394452
0.1042901 -0.333637 0.64534652
0.02527776 -0.2445499 0.57601827
0.050903451 -0.21824411 0.5997228
0.062237859 -0.2116148 0.60722542
0.059354011 -0.1282596 0.60633838
0.1199899 -0.16554309 0.65995961
0.0437061 -0.1186282 0.70902252
0.01474692 -0.1198318 0.70627189
0.0196974 -0.1179119 0.66076952
-0.00053039187 -0.1503026 0.55541033
0.04997519 -0.110208 0.60341811
0.11994 -0.1114813 0.71548092
-0.02457385 -0.13455731 0.58304471
-0.0094419355 -0.14911111 0.56948662
-0.069310427 -0.1528666 0.63852698
-0.0086131841 -0.13958 0.57646477
-0.056335028 -0.1360385 0.62669361
-0.02417849 -0.38551429 0.58996868
-0.05974419 -0.27319849 0.63058448
-0.117352 -0.29122621 0.67152178
-0.049378108 -0.1984998 0.62165099
-0.1217261 -0.2612699 0.70537788
-0.083896987 -0.1983564 0.6546768
-0.0051278472 -0.30461359 0.55898392
-0.035199761 -0.4200353 0.59261161
-0.080949187 -0.29287809 0.63530678
-0.1153465 -0.30288711 0.66643578
-0.031713132 -0.29222459 0.58837712
-0.04631668 -0.1215272 0.61688823
-0.08683306 -0.33778289 0.6527673
0.027516739 -0.1194769 0.58288628
-0.076725207 -0.1462145 0.65241522
-0.05401649 -0.170105 0.62595183
-0.1125959 -0.22235499 0.68778169
-0.1081366 -0.31991491 0.67757308
-0.026380921 -0.2867665 0.58477533
-0.03950122 -0.3134366 0.59669518
-0.04852641 -0.40207729 0.60370052
-0.051910851 -0.1698918 0.61558092
-0.055245701 -0.1525801 0.62403297
-0.03486985 -0.36170951 0.59153879
-0.079527259 -0.1603903 0.65292609
-0.085780211 -0.31752169 0.65573323
-0.1333131 -0.34277889 0.70796698
-0.01418417 -0.23242579 0.57134748
-0.030062789 -0.2670452 0.58920741
-0.05596919 -0.26854101 0.62181789
-0.069270879 -0.39594689 0.62842453
-0.049928412 -0.17700011 0.61417049
-0.035130162 -0.21224441 0.5969047
-0.01175265 -0.2952216 0.5679841
-0.01813826 -0.1524204 0.57704622
-0.1019427 -0.2134054 0.67324668
-0.070180923 -0.3676486 0.6321587
-0.029324049 -0.30766329 0.58801413
-0.04639696 -0.1875397 0.60959858
-0.082349807 -0.2185449 0.64908117
-0.1303421 -0.37086111 0.69774622
-0.085413031 -0.1758424 0.65924931
-0.067962021 -0.1172959 0.63675499
-0.041871909 -0.1771908 0.60501719
-0.097271606 -0.34796971 0.66124701
-0.097822189 -0.2188116 0.6679377
-0.01427239 -0.15967859 0.5719521
-0.058764279 -0.1203842 0.62873912
-0.02227688 -0.1178511 0.71188033
-0.1096936 -0.19896141 0.68491107
-0.037369572 -0.1206683 0.62342632
-0.01762734 -0.1988152 0.57307887
-0.024363879 -0.22948711 0.58139187
-0.007850647 -0.132792 0.56216192
-0.0094459653 -0.1322079 0.57009238
-0.01062149 -0.1565688 0.56828701
-0.086997539 -0.36282501 0.64988327
-0.073328137 -0.1186767 0.6873312
-0.1039695 -0.19966289 0.67362928
-0.13395309 -0.2938534 0.71083248
-0.088856161 -0.27200899 0.65632659
-0.1192973 -0.28812689 0.69156748
-0.084279999 -0.14555711 0.66073889
-0.077641107 -0.1188991 0.71736228
-0.088394023 -0.1992636 0.6573332
-0.076646507 -0.1249678 0.64612627
0.099965453 -0.1201721 0.67935508
-0.088951111 -0.2411164 0.65551668
-0.14441711 -0.40982661 0.72215062
-0.083569378 -0.1173097 0.69953728
-0.088547617 -0.1360139 0.66228062
0.048002779 -0.121618 0.80528349
-0.05105887 -0.1834532 0.61597753
-0.067206644 -0.1865284 0.63158041
-0.0024500189 -0.1202434 0.67454523
-0.049535111 -0.31914359 0.60501051
-0.02692157 -0.3453083 0.58477008
-0.0032791051 -0.1234812 0.5622769
0.073667407 -0.1163717 0.69172847
0.0084326863 -0.1201707 0.56793529
-0.0056407382 -0.1233757 0.6460858
-0.1051486 -0.34320411 0.67455482
-0.086264268 -0.1810261 0.66312528
-0.1334697 -0.2257473 0.70878118
-0.1119224 -0.2189067 0.68597031
-0.1323261 -0.3785499 0.70902377
-0.1233456 -0.33031949 0.68421358
-0.13410529 -0.2105512 0.71392387
-0.1138131 -0.173988 0.69453043
-0.069386117 -0.1540745 0.64320648
-0.042603601 -0.1161035 0.73654163
-0.018151021 -0.1215405 0.61046052
-0.05141509 -0.1583266 0.61409563
-0.039167281 -0.2657744 0.60236859
-0.077320307 -0.1724194 0.65258068
-0.087763347 -0.30879179 0.65299112
-0.065495968 -0.29745451 0.63172191
-0.1318828 -0.3448073 0.70700622
-0.021120399 -0.1236346 0.59276313
-0.065255053 -0.24273971 0.63138461
-0.044549469 -0.37942129 0.60571212
-0.043514971 -0.1216084 0.65449673
-0.107612 -0.17002919 0.68065232
-0.1323653 -0.29173291 0.70326322
-0.073219813 -0.25416571 0.64464068
-0.1153624 -0.2063309 0.69063842
0.048782829 -0.1138054 0.69141448
-0.057719171 -0.32693911 0.6196804
0.01117456 -0.1151759 0.69997519
-0.04242539 -0.14762481 0.60324842
-0.01297341 -0.122646 0.64973271
-0.1080586 -0.1228046 0.68560559
-0.1267999 -0.29090011 0.70288938
-0.1174721 -0.2863152 0.68690318
-0.094679028 -0.29664639 0.66305739
-0.0074271262 -0.36072841 0.55894601
-0.086536683 -0.1187183 0.69502407
-0.1222448 -0.29650071 0.69409633
0.0255506 -0.1134574 0.78696471
-0.071820877 -0.3832694 0.61826372
0.077087522 -0.1212462 0.62675762
-0.1199923 -0.1198659 0.71850657
-0.04873798 -0.29606339 0.61269921
-0.079158291 -0.3024005 0.63810802
-0.1236769 -0.31333151 0.70370269
-0.036583599 -0.41729859 0.59729928
0.068907738 -0.1164438 0.71054113
-0.1384687 -0.20981219 0.72659028
-0.004390717 -0.1133735 0.72372359
0.01051298 -0.42383841 0.55952138
-0.017083051 -0.1158597 0.82213759
-0.1176349 -0.32636791 0.69266582
0.046779688 -0.1157296 0.78398627
-0.09829551 -0.1566049 0.67195082
-0.1082306 -0.1938542 0.68576068
-0.02026549 -0.2022098 0.57628852
-0.0079580843 -0.21864019 0.56104952
0.067516617 -0.1141002 0.7857101
-0.021710521 -0.14399061 0.5826906
-0.14007001 -0.3458057 0.72321081
-0.1128825 -0.28386319 0.67076409
-0.1350953 -0.2084185 0.708
-0.1065773 -0.1974266 0.68804848
-0.1149076 -0.3736167 0.68417931
-0.1342867 -0.1747583 0.71329522
0.067241013 -0.1180123 0.62019211
0.1177315 -0.1145191 0.64551759
-0.0091858665 -0.35619009 0.55620247
-0.092831023 -0.1136481 0.73933488
-0.056200091 -0.1145913 0.78380299
0.0048857932 -0.1174079 0.7808153
-0.0049039721 -0.1169005 0.84037238
-0.1050797 -0.1180472 0.72657061
-0.055880129 -0.38392681 0.61558592
-0.03478545 -0.40702951 0.59256798
-0.091629513 -0.26716489 0.65714949
-0.1176687 -0.3987014 0.67813557
-0.09506923 -0.31248179 0.66428483
-0.1279885 -0.32810971 0.71015698
-0.1296358 -0.40050301 0.71966761
-0.067911267 -0.26056311 0.64207232
-0.1168376 -0.40927181 0.68501377
-0.12059 -0.1386617 0.70237333
-0.085962057 -0.38766289 0.64765042
-0.068151213 -0.1900152 0.64055991
-0.031828418 -0.26683259 0.59021652
0.0131554 -0.38679501 0.55049068
-0.033902019 -0.1188757 0.71947283
-0.070480883 -0.1199346 0.78988159
-0.096654773 -0.1175687 0.71023393
-0.040221602 -0.1132925 0.77260488
0.022305161 -0.1157705 0.85687321
-0.072044909 -0.1119175 0.718687
0.02921599 -0.1114596 0.82133257
-0.1334338 -0.1758516 0.71638727
-0.1101443 -0.1734271 0.68725067
-0.08096981 -0.31282371 0.6535306
-0.077330351 -0.41462299 0.64774269
-0.1262518 -0.151177 0.70310968
0.02450854 -0.1227131 0.6149255
-0.14011081 -0.13278989 0.72403258
-0.03638443 -0.2479905 0.59570527
-0.09700194 -0.1909557 0.67620188
0.0026812551 -0.1196425 0.69225979
-0.040002469 -0.118983 0.68345833
-0.036089659 -0.1155655 0.67946303
0.094036698 -0.1210099 0.68946028
-0.050292131 -0.1202004 0.67181838
-0.02549604 -0.23401961 0.58402312
-0.042325418 -0.1459156 0.60700798
0.01179206 -0.1560957 0.5724327
-0.052081231 -0.1456234 0.61689359
-0.067059644 -0.1694741 0.63560247
