# .PCD v0.7 - Point Cloud Data file format
VERSION 0.7
FIELDS x y z
SIZE 4 4 4
TYPE F F F
COUNT 1 1 1
WIDTH 1392
HEIGHT 1
VIEWPOINT 0 0 0 1 0 0 0
POINTS 1392
DATA ascii
-0.090277523 -0.1465856 0.71383399
0.0094604781 -0.1007863 0.82010901
-0.0537045 -0.14844701 0.7925331
0.067453392 -0.3644124 0.99920541
0.1576284 -0.364209 0.88593757
-0.073783658 -0.36174431 0.92784488
0.30358621 -0.36560941 0.76761448
0.069156453 -0.3647379 0.78124362
-0.059934501 -0.17008109 0.7815634
0.0025617059 -0.186547 0.81435519
0.4218342 -0.36752081 0.41310009
-0.01586687 -0.098192409 0.80399698
-0.055177029 -0.1487416 0.78802532
-0.04763988 -0.097727723 0.79732472
0.078970566 -0.046579819 0.63833332
0.17174719 -0.36226341 0.86328453
0.038130879 -0.350629 0.77880722
-0.0092199957 -0.071719661 0.79874402
0.076727018 -0.14634819 0.78170508
-0.078332677 -0.2096471 0.71759641
-0.070375957 -0.28927439 0.71446139
0.0076151029 -0.1243914 0.82086521
0.40564841 -0.3690114 0.4412626
-0.04040033 -0.087665521 0.7987318
-0.085862502 -0.23615921 0.70212942
0.022224359 -0.20155241 0.81418759
-0.1092083 -0.060048189 0.70781201
0.069522657 -0.2204197 0.79465812
0.27056989 -0.36471099 0.72383451
0.1727404 -0.36114961 0.84690219
0.070367873 -0.2941232 0.78559142
0.058526382 -0.36432171 0.81786507
0.065540627 -0.2323087 0.79121488
0.059789099 -0.36565411 0.96141207
0.04438094 -0.063863397 0.79941058
0.016592041 -0.067096397 0.80957967
0.13790759 -0.3652142 0.97038871
0.049919698 -0.2475765 0.7999447
-0.05616796 -0.260362 0.75882888
0.2223682 -0.36259621 0.65120018
0.063159801 -0.29498541 0.7920295
-0.053668521 -0.079279616 0.79886138
0.01287999 -0.1329499 0.81461167
0.35493651 -0.36657399 0.61956578
-0.01877084 -0.1107733 0.80292088
0.05484286 -0.36279371 0.88638359
-0.01283135 -0.1082669 0.80039692
0.04603434 -0.3602522 0.79585022
-0.0099612009 -0.099624053 0.80208838
0.5111202 -0.36979869 0.42688969
-0.07536307 -0.060204081 0.73653442
-0.045312051 -0.063061707 0.79176372
-0.020502919 -0.2627669 0.79853338
0.2970635 -0.36885381 0.75461853
0.066874281 -0.1581374 0.79344171
0.053096831 -0.36552179 0.78595859
0.004760968 -0.092058949 0.79934359
0.01337104 -0.090811372 0.8083058
0.036009088 -0.070685513 0.80903232
0.25357449 -0.36529279 0.57211423
0.41205779 -0.37183091 0.39666271
0.019328799 -0.04831221 0.60508633
-0.2183837 -0.36252749 0.53171951
0.067220621 -0.36632439 1.0052691
0.2995033 -0.36877471 0.73661828
-0.060083412 -0.1040353 0.78593862
-0.01881594 -0.090225913 0.80637389
-0.03319671 -0.26586619 0.78148621
0.02664566 -0.071519732 0.81001878
0.1231324 -0.3583959 0.73627448
0.094248548 -0.2173298 0.77219242
0.092038237 -0.33772641 0.76135302
-0.061338909 -0.21315379 0.76745409
0.081158496 -0.16541719 0.77321982
0.090151049 -0.36240321 0.75411552
-0.09921886 -0.085656308 0.72384697
-0.057588611 -0.27376261 0.75508219
-0.031650022 -0.1905008 0.81089431
0.036208261 -0.1173692 0.80765718
-0.096885927 -0.36294511 0.83463562
0.06501738 -0.072588541 0.78736693
-0.078986347 -0.249834 0.71307731
0.154772 -0.36392 0.94465619
0.217116 -0.36537349 0.73843628
0.21334089 -0.36247221 0.72105229
0.1515054 -0.36380139 0.89861798
0.2261243 -0.36526939 0.57758123
0.081201904 -0.3497414 0.7648198
-0.072991647 -0.29227129 0.70760858
0.40958321 -0.3692404 0.60323888
0.074072257 -0.36611339 0.91907322
0.059062261 -0.21741331 0.79719532
-0.23059 -0.3596825 0.5219115
0.071417481 -0.14944901 0.78791702
0.067722291 -0.18827879 0.79102612
-0.047192048 -0.097372621 0.80110562
0.0045657582 -0.1006943 0.80245042
-0.054238979 -0.088431828 0.79658061
0.06080167 -0.3633779 0.876508
-0.027629459 -0.1083794 0.80430597
0.02423328 -0.1227815 0.81238413
0.019197149 -0.15939289 0.81629348
-0.090074137 -0.052685238 0.64376432
-0.1802357 -0.36034459 0.913679
-0.065889977 -0.3364096 0.71985322
-0.2118668 -0.3686623 0.30461001
-0.18687481 -0.3589384 0.31604609
-0.068373278 -0.1628565 0.77461249
0.1710794 -0.36380619 0.88189483
0.31910121 -0.36815771 0.68810493
0.1041088 -0.049467608 0.69639498
0.1509459 -0.35611799 0.68558443
0.11655 -0.1532584 0.66222131
0.062316708 -0.3573496 0.5671615
0.0557414 -0.36230481 0.5608958
0.13101611 -0.2073721 0.65994233
0.1514765 -0.35402369 0.66664541
0.069121294 -0.36361229 0.84561437
0.1029234 -0.054724429 0.67229468
0.1100185 -0.092005663 0.67231351
0.1205525 -0.34695509 0.61735308
0.1169175 -0.14356241 0.66413862
0.08450494 -0.05030046 0.64578348
0.119069 -0.1543045 0.65907007
0.1242672 -0.1894041 0.702326
0.083334617 -0.049731471 0.63480842
0.085198984 -0.048922561 0.65392429
0.13883109 -0.28887761 0.64049637
0.1091032 -0.1752761 0.74343139
0.1066489 -0.055251561 0.69704908
0.1676539 -0.36178699 0.53791511
0.1850391 -0.36188871 0.70021021
0.13431691 -0.2324127 0.70089722
0.067328058 -0.36275429 0.80963892
0.14822391 -0.33636051 0.67295802
0.1244927 -0.186075 0.70847273
0.1205037 -0.1635865 0.68424648
0.1333999 -0.2946817 0.63440442
0.092232637 -0.1513291 0.61829251
0.1324442 -0.21690559 0.658014
0.1243266 -0.19672079 0.64643258
0.1440822 -0.3061713 0.64078468
0.1450277 -0.30879939 0.64087617
0.1011981 -0.2385433 0.59059322
-0.065804258 -0.35622931 0.45041811
0.1305448 -0.30694959 0.61243021
0.078160562 -0.04143985 0.62868488
0.090501852 -0.046033259 0.66349381
-0.30471659 -0.36006701 0.39829001
-0.05665512 -0.3588548 0.48321831
0.092000119 -0.064112604 0.64304918
0.1074532 -0.059696961 0.69684452
0.1157139 -0.2044829 0.62452477
0.084527932 -0.35877931 0.50415307
0.076930963 -0.041140761 0.63145453
0.1040949 -0.34408379 0.59748977
-0.3921378 -0.35363361 0.37481171
0.1435097 -0.32849431 0.64670688
0.146531 -0.35773379 0.65774792
0.13853119 -0.34131071 0.65148932
0.1164533 -0.13638289 0.65968418
0.1467474 -0.30624959 0.68369538
0.12698729 -0.35042849 0.63245249
0.1432547 -0.31734139 0.63544971
0.13927101 -0.36007029 0.4036901
0.082169667 -0.2456086 0.57638907
0.1117324 -0.34183219 0.60621941
0.093810782 -0.1425705 0.63102669
0.1209076 -0.1406703 0.68099397
0.1153118 -0.2875883 0.59661978
0.1420103 -0.27200761 0.66935098
0.066500239 -0.1244346 0.59722888
0.1038198 -0.2963239 0.58854532
0.096910723 -0.16234469 0.62851012
0.096619077 -0.1474707 0.62638432
0.1017403 -0.05587874 0.67272818
-0.42525941 -0.35458651 0.38168871
0.1316933 -0.35186681 0.63822889
-0.249724 -0.36248139 0.3498818
0.066505387 -0.039475951 0.61873978
0.078546807 -0.3634584 0.85790372
-0.02269588 -0.33237439 0.56298518
-0.066773601 -0.35693529 0.44284189
0.048761152 -0.3561565 0.5732882
0.1472277 -0.361691 0.51419431
0.12535 -0.2220584 0.62497658
0.12581509 -0.29289991 0.60706651
0.1138423 -0.1582963 0.63172632
0.1231836 -0.3441326 0.6275177
0.1079139 -0.1026491 0.65893322
0.2065459 -0.3635177 0.77039587
0.1429373 -0.29481721 0.6440084
0.1027962 -0.35894969 0.56363708
0.087070473 -0.060247149 0.63722032
0.14811701 -0.3621172 0.49531379
0.088578373 -0.060881019 0.75372201
0.01866198 -0.0429211 0.5961206
0.1183618 -0.30133969 0.59847009
0.087885663 -0.3381815 0.5812465
0.096998557 -0.3426846 0.5929572
-0.139204 -0.35528979 0.43956539
0.078789666 -0.35182691 0.57872099
0.1076166 -0.15502299 0.71368098
0.1462144 -0.33380339 0.68784022
0.1569127 -0.35953671 0.4087463
0.1416318 -0.36117151 0.56868571
0.1167882 -0.283299 0.60469538
0.08918485 -0.2495556 0.57644051
-0.0085709384 -0.3513543 0.55967832
-0.070707977 -0.35746741 0.4689579
0.1020587 -0.2325083 0.59566742
0.098321334 -0.1186368 0.63638628
0.1093467 -0.1243071 0.68160802
0.1359583 -0.2710335 0.64425588
0.1724797 -0.36073819 0.47978279
0.103411 -0.23725539 0.59187198
0.13718501 -0.3081384 0.63065648
0.1164179 -0.1509828 0.65053451
0.1257304 -0.179718 0.66533577
0.098852783 -0.31042641 0.77404147
0.0044275108 -0.33048591 0.56185538
0.1620066 -0.36151081 0.42038131
-0.01813186 -0.35624459 0.53436178
-0.05767699 -0.35806641 0.4808057
-0.031031121 -0.34513921 0.564372
-0.02995321 -0.35731041 0.53481781
0.081260078 -0.25868881 0.57046622
-0.41740149 -0.35857841 0.47768411
0.107901 -0.3520709 0.60578191
0.096935064 -0.32281229 0.58834243
0.082129888 -0.06935671 0.62248069
0.085641652 -0.1336491 0.60769129
0.1133267 -0.25136489 0.60063988
0.1246078 -0.1859125 0.66388601
0.1656623 -0.35884291 0.68653208
0.1001923 -0.34003469 0.59665
0.1027459 -0.1478909 0.63430488
0.1075546 -0.062980399 0.69696641
0.073239394 -0.035304662 0.62629038
0.09153749 -0.25479981 0.78515869
0.1160659 -0.2984854 0.5951243
-0.068674847 -0.35924241 0.44258991
-0.2244359 -0.35938191 0.53987658
0.046155691 -0.2971434 0.57458568
0.01498806 -0.33267909 0.56835008
0.077228516 -0.1092307 0.61425978
0.094811589 -0.1906554 0.61721277
0.017158121 -0.37377751 0.54926312
0.1183401 -0.29435641 0.6050148
-0.093756407 -0.35800579 0.43887609
-0.1322027 -0.35559031 0.4485316
-0.13019989 -0.3527571 0.45321769
0.1005627 -0.26954499 0.58282292
0.1061887 -0.12941021 0.64168268
0.1348644 -0.34693199 0.64599532
0.087898716 -0.1004839 0.63728482
0.14895611 -0.3634617 0.64866972
0.062856168 -0.039563831 0.61925131
-0.3078213 -0.35460851 0.39125609
-0.22462299 -0.35881349 0.53586209
-0.39890209 -0.3471095 0.36504501
0.1217847 -0.2434864 0.60341001
-0.068373203 -0.064083889 0.74411851
0.096861623 -0.1321401 0.63894451
0.069696218 -0.32370839 0.57358778
0.1306739 -0.18832029 0.66604912
0.1189066 -0.247113 0.61339772
0.094587266 -0.13269401 0.62859559
0.112752 -0.2444957 0.60559922
0.1098272 -0.1377425 0.64005119
0.1109001 -0.17395081 0.63256419
0.12570579 -0.1953426 0.66421431
-0.30837271 -0.3636471 0.39758879
0.1255635 -0.36411819 0.56938702
0.094754949 -0.150161 0.62314123
-0.041466329 -0.35649759 0.53088021
0.068601221 -0.036066622 0.64915693
0.069760472 -0.3555094 0.57857752
0.1485966 -0.3623552 0.51588708
-0.1156088 -0.35700741 0.4455905
-0.1085786 -0.3550579 0.4516964
0.0046255449 -0.35775679 0.45118439
0.01175381 -0.32176051 0.56691629
0.1552989 -0.36122471 0.49149591
-0.05820721 -0.35791561 0.56899709
-0.075417228 -0.051899832 0.61474991
-0.045467999 -0.33754119 0.59909922
-0.2006069 -0.3564249 0.90107518
-0.053264029 -0.2152878 0.59814578
-0.09386117 -0.1842759 0.6524654
-0.1077465 -0.35490739 0.87797242
-0.074228577 -0.29269221 0.69384122
-0.060844131 -0.3653515 0.55383748
-0.071625307 -0.3569555 0.86852121
-0.075454123 -0.2460327 0.63305348
-0.082404383 -0.21994901 0.63901252
-0.064212263 -0.34465241 0.63119072
-0.083597399 -0.3580626 0.77850652
-0.050630901 -0.049376849 0.59742582
0.077459887 -0.36254349 0.45274669
-0.065818332 -0.3473174 0.64862102
-0.067225493 -0.35834619 0.76304328
-0.095714644 -0.210877 0.65894419
-0.1118898 -0.056022391 0.68877512
-0.099026553 -0.3581802 0.86012143
-0.091542587 -0.2125776 0.6841718
-0.1218662 -0.064801037 0.66350251
-0.0091845542 -0.046079129 0.59847289
-0.07283318 -0.27625811 0.63540238
-0.074880227 -0.3050434 0.69766849
-0.1155553 -0.053228538 0.66626161
-0.1436889 -0.35791519 0.91881621
-0.05658637 -0.34340969 0.69629627
-0.09068729 -0.1707754 0.70279151
-0.078711227 -0.35997799 0.77753508
-0.13917761 -0.3578057 0.7792297
-0.1013812 -0.35823679 0.74068499
-0.1151354 -0.084381953 0.66322422
-0.1010655 -0.05109496 0.64385831
-0.1114354 -0.062365741 0.67965168
-0.1609008 -0.35588959 0.6722455
-0.1113806 -0.049472239 0.66614711
-0.0178125 -0.060280461 0.77237141
-0.1102894 -0.084393978 0.70290542
-0.1132789 -0.072580077 0.70231998
-0.1137725 -0.06115194 0.70027852
-0.084001213 -0.058422271 0.73341489
-0.076411054 -0.05750728 0.7420184
-0.062042721 -0.36095729 0.94434577
-0.1000182 -0.1385977 0.70640832
-0.113476 -0.1198688 0.67235398
-0.1106886 -0.12889791 0.66946882
-0.095769621 -0.1313816 0.64298862
-0.1155158 -0.080923252 0.68731368
-0.071998082 -0.1489511 0.76988101
-0.043165401 -0.35243699 0.86554742
-0.093864024 -0.22314531 0.69175309
-0.18378191 -0.35757819 0.86112303
-0.2159967 -0.35856831 0.68167502
-0.07071308 -0.1474335 0.76318967
-0.1155315 -0.073836967 0.69474602
-0.1080579 -0.093389727 0.69931251
-0.081828423 -0.26970941 0.71120089
-0.067582212 -0.335087 0.71649837
-0.078171171 -0.31810129 0.68059742
-0.1485126 -0.35818911 0.80332702
-0.1141716 -0.0575976 0.65210319
-0.1132567 -0.085682109 0.71393752
-0.094521813 -0.1834131 0.68016517
-0.083332047 -0.05678409 0.72468323
-0.099948719 -0.35968459 0.91135472
-0.069263443 -0.26564699 0.6186378
-0.072531812 -0.1454109 0.60852522
-0.080682203 -0.23365059 0.64133787
-0.096198753 -0.22515079 0.69142443
-0.1050662 -0.056925051 0.71606082
-0.090751551 -0.2275169 0.68082488
-0.1097184 -0.054193411 0.68039447
-0.01319862 -0.2994054 0.80305332
-0.1128481 -0.097622439 0.66345781
-0.067694448 -0.36027721 0.46455741
-0.069162391 -0.089662731 0.78746951
-0.1147642 -0.068390243 0.71144003
-0.095650718 -0.2082614 0.69917858
-0.089354508 -0.21496411 0.68311018
-0.060368441 -0.29537469 0.73914868
-0.090056129 -0.1742892 0.69687217
-0.070348471 -0.05391825 0.71494222
-0.095767282 -0.15760989 0.68481159
-0.07791888 -0.3589223 0.96319181
-0.066108488 -0.2451624 0.61368108
-0.13586961 -0.35737979 0.6264599
-0.05642166 -0.35983369 0.48009849
-0.06661386 -0.24420621 0.6215176
-0.113544 -0.1050569 0.66837072
-0.04431491 -0.34405321 0.60148239
-0.1543178 -0.3615669 0.86915922
-0.1071367 -0.1165185 0.70116568
-0.1012228 -0.1914096 0.69616282
-0.089523047 -0.2014717 0.70456231
0.01557724 -0.04081754 0.60288078
-0.1919807 -0.35461271 0.73128867
-0.063442931 -0.26445779 0.7486673
-0.037873451 -0.34768659 0.74825782
-0.1173857 -0.072929442 0.6756708
-0.022903441 -0.2032712 0.8198663
-0.02158221 -0.33318421 0.56942463
0.042650871 -0.043775968 0.60725522
-0.086741813 -0.054197822 0.71751052
-0.077184767 -0.2884984 0.69204909
-0.025374319 -0.063507557 0.80123532
-0.01224888 -0.30925149 0.79010803
-0.074765667 -0.361009 0.92794311
-0.063915603 -0.2255623 0.74945378
-0.065462612 -0.20462909 0.75086081
2.858989e-05 -0.3614378 0.86080217
-0.1146333 -0.1197593 0.68435961
-0.015982039 -0.35915279 0.95162708
-0.001844575 -0.34103301 0.80288148
-0.1102556 -0.077564217 0.71876448
-0.077456906 -0.059158731 0.7421568
-0.089592293 -0.2189794 0.66740191
-0.088231258 -0.2019559 0.68231112
-0.1070118 -0.087472834 0.72309351
-0.1103199 -0.36019349 0.89103591
-0.1368351 -0.35878539 0.76115221
-0.095858566 -0.1910671 0.69266641
-0.084037833 -0.055739582 0.71668059
-0.1127323 -0.05967233 0.69583911
-0.087222137 -0.053659499 0.6213578
-0.092566103 -0.186151 0.64239931
-0.063630991 -0.20374811 0.7721613
-0.0413789 -0.1714555 0.79654908
-0.074748643 -0.09368623 0.77739447
-0.1187886 -0.054032169 0.66819799
-0.1091598 -0.10037 0.68762022
-0.1511807 -0.359231 0.89252168
-0.097194403 -0.1595715 0.6538738
-0.096828997 -0.050520841 0.64372319
-0.00065660878 -0.045428291 0.59586418
-0.086674102 -0.05117077 0.62812018
-0.080781892 -0.2447044 0.7136147
-0.094766669 -0.1860404 0.70068002
-0.078106157 -0.2910161 0.70349687
0.068198308 -0.362634 0.92949629
-0.065340102 -0.16898011 0.77620578
-0.070047393 -0.18839429 0.76063722
-0.080626853 -0.2854228 0.71680999
-0.036475912 -0.1764587 0.80557072
-0.05032482 -0.35676089 0.7639299
-0.1125626 -0.1007541 0.67961669
-0.144731 -0.357833 0.80350399
-0.1141567 -0.067111343 0.6790629
-0.094343543 -0.3610971 0.9434132
-0.071661793 -0.06432493 0.78727281
-0.02463039 -0.2663112 0.79223567
-0.1307762 -0.3574411 0.75768828
-0.1116815 -0.061445989 0.7156381
-0.1065529 -0.06101111 0.72445983
-0.056950901 -0.35146269 0.63334513
-0.078230903 -0.25996831 0.71426398
-0.022072701 -0.1261192 0.81606728
-0.029481171 -0.13434041 0.81184638
-0.030311801 -0.064905182 0.79881239
0.1578823 -0.36658731 0.90304208
-0.070123978 -0.1710418 0.77298468
-0.1815438 -0.35633671 0.79315561
-0.01546703 -0.2355423 0.80475652
-0.058684491 -0.28339121 0.74167722
-0.06595432 -0.32694909 0.72344172
-0.1104472 -0.079511508 0.70991671
-0.016572971 -0.36088309 0.96197963
-0.05071421 -0.31476969 0.74965441
-0.1039065 -0.1362233 0.67856812
-0.098517813 -0.1281348 0.65101808
-0.098324217 -0.17133319 0.67238718
-0.20572001 -0.3543162 0.8118453
-0.1066967 -0.05287968 0.65047961
-0.098298237 -0.1726533 0.67118388
-0.054614682 -0.2290307 0.77400029
0.045241758 -0.04423004 0.61313027
-0.082751237 -0.24364451 0.71162587
-0.073781341 -0.077180713 0.78402841
0.06038503 -0.3660875 0.85639578
-0.043194529 -0.1544375 0.798729
-0.2137294 -0.3586466 0.89044189
-0.069757409 -0.1598195 0.77254331
-0.071894743 -0.054643419 0.74764937
-0.02289873 -0.3446615 0.7690109
0.063732602 -0.36647889 0.83677018
-0.082051389 -0.29061061 0.71137571
-0.061068852 -0.196758 0.77342409
-0.094937563 -0.059334029 0.73159409
-0.15542141 -0.35917389 0.87571079
-0.073047243 -0.092823133 0.7812112
-0.1169614 -0.06159066 0.6575886
-0.1086756 -0.057395332 0.7212581
-0.06150452 -0.344289 0.71682131
-0.072029203 -0.051011309 0.65789872
-0.1175567 -0.059779201 0.6727336
-0.15640239 -0.35969079 0.4709996
-0.065192997 -0.35876831 0.4412978
-0.18057001 -0.36125341 0.51783031
-0.073328607 -0.2613413 0.63064021
-0.070270501 -0.26922959 0.63337189
-0.066307463 -0.2432204 0.75132561
-0.084271044 -0.2236819 0.70649749
-0.1073838 -0.35846829 0.89601392
-0.1696865 -0.3588261 0.86738282
-0.197477 -0.36186221 0.91244811
-0.0139216 -0.049777079 0.66893083
-0.0076262588 -0.2886076 0.80968928
-0.021232011 -0.3623125 0.53255862
-0.093043409 -0.16365729 0.64103007
-0.090066731 -0.22158229 0.67246211
-0.042776588 -0.18614531 0.58656877
-0.065566763 -0.2621356 0.61345911
0.0060241641 -0.04593686 0.59284133
0.059316121 -0.044509269 0.61178428
-0.089255109 -0.2228663 0.65812612
-0.03978261 -0.36042789 0.86342752
0.063264839 -0.05339906 0.61739111
-0.070522606 -0.31073201 0.65272897
-0.09734945 -0.054782469 0.63537818
-0.1157242 -0.053741869 0.66126758
-0.036467388 -0.080067821 0.59352368
-0.036530498 -0.19938859 0.80164492
-0.08591757 -0.19937021 0.71067983
-0.1190747 -0.076081201 0.67114991
0.093233228 -0.056105949 0.72499132
0.3455123 -0.3696242 0.34365281
0.17877349 -0.36098149 0.38490531
0.01848291 -0.065314136 0.80865192
-0.04289094 -0.1547464 0.79918718
-0.023029599 -0.26151991 0.799824
-0.041823629 -0.27384111 0.58890569
-0.1609854 -0.36318049 0.47297019
0.2729173 -0.36489439 0.37668961
0.2100099 -0.36903679 0.93110043
-0.1859045 -0.3561464 0.73011571
0.034448888 -0.36043039 0.8206926
0.2573919 -0.36473191 0.37115571
0.077211887 -0.36496511 0.85748953
-0.00423645 -0.064858519 0.80204982
0.2197106 -0.3644174 0.76609832
0.2099836 -0.36670509 0.77637058
0.1253279 -0.3646577 0.74690747
0.034501892 -0.05239312 0.73024648
-0.002005894 -0.3645438 0.86100638
0.0143517 -0.067110322 0.81004149
0.095242031 -0.34527531 0.76588088
0.2254328 -0.3671594 0.75432831
0.04255984 -0.065571502 0.79971009
-0.071525089 -0.054967519 0.71407288
-0.071205087 -0.057248399 0.73666501
0.12688281 -0.3671402 0.73779267
0.2134891 -0.36222619 0.72012419
-0.077409327 -0.058266081 0.74240178
0.042120431 -0.067392647 0.79625899
0.046129212 -0.047279559 0.67036128
0.068968959 -0.36678961 0.84553051
-0.032387089 -0.060325071 0.77715689
-0.083531737 -0.055559501 0.72465652
0.060081668 -0.065616123 0.79037321
0.068840086 -0.36626679 0.93014711
-0.072625592 -0.363125 0.8679415
0.066221051 -0.080529243 0.79002303
0.075709738 -0.36171979 0.79010278
0.059460629 -0.36496621 0.87693501
0.060098361 -0.070416927 0.79141212
0.076625533 -0.044088218 0.62920243
0.074008062 -0.06045733 0.77183199
0.1704616 -0.36444411 0.863518
0.24186049 -0.36951569 0.76253712
0.1502175 -0.3677384 0.89776731
-0.036054809 -0.3600511 0.86569548
0.1697637 -0.36659801 0.84772271
0.2043969 -0.36261389 0.64146131
0.081999101 -0.06138777 0.76792967
0.083690278 -0.059956141 0.76275629
-0.072574623 -0.36279419 0.87159193
0.1296144 -0.18553799 0.66762459
0.08094541 -0.36594671 0.87407738
-0.0637049 -0.36272851 0.94571561
-0.14354929 -0.36153039 0.91808808
0.1618617 -0.36569151 0.90886331
0.26844749 -0.36437011 0.74055183
-0.016093601 -0.36279109 0.95309162
0.096921608 -0.05429773 0.72178978
-0.1430496 -0.3626624 0.89120752
-0.123473 -0.36053801 0.91157663
-0.1527302 -0.36053371 0.89266151
-0.1030954 -0.35788089 0.87772691
-0.1577469 -0.3640303 0.87449789
0.066622451 -0.36557961 0.90132058
0.1661206 -0.3626737 0.63035458
-0.1339196 -0.36231169 0.92154539
0.2123515 -0.36701819 0.75471318
-0.077843986 -0.36243781 0.96328562
-0.095425807 -0.36085209 0.9426384
0.2186452 -0.3657113 0.57946652
0.1039292 -0.087719187 0.72951281
0.135804 -0.3674621 0.96925682
0.049632389 -0.36553451 0.983518
-0.017321929 -0.36247551 0.96277177
0.065625697 -0.36357689 0.95581043
-0.018535679 -0.36330459 0.97789472
0.075087577 -0.069949329 0.77686632
0.24632891 -0.3643789 0.75500768
0.2859537 -0.36908829 0.72912472
0.2002212 -0.36524531 0.97899598
0.1127103 -0.1699443 0.73461157
-0.0047097579 -0.35047859 0.79567838
-0.004613406 -0.072266683 0.80288452
0.095436148 -0.05941933 0.73993713
0.29543599 -0.37111869 0.75842071
0.2147278 -0.3675645 0.73056912
0.13411 -0.35114619 0.7141242
0.2171303 -0.3664006 0.84354907
0.2497092 -0.36352491 0.91809642
0.094256014 -0.05575135 0.73627108
0.099834763 -0.36594161 0.83628559
0.078542203 -0.3376193 0.77106851
-0.05234535 -0.054150108 0.72020382
0.103099 -0.061742369 0.71488088
-0.01347189 -0.31199461 0.79366279
0.2635583 -0.36379981 0.75410622
0.1695216 -0.36314541 0.53675812
0.082203053 -0.078484669 0.77716589
0.055397939 -0.36655161 0.81442559
0.25089219 -0.37124389 0.74374568
0.1021544 -0.047883701 0.69543612
0.098873563 -0.04947241 0.69820678
-0.086005591 -0.058089498 0.73592299
0.056777809 -0.36742741 0.96082318
0.099485628 -0.0474393 0.68026829
0.32396311 -0.3673138 0.8319487
0.1103827 -0.179205 0.74130702
0.2417883 -0.36357981 0.60047913
-0.0079498002 -0.31418419 0.7997331
0.1663768 -0.3572101 0.59957951
0.046460081 -0.3565954 0.2228521
0.32305509 -0.36735329 0.85247451
0.1634649 -0.36315799 0.62898737
0.053331479 -0.064274237 0.78837949
0.089111172 -0.062474031 0.75713778
0.2390434 -0.36926809 0.72108603
0.1502939 -0.35882661 0.51312768
0.069771603 -0.36498639 0.89739197
0.072621107 -0.06746237 0.77747118
0.065099433 -0.3668994 0.9984144
-0.18547229 -0.36119431 0.86028081
-0.1649369 -0.35970229 0.87191212
0.14280739 -0.36215329 0.70292503
0.073524684 -0.37256441 0.90489799
-0.01545428 -0.051309291 0.674613
0.057684612 -0.3682301 0.99598181
0.27718279 -0.36673471 0.58534038
0.090116993 -0.061682489 0.74599111
0.080533303 -0.071941033 0.77156901
0.2614086 -0.3665424 0.75109059
-0.049392089 -0.36458749 0.86906129
0.081281431 -0.046934862 0.6478141
0.077309862 -0.36779389 0.2796365
0.021930071 -0.35936669 0.28267679
-0.1087463 -0.05372221 0.66932648
-0.1049247 -0.053917129 0.69630438
-0.1164605 -0.056179538 0.66773218
-0.016617799 -0.29177999 0.80311078
-0.25554171 -0.36201379 0.77818638
0.099920258 -0.070025757 0.73495227
0.28388709 -0.36973381 0.84418279
0.2808226 -0.36733559 0.72511828
0.1135384 -0.1747506 0.73312819
0.088962942 -0.056864671 0.73950708
-0.1024678 -0.36380821 0.9111771
0.1008474 -0.064119712 0.72481543
0.087915778 -0.046768349 0.6619097
-0.01844593 -0.062250718 0.7697413
0.064184807 -0.065952688 0.78299272
0.04778992 -0.36545289 1.0308959
0.001130125 -0.32454029 0.78645182
0.13299149 -0.36554801 0.97625792
0.16924921 -0.3657147 0.98247713
0.3431761 -0.36944059 0.80028403
0.32589611 -0.3689661 0.81507438
0.20786799 -0.36575729 0.92019051
0.30589151 -0.36876979 0.81426507
0.3294746 -0.36808401 0.82733232
0.3124249 -0.36633331 0.83655941
0.30605781 -0.36776379 0.84239429
-0.139401 -0.36214069 0.87909442
0.3033995 -0.367845 0.79046679
0.20343751 -0.36447951 0.83095223
0.062632337 -0.3622061 1.0247411
-0.3207615 -0.35811821 0.75840068
-0.035760932 -0.127369 0.80887038
0.1243097 -0.3714056 1.03953
-0.25162429 -0.3616243 0.77834219
-0.0093510952 -0.32026511 0.80165118
0.2595188 -0.3661474 0.70315188
0.15187851 -0.3672007 0.96751457
0.1641427 -0.36468339 0.68610191
0.27547199 -0.36555091 0.60168278
0.30681759 -0.36807939 0.75566423
0.094665863 -0.36863819 1.045722
0.1678787 -0.36637059 0.99601072
0.29131809 -0.36878401 0.71974522
0.1335409 -0.23708171 0.69756442
0.043533899 -0.36531201 0.97911811
0.3276749 -0.36816519 0.85134691
0.26765579 -0.3686398 0.76085699
0.2957904 -0.37224299 0.73808181
0.1638957 -0.3635028 0.84619027
-0.055594999 -0.36256361 0.94591677
0.31462449 -0.3706305 0.76258051
0.32119551 -0.37048769 0.71865219
0.33335069 -0.3760311 0.76088959
0.2957665 -0.3704291 0.60097748
0.33803901 -0.36618829 0.76705039
0.29287139 -0.36684239 0.77473778
0.29459181 -0.37071171 0.61733079
0.30675709 -0.37462869 0.79790509
0.32563531 -0.36803609 0.72495669
0.31896451 -0.37614369 0.68476218
-0.02139321 -0.1468042 0.81363159
0.2351997 -0.3675991 0.76569372
0.2295388 -0.368016 0.76394928
0.24103449 -0.36541739 0.75430131
0.05696588 -0.37573671 1.010408
0.06504593 -0.3735356 0.79951268
0.2080158 -0.366905 0.76871902
0.03010706 -0.3704055 0.81842732
0.30315849 -0.3688142 0.79840332
0.047082681 -0.37092149 0.9550826
0.052007861 -0.36797661 0.87616187
0.049589761 -0.36861601 0.92199719
0.1631407 -0.3668783 0.98831868
-0.00340251 -0.34365669 0.79310459
0.2802085 -0.3698239 0.83869117
0.26753229 -0.37758619 0.79689449
0.1259027 -0.36416909 0.82018238
0.34398589 -0.3708542 0.77020288
0.3394118 -0.3693943 0.73919219
-0.089116208 -0.3689453 0.92452639
0.2099268 -0.363139 0.77400422
0.31247821 -0.36698601 0.81415123
0.1941002 -0.36739159 0.98035491
0.16498961 -0.3677721 0.94388491
0.047918521 -0.37115249 0.95532608
0.048345961 -0.36915061 0.98332798
0.1741202 -0.36887109 0.98615128
0.1569958 -0.37030599 0.96848768
0.1078426 -0.3723985 1.054859
0.18688031 -0.35948011 0.45090041
0.30417839 -0.363767 0.61161101
0.29616481 -0.36435601 0.6027416
0.27420929 -0.36151969 0.58478528
0.2169044 -0.35928971 0.58058
0.13617539 -0.3566184 0.3999339
0.095732413 -0.35698619 0.38300419
0.2067744 -0.36126271 0.56387818
0.30127919 -0.3640835 0.76287919
0.2081324 -0.35634869 0.58638632
0.2130872 -0.35762531 0.63820589
0.079099357 -0.2542564 0.56727141
0.064320989 -0.35169929 0.56886768
0.021787209 -0.13810401 0.58135772
0.087432057 -0.26331699 0.56893468
0.01291171 -0.041248959 0.59592599
-0.005589908 -0.048859011 0.58624351
0.070261367 -0.32317501 0.57244599
0.0077606481 -0.15146001 0.58153462
-0.001520358 -0.051540669 0.58807671
0.036371268 -0.32683489 0.56563538
0.025183121 -0.044658381 0.6043399
0.0044906819 -0.14753629 0.58145851
-0.01251107 -0.06019723 0.6027692
0.027906099 -0.1727449 0.57994449
-0.02129175 -0.35175279 0.53490877
-0.05799998 -0.35516649 0.4808875
-0.01581276 -0.32279351 0.56440938
0.0098288152 -0.3359834 0.56040227
-0.077181868 -0.051397081 0.61337513
-0.039252508 -0.047111209 0.60072559
-0.027397189 -0.046654519 0.60270518
-0.033642929 -0.043896131 0.60367489
-0.069339387 -0.35024881 0.43956009
-0.084567793 -0.18986221 0.62755471
-0.066220917 -0.35360801 0.4488939
-0.01504035 -0.050424099 0.60267287
-0.060374979 -0.04875258 0.59998667
0.0071455352 -0.26672289 0.56674099
-0.084410332 -0.054075509 0.61712402
-0.060803361 -0.31466269 0.59538329
-0.067466423 -0.35688269 0.55446613
-0.064165033 -0.35170209 0.426725
0.029679511 -0.3638368 0.54546517
0.029947219 -0.13429409 0.58456928
0.016077889 -0.2313924 0.57202762
-0.040239431 -0.35468701 0.55974132
-0.03127918 -0.13668071 0.57907122
0.064792164 -0.3558085 0.57055843
0.008281216 -0.16707321 0.58077419
0.033751082 -0.1563035 0.57267767
0.1070598 -0.1633046 0.62462282
-0.063343696 -0.36030081 0.55885971
-0.024099501 -0.2306318 0.57414901
0.041496228 -0.13876639 0.57821018
0.0155081 -0.092558317 0.58490658
-0.01161405 -0.099765301 0.59028769
0.040642601 -0.038887911 0.60346621
-0.0059900838 -0.120038 0.58908772
-0.01408288 -0.083303563 0.59318233
-0.01254892 -0.1183518 0.59203899
-0.068523087 -0.1483756 0.59989673
-0.0092067681 -0.093697257 0.59211981
0.0054108528 -0.14341091 0.58400732
-0.01722222 -0.33900309 0.56322151
-0.02298929 -0.21188579 0.58299899
-0.038939528 -0.2865006 0.57674748
-0.040089611 -0.070656776 0.59678042
-0.03038528 -0.093517229 0.59304982
0.04599433 -0.048900861 0.5992409
-0.02728655 -0.1147819 0.59056038
-0.068226174 -0.27605981 0.61238122
-0.064587429 -0.1428216 0.59994769
0.01436668 -0.13738561 0.58155078
-0.078266516 -0.35346231 0.50183511
-0.01906422 -0.2371563 0.57237017
-0.02696649 -0.27607191 0.57645959
0.054722048 -0.044865619 0.60678738
-0.03885084 -0.09438654 0.594594
-0.079100303 -0.35606271 0.43161809
-0.15451629 -0.35590029 0.86342531
-0.1144802 -0.086583868 0.66650552
0.38487461 -0.36968929 0.89619029
0.032817449 -0.1673968 0.57025141
0.1343313 -0.358015 0.58906168
-0.0070253108 -0.070577152 0.58707398
-0.05114191 -0.047853589 0.59657729
0.031382121 -0.31532681 0.56302953
-0.01515639 -0.1085925 0.58853048
0.090552703 -0.3546811 0.53234708
0.16741221 -0.35786071 0.53542751
0.14698289 -0.35891911 0.51335341
0.2895931 -0.36366019 0.5767265
0.0060887472 -0.087614983 0.58068353
0.1784081 -0.3569763 0.44640771
0.1382113 -0.3589581 0.5496183
0.18696029 -0.3515293 0.45461649
-0.1129885 -0.06068847 0.70025587
-0.075326659 -0.29147321 0.69194049
-0.091842897 -0.1835653 0.67921162
0.003091549 -0.35507709 0.85673511
-0.085680619 -0.056785408 0.73433828
-0.09998592 -0.1372586 0.7079348
-0.11072 -0.057261869 0.68377757
0.077212267 -0.36129189 0.85525841
-0.042033192 -0.152593 0.80070639
-0.1122035 -0.065486372 0.67608893
-0.1150276 -0.073344149 0.69403517
-0.1107783 -0.06053244 0.7144078
-0.069611691 -0.076735467 0.7824719
-0.086900063 -0.067902647 0.76334077
-0.025725819 -0.06133341 0.80334449
-0.046833619 -0.196041 0.79034227
-0.05918495 -0.33455959 0.72086072
-0.080085121 -0.24612311 0.71430099
-0.064620249 -0.1680373 0.77828228
-0.073206097 -0.091308422 0.780433
-0.03727562 -0.17342301 0.80478549
-0.056736171 -0.3562125 0.48131031
0.061677109 -0.36072421 0.85522318
-0.036257099 -0.2255598 0.79399902
-0.068374664 -0.16968741 0.77293408
-0.078851968 -0.25551081 0.71507913
-0.032474719 -0.21280921 0.79309273
-0.081393838 -0.057010941 0.74372041
-0.086362563 -0.056603778 0.71601892
-0.069401413 -0.090312287 0.78408062
-0.091374993 -0.2052512 0.70386279
-0.06174738 -0.1871386 0.7787205
-0.058388039 -0.2570397 0.75859898
-0.061071001 -0.3431592 0.71615952
-0.081695929 -0.065001503 0.76700038
-0.038933761 -0.18577801 0.79805309
-0.06197058 -0.083300292 0.79624617
-0.038802609 -0.15333439 0.80135882
-0.085491247 -0.064460419 0.75480849
-0.01522768 -0.057245381 0.77333641
-0.1007548 -0.071374401 0.72767973
-0.042922478 -0.3410604 0.74652427
-0.099395327 -0.13540579 0.69869071
-0.046153668 -0.18193489 0.79412478
-0.05120175 -0.26698509 0.76631337
-0.13548741 -0.35626981 0.62610298
-0.05456727 -0.066429392 0.80054343
-0.039872911 -0.34900409 0.74252379
-0.057980899 -0.2790736 0.74970227
-0.091303408 -0.05849456 0.72967052
-0.038816661 -0.17846709 0.80055648
-0.021962499 -0.3149893 0.77804112
-0.087123603 -0.0607347 0.75670379
-0.05031478 -0.29159001 0.75621212
-0.063804582 -0.1499334 0.78425419
-0.1143295 -0.068591118 0.68477988
-0.072831213 -0.092860512 0.77736998
-0.1025853 -0.054243669 0.72191912
0.12802351 -0.36073881 0.73874372
-0.072169296 -0.3099238 0.7035138
-0.044496302 -0.34759089 0.73525292
0.084882192 -0.36997589 0.77813828
0.0219853 -0.045329958 0.60315639
-0.1139925 -0.080095641 0.68496871
-0.1036286 -0.064605273 0.72380853
-0.053175282 -0.28726751 0.75053501
0.073119514 -0.28196779 0.79458481
-0.077266432 -0.27352101 0.70396048
-0.010265 -0.068509661 0.80343121
-0.069764152 -0.29382041 0.70998508
-0.091554031 -0.2072266 0.69267589
-0.058537189 -0.35772061 0.42322919
-0.1034291 -0.1182197 0.67379081
-0.048374061 -0.20907991 0.78141278
-0.03984464 -0.35746911 0.52705491
-0.1599488 -0.3567726 0.67057002
-0.079151541 -0.17261779 0.7082355
-0.023291949 -0.1275792 0.80964279
-0.054558732 -0.18364429 0.78688377
-0.079498038 -0.2455451 0.71603721
-0.05220535 -0.34925309 0.72083712
0.05760657 -0.36197999 0.8544541
-0.043956131 -0.34937999 0.56929648
-0.06012946 -0.1731361 0.7814731
-0.061601851 -0.20791321 0.77192527
-0.051820949 -0.24810091 0.76581872
-0.088685922 -0.2266839 0.70203471
-0.0543832 -0.067704521 0.79971838
-0.048592161 -0.060980201 0.79873449
-0.060621731 -0.2955547 0.62334412
-0.02555695 -0.097868808 0.80758339
-0.05286077 -0.2381005 0.76730323
-0.061881632 -0.31188059 0.7159819
-0.105592 -0.06089263 0.72384608
-0.022696789 -0.3190434 0.77877063
-0.042454921 -0.1945307 0.79004622
-0.04581362 -0.35369959 0.7302838
-0.09384805 -0.1973329 0.70184231
-0.065872893 -0.1913034 0.76846337
-0.1131609 -0.069381081 0.71579862
-0.09333466 -0.18984669 0.70251042
-0.072486542 -0.2404259 0.721147
-0.08970055 -0.22654299 0.68756688
-0.026635669 -0.35597929 0.75546342
-0.104184 -0.056906492 0.69280738
-0.09663564 -0.15220679 0.67163569
-0.062546857 -0.29993749 0.6014719
-0.06793721 -0.1785889 0.77226537
-0.055499341 -0.34392601 0.6653806
-0.074262142 -0.28793401 0.71083879
-0.023115139 -0.3503415 0.7582227
-0.1042116 -0.1308277 0.69820982
-0.082284071 -0.1699432 0.71127409
-0.057747051 -0.1651537 0.78343117
-0.01349864 -0.3539499 0.76853549
-0.074975409 -0.058116399 0.76218867
-0.046640862 -0.26024431 0.77266699
-0.02961468 -0.14217719 0.8024087
-0.0029007599 -0.34994289 0.77803218
-0.093998343 -0.062780097 0.73679048
-0.075430296 -0.059134599 0.77753198
-0.05523172 -0.22375339 0.77047008
0.069042772 -0.3596487 0.8475101
-0.070955068 -0.26504111 0.71160239
-0.091359869 -0.1423433 0.70979673
-0.02810955 -0.27836421 0.77981848
-0.027388571 -0.066912457 0.80619872
-0.04740544 -0.31708759 0.74802411
-0.066864736 -0.30371431 0.70523793
-0.065714411 -0.2360913 0.75387162
0.0089181401 -0.072367623 0.79690021
-0.1048177 -0.1029984 0.69282973
-0.043969929 -0.2740435 0.77281648
-0.05412823 -0.35291791 0.72579253
-0.083849989 -0.24703909 0.70216203
-0.0163376 -0.077768654 0.80629897
-0.01983396 -0.3226667 0.78598088
-0.033702459 -0.1655893 0.80666351
-0.025900129 -0.1253071 0.81352389
-0.02265968 -0.29954821 0.78324938
-0.01501468 -0.1253666 0.81500769
0.01284322 -0.089543797 0.80141968
-0.07426089 -0.099721313 0.76950502
-0.042025939 -0.067610718 0.79993021
-0.071495883 -0.062753104 0.78100258
-0.038399961 -0.1215748 0.80210042
-0.071613789 -0.1475618 0.77795792
-0.039939299 -0.1155543 0.80280262
-0.1119745 -0.05226671 0.72449827
0.24204139 -0.36325771 0.75324088
-0.039525758 -0.1669181 0.80092722
-0.02641006 -0.083322391 0.80455691
-0.026090501 -0.31693229 0.77326059
-0.06239922 -0.1861939 0.77026719
-0.088910937 -0.2174305 0.70422268
-0.098982602 -0.1305054 0.6773622
0.055925529 -0.3296127 0.78406048
-0.09477444 -0.093316287 0.72266579
-0.025736719 -0.29730251 0.77656972
-0.051609691 -0.27761349 0.7615307
0.01253893 -0.067776948 0.80967408
-0.1133483 -0.060991261 0.67062181
0.04287288 -0.046793301 0.60518032
-0.08067812 -0.056423869 0.74567461
-0.1660576 -0.35350481 0.51296443
-0.065407664 -0.31652641 0.70562822
-0.073143966 -0.2679486 0.63208741
0.019880081 -0.35389161 0.28752881
-0.03781594 -0.062419008 0.797988
-0.01622963 -0.26596019 0.79501259
0.063357957 -0.2366299 0.79905772
-0.03517957 -0.1835846 0.80596107
-0.1077203 -0.1017849 0.6758976
-0.030775821 -0.1597089 0.8100602
0.2483854 -0.36469349 0.7587589
-0.08211866 -0.18764859 0.71216673
0.0047947238 -0.067082681 0.80280149
-0.094147854 -0.1247161 0.71503931
0.01132286 -0.06342911 0.80404007
-0.032450929 -0.17122731 0.80955422
-0.080750033 -0.1639587 0.7156443
0.072723232 -0.319489 0.78864747
-0.002783221 -0.062615149 0.80126321
-0.04367768 -0.1747822 0.79138708
-0.064447507 -0.33870459 0.70235538
-0.06112751 -0.3576346 0.45024231
-0.076312989 -0.2342861 0.71774971
-0.03426145 -0.1287858 0.8016575
-0.093656123 -0.1625112 0.6754477
-0.071598217 -0.30297521 0.6576122
0.024762301 -0.19113781 0.80458349
-0.0075773192 -0.35449061 0.7705192
0.016782761 -0.084137119 0.80622327
0.0092003644 -0.3546882 0.78716582
-0.03100154 -0.2265211 0.79809558
-0.038695119 -0.36075771 0.86045128
-0.1144356 -0.35849729 0.79265273
-0.085435227 -0.23490129 0.7055825
-0.088507831 -0.216876 0.66081518
-0.1110464 -0.1433069 0.67499512
-0.058837309 -0.2095764 0.77431828
-0.04404068 -0.3648892 0.75876099
-0.21699619 -0.35562089 0.67075461
-0.1123919 -0.061930992 0.72213578
-0.02495626 -0.1308312 0.81814599
-0.189963 -0.35682479 0.7303791
-0.019303611 -0.35619149 0.76250029
-0.21466 -0.3579073 0.68138868
-0.069372341 -0.1291301 0.76039249
0.2296429 -0.36836931 0.75939548
-0.064040393 -0.3606042 0.76087052
-0.02381354 -0.25077799 0.78928
-0.1007574 -0.16573361 0.66913152
-0.043090701 -0.2064092 0.78439742
-0.04426771 -0.35315281 0.86602378
-0.1120183 -0.36024499 0.92204028
-0.1053545 -0.35999441 0.89556658
-0.1074289 -0.35921061 0.9070527
-0.032482471 -0.36292231 0.86621028
-0.063491844 -0.3371689 0.71327043
-0.070323348 -0.1736429 0.76463538
-0.05706818 -0.3111355 0.732346
0.029705061 -0.20356271 0.81081998
-0.046696872 -0.3466275 0.86299193
0.1228205 -0.36072841 0.82304418
-0.053802758 -0.2990683 0.73521841
-0.065758079 -0.2021385 0.75218987
-0.071713433 -0.1264457 0.78260839
0.32203791 -0.3667343 0.67726749
-0.071584098 -0.05730775 0.76932162
-0.137198 -0.3597264 0.77720243
-0.03003197 -0.19008429 0.81236231
0.39697519 -0.3751913 0.68489379
-0.062556438 -0.20547161 0.76694667
-0.1444488 -0.36084059 0.80097753
-0.01387253 -0.3486076 0.76714402
-0.03669339 -0.21544489 0.7886374
-0.1326129 -0.35844481 0.77261722
-0.1365815 -0.3574132 0.7599805
-0.096371911 -0.36102679 0.910649
-0.037104309 -0.25362501 0.7812047
0.13228799 -0.2055607 0.65879238
0.1115098 -0.08826565 0.67050278
0.14262129 -0.27051839 0.66867793
0.1526217 -0.35302469 0.66870803
0.1446465 -0.30300671 0.63910139
0.068696417 -0.120393 0.59413612
0.1097735 -0.1222064 0.64049852
0.1027004 -0.2386439 0.59104961
-0.05641653 -0.35439959 0.47908041
0.1464816 -0.3096039 0.63877302
0.1325103 -0.30746731 0.61396003
0.1453114 -0.31532681 0.63482738
0.14808419 -0.35556969 0.65546238
0.098005347 -0.18490431 0.60829788
0.1498851 -0.36010399 0.49075499
0.1171017 -0.20319501 0.62242001
0.057160322 -0.3601805 0.56266463
0.098939039 -0.15995909 0.62385988
0.1038083 -0.29471621 0.58784401
0.117961 -0.28105199 0.60411882
0.119427 -0.300035 0.59948421
-0.018141819 -0.35465351 0.53470081
0.14044391 -0.2867696 0.63911468
0.088786997 -0.3387911 0.58183622
0.095273517 -0.34295779 0.59373927
0.050972689 -0.36056399 0.95376658
0.083691493 -0.25584459 0.56834978
0.1150465 -0.28729379 0.5982331
0.0024301319 -0.33170009 0.56024969
0.1106687 -0.35068169 0.60203439
0.067708373 -0.32282701 0.56895691
0.048598122 -0.29430461 0.57365012
0.2146661 -0.35982341 0.65475869
0.18841331 -0.35983369 0.4502359
0.13882411 -0.30545649 0.62584943
0.1477315 -0.35851541 0.5159663
0.1133093 -0.3400808 0.60804349
0.2118994 -0.35928369 0.58793598
0.1138106 -0.2382139 0.60257852
0.2122083 -0.3580322 0.56907618
0.2082345 -0.36112589 0.56363273
0.090172946 -0.2485996 0.57632661
0.28741699 -0.3617737 0.72741628
0.12885509 -0.176184 0.65930492
0.1239063 -0.34797901 0.61994922
0.2242306 -0.36019129 0.47854981
0.2784268 -0.3618708 0.58617091
0.070071712 -0.35364461 0.57702577
0.077546902 -0.3403413 0.57369602
0.31866881 -0.3633177 0.664729
0.2242184 -0.36059079 0.64782709
0.1015942 -0.33829251 0.5977397
0.1298504 -0.345714 0.63629693
0.108869 -0.1236906 0.63865763
0.27599931 -0.36079809 0.59968883
0.07091555 -0.3319056 0.57253218
0.01595843 -0.3492927 0.5650928
0.02790194 -0.36311841 1.2138031
0.1039335 -0.2309764 0.59238088
0.1373536 -0.3588717 0.58929312
0.1148282 -0.090458617 0.69947988
0.28606111 -0.36049929 0.64657497
0.2959196 -0.36285931 0.61744362
0.13928381 -0.34847921 0.65337652
0.1204895 -0.1495482 0.65558612
0.13184389 -0.22494601 0.6373865
0.02532143 -0.088204071 0.58973312
0.01135246 -0.1561753 0.57956499
0.04362097 -0.1616607 0.57315153
0.2715115 -0.3601591 0.73698252
0.30801779 -0.36435479 0.61010528
0.28797501 -0.36072421 0.58656287
0.29785669 -0.3623971 0.59887391
0.1623842 -0.36109579 0.41741279
0.140632 -0.3590447 0.3992714
0.2901457 -0.36372951 0.56733882
0.134139 -0.2829603 0.62349099
0.05557872 -0.3434833 0.5688929
0.09091071 -0.35814899 0.52743202
0.2984058 -0.36469021 0.58639908
-0.070270151 -0.3561995 0.44210371
0.3125051 -0.36533371 0.60450512
0.082970642 -0.36432809 0.5704239
0.1121697 -0.088681668 0.66006619
0.1103326 -0.1011613 0.64510089
0.32488331 -0.36379671 0.60325819
0.1018562 -0.078580149 0.65115172
0.1094157 -0.092445053 0.64824802
0.01098247 -0.1348999 0.58335578
0.096833013 -0.07012222 0.64803863
0.27707431 -0.35953981 0.58298087
0.082236879 -0.25689989 0.56911153
0.342112 -0.36450011 0.60001802
0.090480022 -0.071899287 0.6256116
0.030072579 -0.3437207 0.56804627
0.0071158321 -0.151315 0.58015239
0.01287711 -0.32812041 0.56487662
0.1277708 -0.29489559 0.60225981
0.3349835 -0.3623679 0.57514322
0.1066418 -0.3427476 0.59999877
0.2151663 -0.36038059 0.73639959
0.34313381 -0.36503461 0.57650518
-0.04451618 -0.35707229 0.52864432
0.0068537001 -0.33650061 0.55935591
-0.03454607 -0.2964029 0.5768913
-0.022047769 -0.2430457 0.57702023
0.099675477 -0.3218531 0.58688241
0.0312264 -0.36270559 0.54200733
0.088920102 -0.3611331 0.55337989
0.100817 -0.26757541 0.5783993
0.101563 -0.071978197 0.65034127
0.16664089 -0.36638519 0.4179593
-0.007277736 -0.1431627 0.58476388
0.1096163 -0.080579698 0.65331548
0.33990151 -0.36334759 0.5679279
-0.016395541 -0.24019571 0.56691712
-0.02038911 -0.23380271 0.5771786
0.2211182 -0.36117369 0.57775187
0.115422 -0.1342492 0.63417739
0.1218773 -0.2430578 0.60688663
0.096573092 -0.2855472 0.57506597
0.0077994042 -0.33241409 0.56235713
0.1072418 -0.14165489 0.63009959
0.15023839 -0.36046731 0.6441893
0.1164908 -0.1550768 0.62996668
0.082692787 -0.3608321 0.48562381
0.1444246 -0.3320761 0.64316148
0.08974646 -0.33657509 0.58290899
0.097665243 -0.3287003 0.58550292
0.1111242 -0.33730289 0.60467547
0.3117992 -0.36269 0.56337619
0.30077901 -0.3630124 0.51560593
-0.0113245 -0.1015023 0.59087068
0.1164961 -0.121133 0.64440238
-9.3371607e-05 -0.1575609 0.57800591
0.1158017 -0.1670723 0.62188309
0.332596 -0.36419499 0.52611798
0.089400567 -0.09782397 0.62182099
0.05872184 -0.14865801 0.5781554
0.1134446 -0.1152384 0.63953698
0.01024832 -0.32148501 0.56338972
0.1253791 -0.2437488 0.61166781
0.1179112 -0.26253289 0.60386688
-0.041870501 -0.282949 0.575257
-0.068494678 -0.35519919 0.55579108
-0.043097589 -0.34137449 0.59912533
-0.05817762 -0.3554129 0.4825688
-0.040059701 -0.35596311 0.52672362
-0.073358767 -0.14240851 0.60944378
-0.078292198 -0.21592949 0.63254678
-0.01352836 -0.3232868 0.56521839
-0.060478251 -0.34583491 0.63291681
-0.086169481 -0.1601036 0.63385493
-0.062800497 -0.31052381 0.59501427
-0.065974392 -0.35432491 0.55684382
-0.082029752 -0.2181015 0.64006752
-0.073281333 -0.241708 0.62721229
-0.094818532 -0.1313463 0.64297211
-0.073758483 -0.27407441 0.63733238
-0.051128801 -0.2281695 0.59257311
-0.091476001 -0.1870698 0.64356989
-0.08713413 -0.2392111 0.67526662
-0.075467028 -0.3061932 0.69853508
-0.077858023 -0.2019756 0.63099211
-0.1120909 -0.093873419 0.6582244
-0.2023312 -0.35534 0.54604918
-0.077706151 -0.28723601 0.7056129
-0.099320509 -0.35504669 0.71861708
-0.1092897 -0.083580613 0.70289528
-0.05026808 -0.35433209 0.60323381
-0.095071897 -0.1622279 0.63652861
-0.065091804 -0.33480939 0.71404183
-0.064225167 -0.34213489 0.64338428
-0.072868466 -0.26888371 0.62814099
-0.070962109 -0.26194221 0.62038922
-0.077131823 -0.28958619 0.69285327
-0.1611847 -0.3544347 0.67264318
-0.047141951 -0.3509334 0.61386532
-0.032905329 -0.35344011 0.53076518
-0.073100083 -0.2065305 0.62486571
-0.069457367 -0.2400002 0.62840748
-0.088290147 -0.35233241 0.77692592
-0.068133287 -0.28217101 0.62986028
-0.082115144 -0.35477951 0.68439847
-0.098521888 -0.1815493 0.67058289
-0.1006501 -0.14344729 0.65342188
-0.066018641 -0.2985135 0.61799109
-0.088776089 -0.2131694 0.68309301
-0.1209608 -0.063315697 0.66343689
-0.07178665 -0.30130219 0.65562117
-0.06785167 -0.25793031 0.61404538
-0.190477 -0.3542411 0.73063719
-0.085834913 -0.054790471 0.62072963
-0.098409347 -0.3558884 0.83844841
-0.1225277 -0.063200668 0.65838122
-0.1154191 -0.072494857 0.67530352
-0.1131557 -0.1042788 0.66792649
-0.075755432 -0.27360189 0.66557372
-0.2157581 -0.35543549 0.66906142
-0.2153922 -0.35493359 0.68219751
-0.080717213 -0.1217036 0.62175429
-0.095875278 -0.35893899 0.86072999
-0.091910243 -0.2269927 0.68002498
-0.090976909 -0.22037169 0.65732032
-0.1068318 -0.1301406 0.6687935
-0.1125865 -0.070928857 0.70211238
-0.100519 -0.1258596 0.65188438
-0.092541777 -0.211886 0.65536928
-0.1572281 -0.35540509 0.47318539
-0.066674419 -0.24128041 0.62196088
-0.114142 -0.095734887 0.66258222
-0.09414354 -0.1843646 0.70067191
-0.19020879 -0.3534016 0.71862602
-0.1153082 -0.081687033 0.68067962
-0.096527733 -0.1894697 0.69256121
-0.1146302 -0.073918492 0.69410282
0.042622391 -0.2413263 0.56361473
0.1744239 -0.36160141 0.48004249
-0.045218971 -0.29103971 0.5791502
-0.036611728 -0.3515636 0.53054929
-0.064575009 -0.2235114 0.74894089
-0.1108813 -0.065283202 0.70999992
-0.066370957 -0.32879809 0.67210799
-0.065155163 -0.34656721 0.66301179
-0.066342741 -0.24561059 0.61506867
-0.1200171 -0.059118468 0.66211069
-0.068705663 -0.2203825 0.75430351
-0.079145677 -0.04905976 0.61255562
-0.072037727 -0.075931452 0.78404051
-0.1128336 -0.05819004 0.70320171
-0.075479679 -0.093167327 0.7790013
-0.073738813 -0.2510978 0.63862252
-0.065898553 -0.30208829 0.60061908
-0.055792902 -0.35538721 0.6898514
-0.038759481 -0.35863659 0.86647218
-0.1188972 -0.063910991 0.65404892
-0.108349 -0.12884299 0.68171549
-0.067317598 -0.18194631 0.75534117
-0.1495308 -0.3541787 0.80322587
-0.068824492 -0.28669029 0.63064039
-0.1145589 -0.057830252 0.65034109
-0.064468451 -0.32501379 0.70300961
-0.116378 -0.082423367 0.67595148
-0.096676707 -0.18093359 0.67011088
-0.08822979 -0.1891088 0.63184237
-0.074046344 -0.29153359 0.69349492
-0.087522522 -0.2397663 0.68099183
0.007316194 -0.3089003 0.55166751
-0.1143375 -0.0554028 0.65123647
-0.0589348 -0.29398221 0.73898268
-0.053977311 -0.316585 0.73995829
-0.1139787 -0.081366479 0.71413833
-0.0953632 -0.20608319 0.70157129
-0.062207211 -0.22738799 0.60652691
-0.112851 -0.088741757 0.6909306
-0.094862759 -0.1810431 0.68077809
-0.089722008 -0.1720461 0.69744259
-0.091147877 -0.2125856 0.68395817
-0.09393438 -0.2264684 0.69223273
-0.1142755 -0.06822402 0.67615938
-0.1124184 -0.05441954 0.68902791
-0.082135908 -0.2350502 0.6481654
-0.084701329 -0.231668 0.67226207
-0.074896678 -0.2939851 0.70091963
-0.05679037 -0.31009209 0.73129171
-0.058496919 -0.2658838 0.74818742
-0.1124097 -0.076781191 0.70983309
-0.068131387 -0.161557 0.75940192
-0.086962678 -0.2344052 0.70337582
-0.040180162 -0.34316269 0.74917227
-0.066222981 -0.2195002 0.61795622
-6.984928e-05 -0.358812 0.86096948
-0.059933979 -0.34840259 0.67521721
-0.068664223 -0.17439041 0.76422912
-0.067881972 -0.1887272 0.76034158
-0.054599758 -0.35659149 0.60951942
-0.093241327 -0.15851291 0.68459803
-0.1152113 -0.089624926 0.66497368
-0.074931063 -0.054428291 0.61020339
0.046483129 -0.2308201 0.56459951
-0.02629384 -0.242579 0.79819429
-0.1150383 -0.077256434 0.69486749
-0.114052 -0.079895213 0.68682313
-0.057828829 -0.28304109 0.7412079
-0.070661373 -0.3044928 0.65418619
-0.059487201 -0.35347959 0.64518863
-0.072396562 -0.27602091 0.64217383
-0.13278329 -0.35844061 0.62415588
-0.091926657 -0.1969723 0.68334728
-0.1118386 -0.058578022 0.69558221
-0.072630063 -0.2254255 0.62722731
0.04238975 -0.25900361 0.5614742
-0.1122956 -0.060063649 0.68115282
-0.02739392 -0.22110049 0.80239302
-0.06938497 -0.16660351 0.76458192
-0.086645968 -0.2517311 0.69326627
-0.01892877 -0.25677079 0.80691987
-0.093820453 -0.19616009 0.7035225
-0.1794624 -0.3538672 0.51361388
-0.080780141 -0.27030531 0.69748539
-0.052858811 -0.3507612 0.76641488
-0.082318082 -0.23158979 0.64268023
-0.097226277 -0.1586936 0.65333772
0.02386258 -0.2290011 0.57172507
-0.018639719 -0.25421631 0.81079721
-0.079000607 -0.2400856 0.65392429
-0.074810542 -0.091049127 0.78126413
-0.072452053 -0.083287157 0.78151453
-0.082706258 -0.25778729 0.70798469
-0.053306822 -0.3460567 0.69466418
-0.062987313 -0.26587591 0.7486304
-0.086439259 -0.2338424 0.67597592
-0.091599919 -0.2199586 0.68391252
-0.060654029 -0.25317451 0.74290287
0.05854347 -0.3651368 0.96750051
-0.074834444 -0.2426856 0.66151291
-0.1127564 -0.097398527 0.6812849
-0.01482153 -0.12516519 0.81987768
-0.066517703 -0.2072442 0.61664039
-0.048508931 -0.31603259 0.74920088
