# .PCD v0.7 - Point Cloud Data file format
VERSION 0.7
FIELDS x y z normal_x normal_y normal_z curvature
SIZE 4 4 4 4 4 4 4
TYPE F F F F F F F
COUNT 1 1 1 1 1 1 1
WIDTH 592
HEIGHT 1
VIEWPOINT 0 0 0 1 0 0 0
POINTS 592
DATA ascii
-0.28989276 -0.39921987 0.83716971 -0.8481608 -0.20519724 -0.4883824 0.080248907
-0.27074572 -0.16792142 0.9015587 -0.83570123 0.43403077 -0.33648288 0.039254501
-0.2772691 -0.15843777 0.91580147 -0.92979056 0.18241936 -0.31970716 0.028183302
-0.27588132 -0.10374495 0.95234019 -0.98988688 -0.12611297 -0.064957924 0.089055866
-0.1826653 -0.21968611 1.121124 -0.33776078 -0.91357976 0.22647244 0.0076133041
-0.25226507 -0.12940107 0.94429559 -0.4645375 -0.43826875 -0.76949686 0.034793966
-0.32416663 -0.24945801 1.1042526 -0.85842276 0.50157255 -0.10740265 0.069323637
-0.29513228 -0.32579559 0.88200033 -0.89714283 -0.43218762 -0.091371112 0.016379692
-0.30006906 -0.3268851 0.91099769 -0.7811659 0.62421614 -0.011579207 0.019716809
-0.24452795 -0.20030901 0.95217371 0.30101618 0.27833465 -0.91209596 0.055534512
-0.21854815 -0.16137736 0.99416488 -0.92058545 0.020032652 0.39002717 0.069090776
-0.26563826 -0.23912196 1.1455486 0.00056424923 0.99771309 0.067589335 0.017778726
-0.22913915 -0.23854709 1.022211 0.2730644 -0.75935286 -0.59060907 0.12381706
-0.21336439 -0.1983031 0.99901497 -0.77868778 0.15279737 0.6085214 0.041862465
-0.31805399 -0.37223399 1.0270647 -0.98685992 0.14657757 -0.067988761 0.024774635
-0.29050174 -0.089824833 1.0770794 -0.75807184 0.64904344 -0.063793808 0.094118297
-0.30737904 -0.37944773 0.88514417 -0.98787445 0.078810595 -0.13376455 0.055828687
-0.18515822 -0.21611738 1.0366277 -0.6389094 -0.74516004 -0.19113171 0.021789199
-0.30774829 -0.24834965 1.0718265 -0.24861203 0.96758771 0.044340976 0.042173915
-0.28610921 -0.39457911 0.83165312 -0.29019928 0.178657 -0.94014144 0.097015277
-0.33258668 -0.37342677 1.1031494 -0.97751218 0.047315251 -0.20550209 0.010860594
-0.28358212 -0.24765101 0.88443381 -0.87178433 0.32359079 -0.36780581 0.032128081
-0.22625381 -0.16516581 0.97890526 -0.83997285 -0.13287626 0.52610785 0.06409432
-0.32782799 -0.34972101 1.068122 -0.98294306 0.11375789 -0.14450648 0.01512533
-0.23285684 -0.18040237 0.9703337 -0.8041839 -0.074392617 0.58970672 0.039590571
-0.34099531 -0.4120537 1.1061202 -0.91076851 0.3294403 -0.24893732 0.034910548
-0.29776368 -0.27369875 0.88739616 -0.93522775 0.2499768 -0.25072032 0.031005431
-0.32682827 -0.24399532 1.108884 -0.16737218 0.97744375 -0.12880331 0.038084444
-0.3123045 -0.36950746 0.88917822 -0.89747214 -0.18049844 -0.40244773 0.093011878
-0.33902726 -0.35582918 1.1307719 -0.96927172 0.15061492 -0.1944931 0.0092770346
0.064953372 -0.24850498 0.90065259 0.41220248 0.88513327 -0.21593551 0.060070127
-0.3363454 -0.31461909 1.1216429 -0.98513061 -0.025994947 -0.16982926 0.033356559
-0.27454191 -0.22791061 0.88867253 -0.8698855 0.27730781 -0.40792108 0.030957764
-0.34322515 -0.38170499 1.1283631 -0.96656591 0.12438896 -0.22422716 0.0095606027
-0.31476179 -0.38725841 0.94117337 -0.99854875 -0.0094133113 -0.053027544 0.035441265
-0.2122132 -0.2176275 1.004619 0.58405191 -0.2268327 -0.77937818 0.079680815
-0.2793259 -0.32448885 0.85527921 -0.5672642 0.26463479 -0.77985883 0.090851188
-0.25229293 -0.13074192 0.94740891 -0.46116525 -0.44868502 -0.76551187 0.026469247
-0.30722114 -0.388569 0.90087771 -0.84876966 -0.33571187 -0.40851876 0.054075189
-0.32815263 -0.32559019 1.0878202 -0.99189276 0.10386887 -0.07321132 0.033510763
-0.3177295 -0.38278762 0.91407013 -0.96573412 -0.076582871 -0.24797706 0.052218579
-0.2980265 -0.27960157 0.91177869 -0.9959116 0.013611868 -0.08930143 0.031212479
-0.27681863 -0.16790536 0.89709866 -0.83570123 0.43403077 -0.33648288 0.039254501
-0.0758605 -0.075097352 0.9761821 0.021684971 0.9996025 -0.018017808 0.023982691
-0.32695225 -0.35671598 1.077276 -0.97390252 0.15223473 -0.16834049 0.023910942
-0.31906438 -0.36025029 0.99363208 -0.96355987 0.21404478 -0.16042842 0.03967797
-0.27001771 -0.2342163 0.86828309 -0.89168441 0.31667021 -0.32344833 0.030174814
-0.32135737 -0.3695482 1.0343829 -0.97095865 0.21519014 -0.10455921 0.033280645
-0.20730317 -0.18528514 1.0200485 -0.72315723 -0.21209335 0.65731269 0.042855956
-0.28464526 -0.10516441 1.0420587 -0.97933722 -0.20130205 -0.019393491 0.029243413
-0.25339806 -0.23497975 0.97951031 -0.24599262 0.96209538 0.11772893 0.059019454
-0.29981086 -0.27754244 0.97053415 -0.92667407 0.15678661 -0.34160373 0.056284875
-0.27555498 -0.20806195 0.88335961 -0.85520333 0.38904977 -0.34244356 0.049077865
-0.27001536 -0.10463853 0.95277643 -0.96936917 -0.238572 -0.058367778 0.076624356
-0.1991282 -0.2020884 1.01405 -0.78875643 0.10397779 0.60584813 0.04069379
-0.32633606 -0.39573985 1.0123948 -0.95933998 0.26465362 -0.098108493 0.089387126
-0.3025803 -0.38393709 0.88010174 -0.9691807 -0.20843671 -0.1313127 0.039670862
-0.29673967 -0.25744474 0.96943635 -0.80763525 0.569345 -0.15353012 0.11508879
-0.30623439 -0.24905674 1.0710789 -0.24762568 0.96758306 0.049644139 0.042180482
-0.31621248 -0.34407327 1.038825 -0.97562832 0.1704485 -0.13819043 0.032341007
-0.3337979 -0.35372138 1.09814 -0.97042537 0.12833911 -0.20445949 0.015564234
-0.24714269 -0.20123102 0.95243728 -0.31062064 0.28035909 -0.90824753 0.031085663
-0.313373 -0.37337044 0.98704034 -0.9662171 0.078326032 -0.24553934 0.053801857
-0.32611942 -0.3521854 1.048785 -0.97793996 0.1752713 -0.11363732 0.040420644
-0.31700066 -0.37349612 1.0281479 -0.98651916 0.14866354 -0.068403728 0.027869159
-0.30113965 -0.38986859 0.85630739 -0.88677549 -0.00096370617 -0.46219942 0.088484593
-0.25946626 -0.076032713 1.0746148 -0.1560822 0.97375536 0.16564667 0.046130262
-0.32895485 -0.36655647 1.0338544 -0.97672021 0.19254218 -0.094578251 0.041696973
-0.31480291 -0.35336271 0.98916316 -0.9605875 0.22404355 -0.16454826 0.042724241
-0.29442221 -0.38625017 0.85844183 -0.90018398 -0.17524311 -0.39869621 0.078343019
-0.22628076 -0.17872168 0.97856855 -0.89821386 0.012834772 0.43937123 0.071886733
-0.20014741 -0.19061419 1.1373 -0.47011074 0.19770178 -0.8601802 0.026713448
0.11058272 -0.082722969 0.93975145 0.66401607 0.63047862 -0.40196934 0.096189484
-0.29827169 -0.24602804 0.94913888 -0.59156913 0.78633076 -0.17812885 0.11952706
-0.31862596 -0.34878066 1.0135819 -0.97569841 0.21234107 -0.054071337 0.039128594
-0.28535482 -0.092589229 1.0916088 -0.78086126 0.62469792 -0.0028506359 0.088104956
-0.31762949 -0.37279189 1.005802 -0.98448569 0.16664338 -0.054935366 0.030295428
-0.2733582 -0.077894866 1.071442 -0.37237695 0.92692572 0.046304189 0.025760952
-0.32138979 -0.33781874 1.0059282 -0.93845487 0.33776906 -0.072211206 0.065656386
-0.33679873 -0.35293949 1.1128531 -0.95944142 0.20526129 -0.19323562 0.014036925
-0.32002798 -0.35131815 1.0247794 -0.97316188 0.2095028 -0.095207959 0.041714236
-0.32628179 -0.28262591 1.123512 -0.99089509 -0.071266443 -0.11422749 0.013182678
-0.3184337 -0.35273179 1.0131881 -0.97265458 0.22423114 -0.060527381 0.040872697
-0.26058227 -0.23778698 1.0836008 -0.010154338 0.99686587 -0.078455798 0.032810953
-0.35532716 -0.37960404 1.2887807 -0.96363395 0.25385973 0.083454825 0.035925124
-0.34994775 -0.35448149 1.2856004 -0.84354937 0.12576002 -0.52211964 0.0041730194
-0.067809112 -0.24470083 1.3191264 -0.0051922458 0.99372405 0.11173831 0.070866428
-0.17225106 -0.40077794 1.3319123 -0.098122209 0.397145 0.91249537 0.043418609
-0.31213531 -0.11023209 1.2625055 -0.7956984 0.42972806 0.42684633 0.11119619
-0.33507258 -0.29650033 1.2898782 -0.58036947 -0.080431148 0.81037152 0.053300809
-0.31200439 -0.16789342 1.2719091 -0.45914292 0.22208211 0.8601554 0.052608214
-0.024081649 -0.2442514 1.302736 -0.043529171 0.99201971 0.1183309 0.022214258
-0.19663839 -0.25078535 1.3050011 -0.064246029 0.86541831 0.49691415 0.13624908
-0.15894347 -0.35371599 1.3252764 -0.14445847 0.034401752 0.98891264 0.056170855
-0.11715708 -0.35464674 1.3305024 -0.0060557676 0.24045128 0.97064233 0.073120743
-0.3065649 -0.30234718 1.3003238 -0.22848041 0.14769049 0.96228069 0.077805214
-0.14189143 -0.39112681 1.3315779 -0.15667245 0.2168833 0.96354312 0.078925371
-0.23420776 -0.27917337 1.3057035 0.26951277 -0.50819778 0.8179841 0.087834112
-0.26056346 -0.10132767 1.2736012 -0.41276896 0.19637373 0.88941514 0.082302138
-0.16423911 -0.37263444 1.3252939 -0.062466815 0.11283726 0.99164796 0.056010816
-0.09595269 -0.3666864 1.3432746 -0.18728748 0.21940915 0.95748788 0.045264188
-0.20620802 -0.1016162 1.2794394 -0.48495588 0.3293623 0.81014705 0.19461028
-0.0076076402 -0.17971835 1.2644931 -0.55817342 -0.36421743 0.74551189 0.09903381
-0.018457716 -0.39439854 1.3513843 -0.22287634 0.10429914 0.96925122 0.073759787
-0.12034047 -0.41811869 1.340655 0.35343364 -0.20748369 0.91215962 0.13974693
-0.2481558 -0.32396737 1.3147057 -0.10602729 0.16879807 0.97993135 0.08699163
-0.14958915 -0.32360619 1.3289756 -0.034908026 -0.012071188 0.99931765 0.045342065
-0.14450197 -0.26876995 1.3214802 -0.58598393 -0.36721706 0.72233957 0.044756327
-0.12632287 -0.2950525 1.3211575 5.5933298e-05 0.020147737 0.99979699 0.087538756
-0.063685164 -0.36123747 1.3394389 -0.2721031 -0.87483543 0.40077785 0.041482829
-0.088418126 -0.34381273 1.3318985 -0.14806081 0.32776573 0.93308502 0.079884492
-0.30367455 -0.11745903 1.2673637 -0.40517017 0.12352807 0.90585762 0.033947151
-0.35040075 -0.42337602 1.1136538 -0.93528384 0.30994368 -0.17081898 0.029295661
-0.014121665 -0.1660237 1.2663517 -0.58749956 -0.43188879 0.68433642 0.070234448
-0.15000872 -0.24370569 1.2807931 -0.15766415 -0.98667866 -0.040091731 0.013175639
-0.16351283 -0.39341626 1.3314886 -0.092884675 0.19484083 0.9764269 0.056835975
-0.13732252 -0.24362814 1.2745153 -0.028867783 -0.99953306 -0.010009014 0.015620265
-0.046488054 -0.25143325 1.331102 0.25874895 0.6723361 0.69355106 0.076056726
-0.24058625 -0.28327996 1.3047304 -0.068009205 0.12609726 0.98968393 0.099627912
-0.31771719 -0.39624617 1.3135753 -0.051878188 0.0024069736 0.99865049 0.075181268
-0.031498492 -0.2158521 1.243307 0.55000186 -0.34325072 0.76136512 0.046375737
-0.05836162 -0.1905759 1.198241 0.76213115 0.07872422 0.6426186 0.13305618
-0.31290624 -0.36050943 1.3083092 0.06918063 -0.070019059 0.99514389 0.069078073
-0.15736035 -0.33466431 1.326223 -0.08951401 0.047941558 0.99483103 0.05711899
-0.21506083 -0.27569401 1.309404 0.32053664 -0.46090564 0.82753992 0.10553998
-0.13177907 -0.39064923 1.3335677 -0.13953866 0.26864409 0.95307887 0.053780906
-0.19233343 -0.38055843 1.3264003 -0.0050193383 0.017706372 0.9998306 0.067566842
-0.28955519 -0.15762855 1.2766143 -0.18278077 0.19772455 0.96306604 0.045104068
-0.28247386 -0.16486412 1.277535 -0.10393962 0.15713285 0.98209256 0.057342865
-0.20131829 -0.3782818 1.3241404 0.027168119 -0.15580429 0.98741424 0.1086551
-0.064488523 -0.17850736 1.2017096 0.83352393 0.1211708 0.5390321 0.072634414
-0.35245681 -0.42502347 1.1402087 -0.8808676 0.47159493 -0.040872164 0.048401505
-0.27108699 -0.18491253 1.2784905 0.03419612 0.15102981 0.98793757 0.082969457
-0.11174583 -0.29513371 1.3266582 -0.065805003 -0.68333244 0.72713584 0.1467672
-0.090025835 -0.34278616 1.3324084 -0.13365662 0.2988002 0.94490969 0.086813651
-0.22113231 -0.24850285 1.2642046 0.1101115 0.97733009 0.18083525 0.061013386
-0.13069198 -0.32344913 1.3266175 -0.16564332 0.21708471 0.96199608 0.033372588
-0.3115873 -0.37800139 1.309184 0.10897008 0.10482251 0.98850286 0.032527339
-0.055608422 -0.088798314 1.3029095 0.7934227 -0.14493956 0.59116232 0.076625928
-0.19291736 -0.39653155 1.3250798 -0.042938296 0.23662128 0.9706527 0.07567364
-0.23209171 -0.24103788 1.2675623 -0.54800165 -0.80566353 -0.22494526 0.14207202
-0.28914097 -0.18831795 1.2781386 -0.12677996 0.17283523 0.97675729 0.048397206
-0.14140862 -0.26883405 1.321744 -0.58598393 -0.36721706 0.72233957 0.044756327
-0.25510955 -0.31761369 1.3173254 0.090130009 0.25209263 0.96349674 0.079284988
-0.12799922 -0.35386327 1.3291957 -0.17340614 -0.93016911 0.32359809 0.072118625
-0.17013589 -0.38666269 1.3284148 -0.10932816 0.16521053 0.98018003 0.069543868
-0.29167521 -0.33355436 1.307719 -0.27092648 0.3107706 0.91105455 0.058373291
-0.085120007 -0.10102299 1.3026327 0.061031666 -0.36944228 0.92724723 0.041394345
-0.061111204 -0.10706214 1.3050872 0.14825639 -0.33909315 0.92899728 0.058589987
-0.31497821 -0.14547035 1.2676132 -0.68846297 0.13404019 0.71277767 0.08646851
-0.30108988 -0.17961648 1.2760866 -0.24449255 0.12089397 0.96208525 0.043218564
-0.32082552 -0.17959841 1.2713561 -0.48263931 0.22459681 0.84653151 0.069300503
-0.35492942 -0.38356861 1.2908984 -0.84193921 0.30463365 0.44535011 0.049137607
-0.31458881 -0.17136708 1.2702718 -0.49935392 0.25289398 0.82866782 0.051516294
-0.059993107 -0.088535123 1.3014628 0.51243722 -0.28725266 0.80925524 0.1266717
-0.10125137 -0.18581915 1.1744635 -0.2109382 0.020519523 0.97728395 0.072385825
-0.15992379 -0.321527 1.3265095 -0.069764853 0.035946932 0.99691564 0.048232578
-0.11561839 -0.42015952 1.3460379 0.26773259 -0.12600482 0.95521832 0.12288339
-0.11912695 -0.24549384 1.2869916 0.051230367 -0.99868035 0.0036212404 0.015616432
-0.15442102 -0.39610973 1.3325328 -0.082788318 0.23069905 0.96949679 0.073587671
-0.1432303 -0.24323981 1.2244641 0.21084304 -0.97602969 0.053956486 0.014140984
-0.1685833 -0.42662886 1.3436135 -0.12703519 0.42759454 0.89499992 0.094913155
-0.32497045 -0.28860277 1.2961057 -0.47800782 0.17019078 0.86170965 0.05831274
-0.11715458 -0.17825313 1.1759986 -0.078570284 -0.020447075 0.99669892 0.06308192
-0.096189797 -0.38801789 1.337528 -0.39577365 0.062075637 0.91624773 0.053074822
-0.13330171 -0.10460475 1.2903938 -0.079332784 -0.0085165873 0.99681181 0.062550515
-0.039688017 -0.16163877 1.2239865 -0.73305124 0.42876172 0.52801454 0.10511216
0.006271333 -0.1234729 1.29146 0.90814793 0.37891924 -0.17800966 0.043179642
-0.23855267 -0.29422125 1.3090503 0.21385865 -0.044680838 0.9758423 0.054592196
-0.099688493 -0.40228629 1.3444968 -0.16899563 0.24113689 0.95566386 0.060597897
-0.30714846 -0.4240506 0.85147673 -0.80090886 0.47699255 -0.36197117 0.053124759
-0.28608087 -0.16981129 1.2816105 -0.18528058 0.068944901 0.98026407 0.057836086
-0.2107204 -0.098193645 1.2860401 -0.49056733 0.34929332 0.79833442 0.1979503
-0.10084338 -0.18266906 1.1756206 -0.23561886 0.010125191 0.97179282 0.093748152
-0.3072336 -0.2950201 1.2991102 -0.2922332 0.097037308 0.95141143 0.074605927
-0.27438578 -0.15713677 1.2770185 0.2268268 0.18539873 0.95612597 0.044526491
-0.11264797 -0.24240085 1.2598393 0.0013505025 0.99129206 0.13167477 0.012768897
-0.21356395 -0.33487135 1.3192849 -0.096019387 -0.3894186 0.91604227 0.039622352
-0.02941406 -0.3342692 1.348368 -0.13968213 -0.052878626 0.98878348 0.050282679
-0.17608905 -0.33372176 1.3248453 -0.080389753 -0.0021819123 0.99676114 0.043844085
-0.29648879 -0.38451931 1.310285 -0.053828888 0.18902493 0.98049575 0.066193685
-0.20765689 -0.3984417 1.3273118 0.02145425 0.22885975 0.97322291 0.08871714
-0.34200799 -0.28665027 1.2785908 -0.87544012 0.067902006 0.47853321 0.060512535
-0.11292726 -0.23923191 1.2330941 0.043303747 0.99300051 0.10988563 0.013252784
-0.26536652 -0.13833451 1.2708024 0.49517211 -0.12734313 0.8594116 0.063066632
-0.23427598 -0.24225852 1.2592938 -0.57940853 -0.7575112 -0.30076972 0.12978557
-0.21903554 -0.24031852 1.2571582 0.27790293 0.88599926 0.37118089 0.095574498
-0.1414471 -0.17213935 1.1819552 -0.25639704 -0.49757129 0.82866365 0.067243278
-0.30179274 -0.28035069 1.2979659 -0.14385062 0.12193495 0.98205853 0.076087669
-0.2308089 -0.16670705 1.2452615 0.60709077 -0.058557656 0.79247195 0.060725238
-0.3084738 -0.38000584 1.3068347 0.051556129 0.093784042 0.99425679 0.030396894
-0.30987787 -0.3872759 1.311126 -0.084469117 0.12367491 0.98872113 0.0591399
-0.35381457 -0.40183493 1.3017361 -0.77482611 0.32946622 0.53953356 0.11082186
-0.18606946 -0.31801444 1.3274239 -0.12658072 0.018383259 0.991786 0.043401636
-0.089834988 -0.2178331 1.179582 0.24984832 -0.13697919 0.95854712 0.061460361
-0.18161632 -0.39437363 1.3276991 -0.082921959 0.27815971 0.95694888 0.060438912
-0.20617071 -0.24957398 1.3066945 -0.45567217 0.69668102 0.55407429 0.098577492
-0.30448645 -0.27749604 1.2974882 -0.095903277 0.17356469 0.98014182 0.082893163
-0.32476813 -0.4089466 1.313653 0.43358299 -0.35818174 0.82686859 0.063953511
-0.09658666 -0.10738074 1.2987136 0.10517337 -0.72554845 0.68008691 0.0920441
-0.33468929 -0.26730561 1.266914 -0.98376101 0.13456658 0.11876898 0.071954548
-0.11957391 -0.19167851 1.1762146 -0.087513193 0.06755586 0.99387002 0.054384604
-0.097680494 -0.37713519 1.3395481 0.28422838 0.016537791 0.95861399 0.05123366
-0.25859863 -0.31201044 1.3125774 0.099944957 0.15687068 0.98254907 0.095293209
-0.35903022 -0.39952683 1.2954258 -0.77482611 0.32946622 0.53953356 0.11082186
-0.31321064 -0.27671182 1.2975962 -0.23894165 0.19181341 0.95190042 0.074909084
-0.30810523 -0.29307327 1.2986263 -0.2662096 0.099074356 0.95881003 0.071267329
-0.19239616 -0.24785949 1.3075484 0.053923573 0.94171375 0.33206543 0.11706565
-0.20341973 -0.33206427 1.3237277 -0.0601951 -0.18389294 0.98110133 0.042361535
-0.10160704 -0.23097317 1.1792778 0.14345941 -0.031557672 0.98915291 0.077248588
-0.24284524 -0.15465561 1.2530607 0.19864385 -0.33838019 0.9198041 0.032156803
-0.062766686 -0.16352683 1.1979595 0.82469416 0.11838026 0.55305135 0.071975447
-0.17920338 -0.15729591 1.2105335 0.62539417 -0.028907999 0.77977335 0.16457778
-0.23785684 -0.41869593 1.330092 0.23965815 -0.91635376 -0.32071733 0.11236947
-0.22016273 -0.17596389 1.2357932 0.56650734 -0.046159264 0.82276285 0.051689345
-0.17255731 -0.32727474 1.3200315 -0.04162157 0.039317794 0.99835956 0.05040919
-0.17718115 -0.31449056 1.3203467 -0.091308631 0.019025177 0.99564087 0.053750787
-0.26603124 -0.27838889 1.3029053 -0.27080616 0.048062827 0.96143335 0.065373972
-0.038120229 -0.16517919 1.2221344 -0.78991324 0.37346861 0.48637256 0.095434532
-0.23922805 -0.42044365 1.3363806 0.23965815 -0.91635376 -0.32071733 0.11236947
-0.13886514 -0.24364963 1.2967181 -0.035782199 -0.99875909 0.034642149 0.020736638
-0.13380119 -0.17468809 1.178122 -0.1025331 -0.34881306 0.93156666 0.037977792
-0.31209138 -0.39744854 1.3117799 -0.080619946 0.049788017 0.99550062 0.081773028
-0.2888723 -0.39404729 1.314998 -0.32240975 0.52144349 0.79003084 0.050523013
-0.30409297 -0.30665773 1.3011029 0.21976313 0.36006072 0.90667546 0.044388015
-0.32307228 -0.19912308 1.2687887 -0.72476578 0.020598093 0.68868732 0.059585892
0.007754385 -0.2470977 1.309707 0.32494399 0.94488317 -0.040090647 0.043563105
-0.073780999 -0.28817809 1.3301829 -0.034162283 -0.81326878 0.5808844 0.0029643588
-0.05716091 -0.36238551 1.339702 0.09653528 -0.3384715 0.93601173 0.097722337
0.013571553 -0.24645263 1.3322704 0.89765418 -0.14462566 -0.41629356 0.056065258
-0.061492886 -0.25216451 1.3208082 0.072628692 0.97348922 0.21689555 0.082403108
-0.01407192 -0.33101183 1.352312 -0.046727344 -0.14343476 0.98855609 0.065159619
-0.014319059 -0.39447293 1.359531 -0.1926651 0.16940296 0.9665314 0.061401516
-0.022124458 -0.39993292 1.3575027 -0.22759834 0.1836687 0.95627648 0.053715393
-0.16229774 -0.35032395 1.3240743 0.043153301 0.068030864 0.99674952 0.052585725
-0.15705058 -0.38478526 1.3346603 -0.066339523 0.18858312 0.97981399 0.056992915
-0.30751139 -0.1928589 1.272231 -0.34002933 0.13481605 0.9307012 0.058619726
-0.026770608 -0.40835461 1.3562984 -0.21237995 0.18691182 0.95914477 0.054639459
0.012813852 -0.14152688 1.2988942 0.93564224 0.29762113 -0.1897241 0.078934155
-0.028369371 -0.41554749 1.3532619 -0.20686424 0.30049294 0.93108064 0.057177898
-0.02363609 -0.3196066 1.3487638 -0.056062598 -0.15676253 0.98604387 0.048323762
-0.31555045 -0.40394089 1.3145726 -0.15689506 0.23454413 0.95936078 0.09657342
-0.25257933 -0.41659668 1.3231376 0.23904917 -0.91774893 -0.31716314 0.11278352
-0.2509391 -0.41535214 1.3316957 0.23904917 -0.91774893 -0.31716314 0.11278352
-0.007635653 -0.33615389 1.3555551 0.052524541 -0.21902505 0.97430444 0.078952394
-0.10510872 -0.38770306 1.3396889 -0.30273053 0.074917316 0.95012718 0.054093491
-0.071350202 -0.41299793 1.3516659 -0.21249302 0.0016962253 0.97716105 0.047966201
0.047300711 -0.29146171 1.3543148 -0.22518635 0.078668937 0.9711346 0.12230118
0.02100743 -0.3163527 1.3474435 -0.058022644 0.075449623 0.99546009 0.093950786
0.058897279 -0.39558312 1.3655802 -0.13610798 -0.040447548 0.98986799 0.079545967
0.068326712 -0.39658949 1.364761 0.081590556 0.23134382 0.96944469 0.040519413
0.01816302 -0.26432902 1.3495524 -0.79933596 0.035192627 0.59985298 0.047540043
0.030766169 -0.34570235 1.3546548 -0.1547661 0.23396085 0.95984876 0.080021761
0.022390369 -0.10057145 1.3188246 -0.21340953 -0.2653589 0.94023454 0.042284973
-0.11143781 -0.29555821 1.3260201 -0.065805003 -0.68333244 0.72713584 0.1467672
0.015428293 -0.30355498 1.3546731 0.14654568 -0.26474378 0.95311862 0.0955346
-0.072207235 -0.10309592 1.3106928 0.14852895 -0.38068751 0.91269726 0.046426468
-0.11209911 -0.42024669 1.3498491 0.042051002 0.082932085 0.99566764 0.091422558
-0.076236203 -0.28884307 1.3274071 -0.034162283 -0.81326878 0.5808844 0.0029643588
-0.12814753 -0.29291794 1.3230475 -0.11908492 0.16553378 0.97898793 0.064959049
-0.14482325 -0.38652161 1.338547 -0.085448049 0.26675019 0.95997024 0.092480384
-0.18238144 -0.38862854 1.3310468 -0.068594366 0.16370673 0.98412138 0.060867637
-0.061932191 -0.35773796 1.3493744 -0.022088777 -0.25288498 0.96724421 0.056757756
-0.1927906 -0.37981975 1.3233465 0.0047475114 0.01071131 0.9999314 0.068920083
-0.094902724 -0.23822927 1.2210175 0.011483159 0.99815255 0.059662584 0.031274296
-0.23697968 -0.41908601 1.328688 0.23965815 -0.91635376 -0.32071733 0.11236947
-0.030994305 -0.39323735 1.3511206 -0.1592838 0.015001031 0.98711884 0.083599463
-0.027093453 -0.42266929 1.3635396 -0.2029321 0.22879344 0.95208836 0.069076769
-0.25078025 -0.41448379 1.327286 0.23904917 -0.91774893 -0.31716314 0.11278352
-0.16158956 -0.31975612 1.3282858 -0.070376046 0.039475169 0.99673915 0.050578393
-0.28496021 -0.16335298 1.2790596 -0.13023192 0.13731946 0.98192817 0.053444859
0.025080031 -0.30515051 1.342011 0.034018606 -0.15680489 0.98704356 0.084262721
-0.19569179 -0.10358968 1.2908307 0.20509811 0.85011715 -0.48501095 0.1066957
-0.23141117 -0.27838749 1.3048066 0.26951277 -0.50819778 0.8179841 0.087834112
-0.20720778 -0.099944338 1.28071 -0.47280812 0.47538394 0.74193168 0.15137419
-0.12002896 -0.41773683 1.3396567 0.24941365 -0.091392413 0.96407479 0.14291264
-0.31223598 -0.37656963 1.311137 0.087866329 0.075065367 0.9932999 0.032518182
-0.0068517453 -0.09221904 1.3143182 -0.13481534 0.0089533022 0.9908303 0.075252876
-0.1958971 -0.39334336 1.3289186 -0.033457492 0.11457394 0.99285108 0.087327503
-0.09934932 -0.38193303 1.3438066 -0.1566996 0.16351172 0.97401702 0.053072415
-0.013732373 -0.16052325 1.2686746 -0.57278073 -0.43180469 0.69675463 0.075286053
-0.29286143 -0.33246416 1.3100855 -0.27109098 0.31120497 0.91085738 0.050449897
-0.29148734 -0.15743512 1.2758965 -0.21112399 0.21242967 0.95409656 0.048343044
0.01259426 -0.14000942 1.3023739 0.93590665 0.29806092 -0.18771924 0.078801058
-0.031718489 -0.20745151 1.244076 0.55000186 -0.34325072 0.76136512 0.046375737
-0.22162263 -0.2704263 1.3146938 0.29289675 -0.30838522 0.90504706 0.065617986
-0.25200084 -0.31949106 1.3197573 0.044587422 0.22581704 0.97314882 0.08384914
-0.1668283 -0.39056543 1.3327119 -0.12070526 0.21609628 0.9688822 0.059377074
-0.17299922 -0.38550287 1.3298473 -0.078908846 0.14795947 0.98584044 0.06318187
-0.092098452 -0.34171301 1.3346522 -0.10849507 0.3083083 0.94507927 0.085461609
-0.16126242 -0.36652356 1.3255433 -0.069541506 0.11009754 0.991485 0.050568707
-0.089508303 -0.34272155 1.3334532 -0.11170783 0.32790628 0.93808252 0.083895385
-0.15932362 -0.35333565 1.3258827 -0.16627571 0.055368416 0.98452359 0.058781672
-0.19609016 -0.24780847 1.3035486 -0.03188023 0.93724197 0.34721923 0.10852546
-0.15725893 -0.38556692 1.3311664 -0.066421017 0.18857457 0.97981012 0.056986358
-0.15935925 -0.33267421 1.3280479 -0.077914961 0.02051015 0.99674904 0.058054343
-0.27910835 -0.1392283 1.2721001 0.42803079 -0.1268148 0.89482266 0.051728755
-0.061647121 -0.18888536 1.2017789 -0.60718918 0.005655311 0.79453719 0.17617135
-0.013699733 -0.17949161 1.2667743 -0.57777053 -0.41312459 0.70392424 0.072431356
-0.042265393 -0.16038649 1.2269396 -0.58523583 0.4416953 0.68000305 0.089094728
-0.25705558 -0.3145062 1.3103976 0.13799047 0.19534729 0.97097784 0.10242302
-0.17545444 -0.42172292 1.3449153 -0.063196778 0.38604724 0.92031175 0.056663219
-0.28994897 -0.39239258 1.3157964 -0.29162532 0.54584634 0.78549761 0.053979777
-0.025826734 -0.17891587 1.2540089 -0.68598729 -0.063069619 0.72487491 0.082643814
-0.064568967 -0.24408288 1.3158618 -0.0051875678 0.99376446 0.11137892 0.070843033
0.0058717509 -0.3169007 1.3469534 0.16752961 -0.24094345 0.95597076 0.036350522
-0.023785651 -0.27896449 1.335515 -0.13310111 -0.20540719 0.96958339 0.094660282
0.0046266504 -0.20967534 1.2863337 0.43553674 0.8967467 -0.078442328 0.037287563
-0.30333209 -0.17857312 1.2789934 -0.26439226 0.11825384 0.95713776 0.044013992
-0.25878504 -0.31801426 1.3162988 0.04549183 0.22656758 0.97293252 0.085546359
-0.19649394 -0.37877202 1.3169544 0.03581816 -0.14234355 0.98916894 0.10591549
0.01519105 -0.24450129 1.3289934 0.89479852 -0.14881945 -0.42093748 0.048483752
0.0044922237 -0.24442638 1.3142225 0.35733634 0.92938495 -0.09249004 0.047583539
-0.32533547 -0.2895973 1.2952224 -0.47800782 0.17019078 0.86170965 0.05831274
-0.20873143 -0.39512518 1.3256518 0.083123498 0.075986311 0.99363804 0.11090203
-0.32492629 -0.4088496 1.3093441 0.43358299 -0.35818174 0.82686859 0.063953511
-0.14527462 -0.24818496 1.2744066 0.12525894 0.98913056 0.077011682 0.013560585
-0.31123713 -0.19289403 1.2785501 -0.33895516 0.13578574 0.93095201 0.055939462
-0.31272241 -0.39237198 1.3118832 -0.080367714 0.050748333 0.99547255 0.084145382
0.00082045788 -0.1279453 1.287962 0.93564224 0.29762113 -0.1897241 0.078934155
-0.22111274 -0.24446258 1.2648567 0.19932266 0.94041097 0.27549508 0.088476151
-0.26075605 -0.1037304 1.2739917 -0.27054542 0.043467294 0.96172541 0.063396923
-0.15237898 -0.3216297 1.3289229 -0.033928975 0.006557391 0.99940276 0.049304113
-0.33446079 -0.29683337 1.2891302 -0.58036947 -0.080431148 0.81037152 0.053300809
-0.30854622 -0.30118313 1.3027403 -0.29409921 0.12179618 0.94798279 0.073422737
-0.18545002 -0.31700158 1.3244115 -0.12658072 0.018383259 0.991786 0.043401636
-0.15020496 -0.24106278 1.2301292 0.42755696 -0.77280438 0.469008 0.0058241524
-0.23930632 -0.41722184 1.3367082 0.23965815 -0.91635376 -0.32071733 0.11236947
-0.26296479 -0.26216015 1.3051863 -0.32568568 -0.047558773 0.94428122 0.062112164
-0.26832014 -0.27630413 1.3065778 -0.22769436 0.17832354 0.9572649 0.075893342
-0.18660159 -0.40927833 1.3372169 -0.10860081 0.38267741 0.91747683 0.043523755
-0.31310654 -0.27746883 1.2961532 -0.30759481 0.17783642 0.93475109 0.076550759
-0.30925423 -0.29244637 1.299363 -0.2662096 0.099074356 0.95881003 0.071267329
-0.13789938 -0.10144185 1.2963525 -0.013099173 0.046280824 0.9988426 0.09046372
-0.30261406 -0.11798856 1.26958 -0.39141348 0.11386786 0.91314268 0.03207982
-0.34409165 -0.2859672 1.278788 -0.87464339 0.037318803 0.48332834 0.058628231
-0.20389277 -0.32689774 1.3250189 -0.042223904 -0.14093585 0.98911792 0.045584287
-0.14115325 -0.38509277 1.3412806 -0.084651537 -0.039354973 0.99563313 0.093890451
0.020289782 -0.30976483 1.3511375 0.11031631 -0.20143855 0.97326916 0.09585014
-0.14149176 -0.26792625 1.3230888 -0.58598393 -0.36721706 0.72233957 0.044756327
-0.11796506 -0.23962063 1.2953525 -0.018910781 0.99981809 0.002485225 0.017711956
-0.13518287 -0.32005373 1.3308648 -0.12349569 0.18318853 0.97529012 0.038111772
-0.054820299 -0.1736566 1.215623 -0.78847563 0.027768534 0.61443871 0.07704521
0.028717561 -0.34456837 1.3531305 -0.09440136 0.31020811 0.94596994 0.069276594
0.0080348514 -0.14025259 1.3007225 0.93590665 0.29806092 -0.18771924 0.078801058
-0.068683051 -0.16155566 1.2027603 0.82024509 0.1171504 0.55988747 0.079491891
-0.30595505 -0.11617143 1.2676811 -0.46133152 0.18605484 0.86750031 0.025880089
-0.046004601 -0.39605904 1.3525074 -0.0094162347 -0.063866496 0.99791402 0.071757287
-0.31596753 -0.14632677 1.2647612 -0.81014729 0.22124785 0.54287279 0.11392073
-0.32406119 -0.17695656 1.2687043 -0.59063429 0.27179489 0.75978851 0.088613667
-0.20809604 -0.09770602 1.2814608 -0.4353731 0.56340295 0.70215911 0.11296119
-0.30701163 -0.1680335 1.267736 -0.40437728 0.22578074 0.88628548 0.063561484
-0.32474628 -0.1981612 1.2693568 -0.71777022 0.040196277 0.69511878 0.067798063
-0.35296914 -0.42425755 1.1393768 -0.87891984 0.47462276 -0.047255244 0.041511111
-0.20294091 -0.33209634 1.32198 -0.0601951 -0.18389294 0.98110133 0.042361535
-0.055060863 -0.090250269 1.3021625 0.7934227 -0.14493956 0.59116232 0.076625928
-0.00066658459 -0.10643131 1.3122765 -0.10654612 -0.3719753 0.92210752 0.089877777
0.047170799 -0.29380253 1.3520935 -0.17669183 0.038781084 0.98350197 0.11841602
-0.013067573 -0.32836187 1.3520578 -0.027887512 -0.113501 0.99314642 0.061493214
0.045874409 -0.34969279 1.3612263 -0.29753888 0.22481278 0.927863 0.060894601
-0.31577119 -0.16987951 1.2713248 -0.48924062 0.23403887 0.84016031 0.052074492
0.052649941 -0.39301431 1.3683044 -0.1575049 -0.057531867 0.98584092 0.052687515
0.089575909 -0.41336516 1.3799694 0.6872856 -0.12789381 0.71503967 0.025119647
-0.1066756 -0.3891775 1.3373851 -0.28316742 0.10122664 0.95371342 0.057650026
-0.089805402 -0.41270888 1.3491361 -0.15133709 0.24453387 0.95775789 0.042727973
-0.039509948 -0.41849509 1.358374 -0.076107822 0.31853792 0.94484979 0.060708765
-0.0099574141 -0.38003144 1.3623674 -0.15650229 0.056155182 0.98607999 0.074101165
-0.03661406 -0.17802709 1.236532 -0.82536989 0.24661438 0.50788373 0.056169994
-0.087118573 -0.404035 1.3515438 -0.25752276 0.15450221 0.9538402 0.042439323
-0.31267467 -0.14191057 1.2647767 -0.65679479 0.053815491 0.75214654 0.060012307
-0.30885789 -0.11211549 1.2628499 -0.75897199 0.48055205 0.43935308 0.099112339
-0.30616221 -0.098610155 1.1809663 -0.85992515 0.45221701 -0.23670317 0.047900438
-0.27143946 -0.091647118 0.96439165 -0.80054474 0.56048959 -0.21208389 0.078358315
-0.28252801 -0.24206744 0.96491349 -0.35178876 0.9304834 0.10220178 0.065918185
-0.35033545 -0.35173288 1.2886031 -0.85049212 0.13582473 -0.50814849 0.003819258
-0.35618287 -0.37731633 1.2883302 -0.97962373 0.19972761 0.021124713 0.028835746
-0.34653857 -0.30599925 1.2601936 -0.95493001 0.27030241 0.12265908 0.046837766
-0.35785559 -0.39571348 1.2954448 -0.79267579 0.30596423 0.52730542 0.095883451
-0.35046643 -0.30400112 1.2528852 -0.98338461 0.15834934 0.088770345 0.051937047
-0.36062148 -0.39396939 1.2959838 -0.79038304 0.31511977 0.52535152 0.08347518
-0.00055697147 -0.20888898 1.2918063 0.43553674 0.8967467 -0.078442328 0.037287563
-0.10591495 -0.2207901 1.1824635 0.027888263 0.061137971 0.99773961 0.059758533
-0.10652466 -0.2343585 1.1863022 0.14065942 -0.044706896 0.98904812 0.094917692
-0.023913611 -0.27085468 1.3402683 -0.13310111 -0.20540719 0.96958339 0.094660282
-0.045993771 -0.27820891 1.3428152 -0.10565452 -0.020659724 0.99418825 0.061253
-0.070754305 -0.28889883 1.3292044 -0.052777439 -0.81536436 0.57653749 0.0036109667
0.026993064 -0.34053281 1.3654196 -0.32636976 0.31307906 0.89188814 0.094228745
-0.071062967 -0.35703894 1.3463602 -0.13531877 0.51108634 0.84881067 0.088651933
-0.12015961 -0.35255995 1.3314116 -0.01431871 0.11474816 0.99329144 0.077799611
-0.020851383 -0.38792229 1.3637209 -0.22320803 0.13463125 0.96542877 0.056065381
-0.016044404 -0.39322907 1.363677 -0.20011915 0.16703552 0.96542811 0.053567849
-0.31393516 -0.16330718 1.2742361 -0.44275439 0.20384513 0.87316418 0.050840236
-0.21289517 -0.26918063 1.3170679 0.31207883 -0.33507848 0.88900459 0.049643233
-0.35520089 -0.3659547 1.2885751 -0.97619563 0.1784236 -0.12331729 0.016225724
-0.30737698 -0.3880899 1.3120967 -0.084218785 0.12244454 0.9888956 0.062127985
-0.17582467 -0.41619065 1.3419516 -0.065268502 0.37159616 0.92609739 0.045444753
-0.25747883 -0.23847839 0.99588209 -0.052016579 0.9986124 -0.0082191527 0.022255138
0.026559055 -0.37469777 1.3613436 -0.20555022 0.15509331 0.96627909 0.034699589
0.10136569 -0.41739696 1.3623267 0.69499546 -0.11855697 0.70917255 0.024273256
0.00051061891 -0.36952692 1.3577247 0.026885532 -0.091791011 0.99541527 0.021257196
-0.29306519 -0.4027237 1.323384 -0.30536821 0.68341434 0.66309506 0.038466152
-0.28325781 -0.36270961 1.314814 0.055339918 0.042970091 0.9975425 0.040319812
-0.28796199 -0.38220459 1.311517 -0.31128782 0.45038268 0.83681262 0.053242229
-0.2710017 -0.26476854 1.3017114 -0.35206062 0.0062269042 0.93595654 0.067747697
-0.080198519 -0.40648288 1.3574784 -0.2722109 -0.11617105 0.95519918 0.031233165
-0.28152019 -0.24767148 0.87846935 -0.80615091 0.33881539 -0.48510292 0.031184072
-0.26500726 -0.23660721 0.9451853 -0.42354828 0.88890892 0.17449269 0.062358335
-0.30778682 -0.092056051 1.1972294 -0.69712263 0.62858289 -0.34482396 0.06210668
-0.25103682 -0.086207323 1.2784497 -0.70991981 0.51209122 0.48350435 0.066611752
-0.30698392 -0.12251628 1.2188241 -0.74327767 -0.15119901 -0.65167266 0.063025318
-0.30944028 -0.12257114 1.2204058 -0.7805503 -0.13263924 -0.6108585 0.072576702
-0.22760682 -0.16362205 0.98044521 -0.83997285 -0.13287626 0.52610785 0.06409432
-0.24760737 -0.19929358 0.95589459 0.30101618 0.27833465 -0.91209596 0.055534512
-0.31762365 -0.36140832 1.3076758 0.026199622 -0.06310419 0.99766296 0.076603867
-0.33283812 -0.32033262 1.1303859 -0.96401632 -0.0030702963 -0.26582512 0.048521988
-0.30408058 -0.38034579 0.88835877 -0.95319563 -0.045130022 -0.29896733 0.079926006
-0.3139433 -0.36354548 0.94649571 -0.99462211 0.09794271 -0.033677731 0.027105834
-0.35335073 -0.33204767 1.2352787 -0.8708598 -0.16956718 0.46135691 0.067723274
-0.35180029 -0.31813189 1.262423 -0.99958587 -0.01424631 0.025003295 0.035645604
-0.31224188 -0.35981157 0.96695387 -0.98588145 0.14328748 -0.086640313 0.034004271
-0.3207604 -0.39343566 1.3152523 0.15025771 -0.083639927 0.98510253 0.073511466
-0.32384035 -0.3937822 1.0013373 -0.9348526 0.35296777 -0.038268156 0.051941037
-0.31074291 -0.34401417 1.0023655 -0.96871877 0.24366498 -0.047025699 0.064784721
-0.34117129 -0.32380509 1.1715348 -0.98392057 -0.021954099 -0.17725217 0.0265432
-0.33920839 -0.26463559 1.2105454 -0.9044953 0.38995424 -0.17269625 0.053290106
-0.30337235 -0.27633989 1.2988647 -0.21358693 0.19957027 0.95632231 0.07012143
-0.3331745 -0.34220144 1.1294051 -0.96954483 0.11892238 -0.21410328 0.011561261
-0.3351492 -0.28758457 1.1828886 -0.95996749 0.19383547 -0.20221345 0.018742729
-0.32240093 -0.32866848 1.0830998 -0.99154323 0.081566073 -0.10094103 0.02518977
-0.34280095 -0.31425008 1.1857775 -0.98609036 0.10177077 -0.13140957 0.035159145
-0.30331299 -0.30858919 1.29687 0.36957955 0.39142513 0.84273207 0.049504213
-0.10582245 -0.18418588 1.1785079 -0.2176498 0.052873515 0.97459376 0.070279174
-0.19245093 -0.3944076 1.325304 -0.036933463 0.19193389 0.98071265 0.081033245
-0.03733981 -0.33759841 1.3431931 -0.12100906 -0.11745718 0.98567772 0.05811587
-0.17742212 -0.39389619 1.335541 -0.073643401 0.28334603 0.95618606 0.049736299
-0.25444332 -0.31316888 1.3175683 0.026630443 0.14861484 0.98853654 0.068110377
-0.11124884 -0.22646996 1.1863635 0.045541786 0.050168268 0.99770194 0.064046361
-0.05751824 -0.25407279 1.32445 0.12378964 0.92809415 0.35116574 0.088607073
-0.24717946 -0.32627425 1.3228152 -0.15277271 0.16631375 0.97416639 0.059668571
-0.24418075 -0.2822946 1.3050697 -0.11155228 0.17904493 0.97749633 0.077550128
-0.33976787 -0.38684979 1.1268303 -0.95626169 0.20167632 -0.21187317 0.0074759037
-0.2272702 -0.17870523 0.97990489 -0.89821386 0.012834772 0.43937123 0.071886733
-0.32243979 -0.32278311 1.0720255 -0.98018253 0.10917388 -0.16529793 0.027448203
-0.15092087 -0.24152675 1.2357438 0.30696484 -0.89480352 0.32419008 0.0089367935
-0.28928488 -0.24154352 1.0769387 -0.19006595 0.97651041 0.10150035 0.042210147
-0.3552531 -0.37196964 1.198962 -0.95864302 0.057463489 -0.27874991 0.050551254
-0.24641354 -0.20076932 0.95325696 0.047072057 0.35332236 -0.93431664 0.047787037
-0.23192114 -0.26613393 1.3059975 0.10035513 -0.17297974 0.97979939 0.098001555
-0.25777495 -0.23876479 1.0770643 -0.013439252 0.99932486 -0.034193888 0.030104194
-0.21391936 -0.10607592 1.2780623 0.20139992 0.85695577 -0.47441009 0.10784021
-0.21019948 -0.24363068 1.2948759 -0.011964126 0.9901427 0.13955015 0.029171728
-0.062744141 -0.1762801 1.200164 0.83352393 0.1211708 0.5390321 0.072634414
-0.0055106399 -0.40952769 1.3698063 -0.33883581 0.22133958 0.9144392 0.067251958
-0.30280733 -0.10029162 1.160957 -0.72039407 -0.67506772 -0.15910991 0.040469214
-0.19343948 -0.24728818 1.3084615 0.054224644 0.94283545 0.32881755 0.11679535
-0.28563976 -0.088477686 1.0831054 -0.65214998 0.75581545 0.058680009 0.10268779
-0.28084639 -0.10878945 1.0353307 -0.95845258 -0.27617869 -0.071372643 0.034709927
-0.32393083 -0.39948153 1.0201496 -0.89348489 0.36274078 -0.26477113 0.12863266
-0.28384143 -0.11021379 1.0358409 -0.95845258 -0.27617869 -0.071372643 0.034709927
-0.28964534 -0.10620258 1.0811751 -0.99527735 0.08145608 -0.052800301 0.074322559
-0.28456703 -0.099541664 1.0470806 -0.96323818 -0.2673955 -0.02591997 0.033697102
-0.33317825 -0.31920129 1.1377749 -0.98418885 -0.040471308 -0.17243659 0.079126783
-0.3147575 -0.34473717 1.012365 -0.9701829 0.23765887 -0.047575131 0.040832952
-0.30114502 -0.24378781 1.1660471 0.022178845 -0.99923438 0.032228384 0.074225076
-0.33700308 -0.3283141 1.1851249 -0.99343419 -0.1018715 -0.052064292 0.044535566
-0.27043682 -0.10533081 0.95812219 -0.9706822 -0.23646455 -0.043133177 0.064473443
-0.2707558 -0.09293323 0.95537925 -0.78448373 0.57299006 -0.23720825 0.075148441
-0.30318564 -0.24869983 1.0769662 -0.20629509 0.97315288 0.10205775 0.042403292
-0.31053206 -0.2711851 1.015612 -0.96897042 0.079112805 -0.2341741 0.019556792
-0.28595203 -0.18869741 1.2080473 -0.84367186 -0.53532445 0.040566016 0.058395289
-0.29643139 -0.29146817 0.9137224 -0.99812663 -0.060680702 0.0078099696 0.059262376
-0.27000538 -0.21633655 1.1992955 -0.80221486 -0.28647476 0.52381629 0.062476326
-0.34368902 -0.41615435 1.1605847 -0.6828801 0.6829344 -0.25937501 0.12026878
-0.31592587 -0.39002633 0.94873857 -0.97226757 0.10680266 -0.20806006 0.043198533
-0.34764242 -0.38986585 1.1836228 -0.96764427 0.15560003 -0.19862841 0.035512377
-0.2404658 -0.18635285 1.1695676 0.083328716 -0.64965099 0.75565195 0.028931577
-0.29099101 -0.25110278 0.9539991 -0.53623992 0.82708961 -0.1684324 0.11200336
-0.35665336 -0.3976796 1.3011212 -0.77482611 0.32946622 0.53953356 0.11082186
-0.34861794 -0.37904504 1.1980492 -0.94389582 0.098989472 -0.31505808 0.050733317
-0.28751722 -0.23262584 1.0814188 -0.2058087 0.97524601 0.080857359 0.053661503
-0.27705941 -0.22756544 0.89223331 -0.87552112 0.28413931 -0.3908039 0.03131678
-0.28659388 -0.24859352 0.89152217 -0.88397288 0.32532579 -0.3357904 0.029300045
0.02564257 -0.2447876 0.93247861 -0.025630347 -0.99661285 -0.078140773 0.018797705
-0.25911301 -0.12881954 0.88777757 -0.81830484 -0.22658142 -0.52824044 0.031622939
-0.29796812 -0.33188176 0.8795433 -0.95761061 -0.24834801 -0.14596309 0.054781146
-0.24919654 -0.23609814 1.1114634 -0.041813701 0.99901831 -0.014630858 0.027027996
-0.31536683 -0.34263042 1.0416805 -0.96810967 0.18240593 -0.17173177 0.036758382
-0.29045942 -0.34321326 0.85290754 -0.45776913 0.78386068 -0.41953534 0.099064395
-0.28373545 -0.26391691 0.87216818 -0.76011866 0.30162278 -0.57553738 0.032282937
-0.27291003 -0.32008594 0.84730786 -0.36409244 0.31457227 -0.87663043 0.065478906
-0.29550526 -0.26069781 0.9078604 -0.96441591 0.23213288 -0.12655544 0.026222942
-0.29226327 -0.2635763 0.89228755 -0.94705886 0.22307125 -0.23090862 0.032781824
-0.23012711 -0.19409323 1.1622454 0.093365103 -0.64222747 0.76080662 0.026471319
-0.28951234 -0.40523598 0.84316075 -0.8028422 0.13980934 -0.57956684 0.062339563
-0.2714861 -0.21114011 0.87839085 -0.79952168 0.39229536 -0.45482895 0.065856889
-0.31264853 -0.39308441 0.91596431 -0.97479647 -0.023449594 -0.22186019 0.070709094
-0.25706968 -0.23903809 1.0746611 -0.011984305 0.99910104 -0.040662613 0.034872543
-0.35028484 -0.41829744 1.1283101 -0.89094812 0.44436142 -0.093564518 0.034928199
-0.33162341 -0.25918254 1.2698827 -0.95588118 0.28981474 0.047943637 0.12892953
-0.27792487 -0.33487755 0.85242605 -0.50320643 0.12281058 -0.85539514 0.09249308
-0.31773493 -0.42006963 0.97558755 -0.44752547 -0.89367533 -0.032640137 0.12772213
-0.26312128 -0.33556658 0.84806734 -0.30354357 -0.014597196 -0.95270574 0.081698962
-0.31701714 -0.25019771 1.0967628 -0.057196386 0.99836272 -0.00061684003 0.028443387
-0.31516269 -0.37363002 0.99099898 -0.97245544 -0.0012655961 -0.23308553 0.039707471
-0.26548022 -0.28396109 0.85197085 -0.19841006 0.085432298 -0.97638857 0.041675206
-0.26389083 -0.16726737 0.88110811 -0.60223943 0.24813269 -0.75877398 0.049791083
-0.1288261 -0.28530836 0.8672269 0.054410473 0.02424703 -0.99822414 0.074745595
-0.3124046 -0.3449339 1.0116144 -0.97000301 0.23663242 -0.055671249 0.041785143
-0.26867643 -0.33305678 0.8466965 -0.41487849 0.051743317 -0.90840441 0.084387824
-0.28532016 -0.2477762 0.88816887 -0.88197172 0.32583863 -0.34052184 0.029839348
-0.28995672 -0.18754166 1.2158868 -0.66922367 -0.7407493 -0.058566622 0.05287965
-0.32388791 -0.22235845 1.2490841 -0.94344091 0.32465437 0.067222409 0.070344329
-0.3231079 -0.32736388 1.0934894 -0.9880901 0.12350053 -0.091790661 0.037949741
-0.08409518 -0.30367422 0.87357169 0.091232538 0.093676925 -0.99141371 0.12027118
-0.33669782 -0.2519061 1.267738 -0.92835295 0.37088186 0.024646735 0.06135685
-0.26475057 -0.28497154 0.85352814 -0.21229808 0.049938142 -0.97592807 0.044621021
-0.15139347 -0.28388256 0.8690567 0.13690624 0.10038873 -0.985484 0.035249837
0.042349994 -0.16177894 0.95516348 -0.57475412 0.032534242 -0.81767917 0.053766105
-0.30302715 -0.24941534 0.96407527 -0.80996674 0.55526066 -0.18878381 0.12483239
-0.26392025 -0.16516221 0.88131368 -0.60667878 0.30069363 -0.73588324 0.042415574
0.045477666 -0.17912023 0.96003187 -0.5905804 0.07983847 -0.8030197 0.07888107
-0.045976304 -0.23874396 0.94520259 0.08077836 0.99645036 -0.023697952 0.014321353
0.043000132 -0.14677155 0.95119196 -0.56191832 0.010164218 -0.82713026 0.058513071
-0.21310203 -0.36018103 0.84878826 0.13469556 0.13084418 -0.98221022 0.094966508
-0.21012165 -0.3522692 0.84704822 0.085496753 -0.058173742 -0.99463862 0.13044991
-0.30284622 -0.37211081 0.89931756 -0.88593757 -0.23171714 -0.40177336 0.068609193
-0.16219671 -0.30272457 0.86103559 0.22509888 0.14624064 -0.96329856 0.025219925
-0.19242346 -0.34867582 0.84900689 0.1024498 0.16871256 -0.98032659 0.11966296
-0.21682759 -0.38748348 0.83899355 0.05281933 0.05129635 -0.99728578 0.048367556
-0.28150138 -0.1891665 1.2008109 -0.85159445 -0.51753545 0.083330646 0.027284678
-0.31791461 -0.20321341 1.2612185 -0.8654629 -0.039341822 0.49942583 0.057931852
-0.35173073 -0.4274013 1.1492176 -0.85056752 0.52233702 -0.06081875 0.061045807
-0.33646473 -0.35371426 1.1743878 -0.9286598 0.35002017 -0.12278786 0.083186954
-0.27854392 -0.23989029 1.031756 -0.11404022 -0.99246228 -0.044872604 0.063506998
-0.24980377 -0.1247985 0.88099658 -0.77173418 -0.19764142 -0.60445362 0.036453754
-0.30300242 -0.3346757 0.91095269 0.28475097 -0.10436162 -0.95290375 0.0027444176
0.024750544 -0.17853335 0.96503162 -0.52708066 0.036939334 -0.84901202 0.062387645
-0.12379517 -0.089399271 0.90234733 -0.00023338136 0.82337683 -0.56749499 0.082727365
-0.066532373 -0.36302644 0.8700645 0.16839454 0.25645411 -0.95177442 0.075672828
-0.17619199 -0.24167226 0.90013689 0.042143911 -0.99895042 -0.017944016 0.039986894
-0.30977339 -0.32658121 0.95419002 -0.85446119 0.2548047 -0.45273685 0.019374834
-0.12257161 -0.2987982 0.86245012 0.016970603 -0.17887907 -0.98372477 0.092000164
-0.093042336 -0.30838397 0.87190509 0.019049536 0.25907847 -0.96566844 0.13208331
-0.21448688 -0.29067102 0.85637259 0.25056079 -0.24470957 -0.9366625 0.044682175
0.0095349709 -0.26918286 0.88139206 0.15144864 0.11655023 -0.98156989 0.038783938
-0.30310985 -0.3848857 0.88729894 -0.98508126 0.096764356 -0.14230782 0.051977731
-0.16312227 -0.32620138 0.85439086 0.23299974 0.058633707 -0.9707076 0.07253179
-0.12512651 -0.39680028 0.85351163 -0.061073009 -0.083899505 -0.99460089 0.17799421
-0.047610179 -0.39881131 0.86350954 0.10454974 0.12560487 -0.98655599 0.051614065
-0.31599274 -0.16783525 1.2636805 -0.67461777 0.29287264 0.67758131 0.083639421
-0.06821423 -0.39378011 0.86532551 0.329175 0.25920519 -0.90799588 0.061617751
-0.10789543 -0.3820802 0.84932232 0.012723742 0.057311885 -0.99827522 0.14694352
-0.1138011 -0.24164833 0.88844842 0.16538708 -0.82630175 -0.53839809 0.016565686
-0.062907316 -0.36660552 0.87068921 0.530402 0.06469737 -0.84527391 0.052425273
-0.32024586 -0.21225221 1.2716597 -0.61841863 -0.23829077 0.74884963 0.062077217
-0.24289754 -0.30706701 0.84813792 0.26746517 -0.34134242 -0.90108138 0.067839712
-0.21128051 -0.35599363 0.8491019 0.085712858 -0.054625187 -0.99482131 0.12921797
-0.054643095 -0.08512044 0.90826821 0.093148492 0.32684609 -0.94047594 0.058868654
-0.17091875 -0.2416494 0.9050597 -0.089973792 0.98686606 -0.13416427 0.063039206
-0.023267467 -0.20719153 1.0052927 0.93057656 -0.32239383 -0.17346327 0.0096869441
-0.18652205 -0.39789757 0.83999819 -0.18302292 -0.80746335 -0.560808 0.054309513
-0.18167011 -0.283647 0.86218011 0.18940203 0.33121735 -0.92434949 0.046559308
-0.14839204 -0.26521671 0.86759412 -0.21241802 -0.13632573 -0.96762282 0.054643288
-0.19391841 -0.36090583 0.84611565 0.085602827 0.0070375036 -0.99630451 0.14932424
-0.13267845 -0.38189581 0.85463727 -0.060087625 -0.089047626 -0.99421328 0.17729156
-0.13557723 -0.28580749 0.87160426 -0.02676004 -0.078734078 -0.99653643 0.071108587
-0.27043784 -0.16902296 0.89472032 -0.946105 0.032687448 -0.32220623 0.028622774
0.046320345 -0.14603253 0.95326895 -0.57114649 0.011073736 -0.82077348 0.059728317
-0.14577532 -0.089104451 0.89950377 -0.038160983 0.68931359 -0.72345734 0.085397258
-0.32151681 -0.37551793 1.053351 -0.99404222 -0.046997819 -0.098342359 0.0610191
-0.19839886 -0.37012196 0.84093612 0.067314878 0.16615015 -0.98380017 0.072356097
-0.26927662 -0.091337211 0.96859956 -0.8024047 0.55595309 -0.21694013 0.067122482
-0.19062801 -0.098092139 0.89368826 -0.27439314 -0.7055198 -0.65341425 0.037702035
-0.20610845 -0.089347959 0.89109844 0.35476425 0.49632093 -0.79234332 0.081143357
-0.096368976 -0.30560255 0.86650467 0.12626062 0.16112913 -0.97882366 0.097828694
-0.078130595 -0.23614642 0.98623568 -0.039795827 0.9972831 -0.061989583 0.020285064
-0.28516144 -0.090288162 1.076102 -0.61225599 0.78556067 -0.089649998 0.096341692
-0.30076927 -0.25585943 0.97540325 -0.83230144 0.50682217 -0.22451191 0.1031162
-0.30927661 -0.2430871 1.106402 -0.20159478 0.97285277 -0.11365372 0.028532125
-0.33340871 -0.36166579 1.1707931 -0.95986235 0.25531879 -0.11608875 0.078921065
-0.083782166 -0.23682894 0.93969864 0.012050998 -0.99932212 -0.03478675 0.027850743
-0.13815214 -0.38580611 0.85445261 -0.011957717 0.044899803 -0.9989199 0.18950775
-0.19955301 -0.087324306 0.88535863 0.31949359 0.49993786 -0.80497575 0.098808341
0.043288276 -0.17454395 0.95532131 -0.57432771 0.058201406 -0.81655389 0.055914778
-0.25246212 -0.38241664 0.83729237 -0.10939325 -0.1897137 -0.97572637 0.053799506
-0.046907868 -0.3902086 0.87329841 0.13257997 0.24632646 -0.96007597 0.048864841
-0.2087725 -0.35679609 0.84368664 0.068031184 0.017921787 -0.99752218 0.13343725
-0.28846616 -0.33245689 0.85504538 -0.63305199 0.40502214 -0.65969867 0.092141367
-0.25497249 -0.18580541 0.87111813 -0.18132006 0.27180672 -0.94511592 0.057725035
-0.10913014 -0.2931444 0.8712399 0.0068851341 -0.25143972 -0.96784842 0.088189229
-0.1030849 -0.2399369 0.95143801 0.031650335 -0.99949902 -4.1482916e-05 0.0097893476
-0.13011017 -0.27963597 0.86010933 -0.062894553 -0.054112431 -0.99655217 0.047136195
