# .PCD v0.7 - Point Cloud Data file format
VERSION 0.7
FIELDS x y z normal_x normal_y normal_z curvature
SIZE 4 4 4 4 4 4 4
TYPE F F F F F F F
COUNT 1 1 1 1 1 1 1
WIDTH 586
HEIGHT 1
VIEWPOINT 0 0 0 1 0 0 0
POINTS 586
DATA ascii
-0.017404204 0.016978452 0.73515701 -0.59868294 -0.058319591 -0.79886025 0.087258421
0.0056959842 0.016135694 0.71498638 -0.57138205 -0.040241566 -0.81969702 0.077642314
-0.12405223 0.0083284536 0.80821538 -0.3149606 0.80641121 -0.50050056 0.015490863
0.0071385517 -0.050359815 0.76787728 0.98188913 0.098566867 0.1617969 0.0039318935
0.0071747983 -0.019720914 0.72114295 -0.80466741 -0.24718031 -0.53982598 0.029061403
0.0045617893 -0.049693353 0.77846408 0.98500711 0.014154587 0.17193216 0.0051820134
0.00228523 -0.045363337 0.78324461 0.98403031 0.025753753 0.17612812 0.004563727
-0.022519873 -0.14639246 0.71388263 -0.45179647 0.68521047 -0.57128513 0.024444891
-0.12200453 -0.14059174 0.78904414 -0.23635349 0.8549667 -0.46170232 0.057454314
-0.0049096826 -0.27601853 0.66740239 -0.55397516 0.22693568 -0.80100673 0.0022557948
-0.13318272 -0.24967773 0.7788347 -0.59698194 0.13635175 -0.79058254 0.0010032303
-0.21254332 -0.25823179 0.83415693 -0.58663815 0.10433348 -0.80310041 0.0003689428
-0.22340058 -0.24135061 0.84450293 -0.61393374 0.10930204 -0.78175348 0.00041393543
-0.22143202 -0.25425249 0.84171104 -0.60324007 0.1056266 -0.79053426 0.00039149428
-0.08933115 -0.13630943 0.77464873 -0.22242974 0.91238248 -0.34363249 0.03272805
0.013900137 -0.084369712 0.73574781 -0.94227707 0.20827188 -0.26217684 0.011834992
-0.12680286 -0.25108188 0.77409875 -0.60299206 0.13641699 -0.78599679 0.00091699796
0.0041500479 -0.15761167 0.68208325 -0.62094057 0.29786646 -0.72505754 0.010319415
0.0087473197 -0.06171963 0.7673499 0.98461914 0.012959962 0.17423324 0.0054467442
0.023952208 -0.29430959 0.64581138 -0.3926338 0.22023627 -0.89293593 0.0071669728
-0.10250397 -0.25112185 0.75443363 -0.62559193 0.13928249 -0.76761657 0.00041708443
-0.051699944 -0.2916283 0.70113331 -0.63294375 0.22270249 -0.7414754 0.00044726417
0.027368315 -0.051303197 0.69336212 -0.64955449 0.14486717 -0.74638623 0.041634679
0.026063504 -0.020392871 0.69444817 -0.6760959 0.033266906 -0.73606229 0.029124433
-0.0023200728 0.0092762141 0.72115874 -0.57820672 -0.089018106 -0.81101948 0.077764466
0.02386372 -0.046679474 0.70321989 -0.82623255 -0.035227675 -0.56222671 0.040227093
0.0072102807 -0.020177996 0.72241116 -0.80177665 -0.24924795 -0.54316634 0.02910801
0.00036355166 -0.094482303 0.83507288 0.83742058 -0.54086936 -0.078657418 0.025404373
0.025761753 -0.048000585 0.69874221 -0.77282691 0.028426833 -0.63397986 0.044588324
0.036751263 -0.098177321 0.67662787 -0.47086266 0.24544977 -0.84737408 0.039455913
0.018229146 -0.10229843 0.72008771 -0.86380935 0.35041031 -0.3620027 0.014821731
0.042190846 -0.11024518 0.67114288 -0.37808618 0.28040826 -0.88228232 0.015164705
0.049385045 -0.21350332 0.64704078 -0.0063920841 0.19710213 -0.98036212 0.032975003
-0.10305978 -0.23349664 0.75770676 -0.6213758 0.10693044 -0.77618164 0.00036933829
0.057970662 -0.22850139 0.6459285 0.17109513 0.15440696 -0.97308016 0.036927421
-0.18930703 -0.24746026 0.81873852 -0.57156754 0.087177761 -0.81591094 0.00021420809
-0.18950343 -0.20521329 0.82278633 -0.58796358 0.10371242 -0.80221105 0.00057431892
0.005228417 -0.06739568 0.78536111 0.98515117 -0.066276871 0.15838121 0.0080702938
-0.0012699022 -0.097350612 0.79014784 0.92928588 -0.36037397 0.080983639 0.025409546
-0.071405925 -0.19549251 0.73616707 -0.64077759 0.12707874 -0.75713605 0.0012336698
-0.085095875 -0.070175506 0.89847422 0.025009546 0.27799436 -0.96025705 0.0078630736
-0.15343451 -0.29126844 0.78355289 -0.58183253 0.20914236 -0.78595829 0.000119843
-0.1816216 -0.2915591 0.80451626 -0.58627987 0.18840536 -0.78789556 0.00031165878
0.0068702316 -0.26574951 0.66236728 -0.52823782 0.21076088 -0.8225233 0.0034544519
-0.26238087 -0.30084333 0.86655676 -0.77444208 0.12942207 -0.61926526 0.011655183
0.033734273 -0.088432014 0.680493 -0.52795619 0.22043942 -0.82016391 0.050308283
-0.19579342 -0.17248999 0.83275646 -0.5890978 0.20400493 -0.78188604 0.0039056367
0.030393146 -0.053537033 0.68946093 -0.42471698 0.19761311 -0.88349563 0.036362641
0.0091966204 -0.06179947 0.76129156 0.98368233 0.05309172 0.17190214 0.0062612505
-0.086213931 -0.25007027 0.74130929 -0.63110071 0.14257117 -0.76248628 0.00035496138
-0.21568744 -0.25087625 0.83723855 -0.5875842 0.097948022 -0.80321294 0.00019885079
0.0052822572 -0.024712468 0.73465168 -0.84757721 -0.34304056 -0.40489009 0.028692914
-0.23226608 -0.15802218 0.86670542 -0.62220883 0.28202751 -0.73028535 0.0081524523
0.015124831 -0.083557658 0.73335105 -0.94512653 0.19078033 -0.26521432 0.010933637
-0.09997566 0.0095267529 0.79297113 -0.24219394 0.76647812 -0.59485573 0.012607596
-0.067529708 -0.19632706 0.73297167 -0.64482343 0.12807237 -0.75352514 0.0011717882
-0.10581531 0.015220025 0.80154413 -0.24334133 0.80936772 -0.53451753 0.010478499
0.00812642 -0.19326808 0.67190027 -0.53278929 0.13319144 -0.83570069 0.0022661544
0.011395424 -0.17314118 0.673859 -0.54398662 0.20478716 -0.81372041 0.01296679
-0.053143919 -0.19217822 0.72154504 -0.66316313 0.15388492 -0.73248482 0.0011136256
-0.060994234 -0.24097553 0.72227079 -0.63863343 0.13004561 -0.75844282 6.9508023e-05
-0.039056681 -0.15754384 0.71696609 -0.55005729 0.50758868 -0.66316718 0.025294242
-0.1852306 -0.071459897 0.8884294 -0.24268362 -0.065623 0.96788341 0.14729896
-0.18050139 -0.25257656 0.81270164 -0.56946754 0.093599863 -0.81666744 0.00029477751
0.014005532 -0.060062137 0.73562634 0.96285003 0.11239601 0.24553426 0.0091674719
0.017493661 -0.25668228 0.6565851 -0.46679974 0.14285168 -0.87274927 0.0044167116
-0.19053884 -0.15625086 0.83640033 -0.53672105 0.42030996 -0.7316215 0.020978892
0.041828506 -0.21699816 0.65036857 -0.19406515 0.17150825 -0.96587968 0.033310033
-0.025419628 -0.24459094 0.69090056 -0.63276565 0.16223229 -0.7571581 0.00066968228
0.024518073 -0.26907647 0.65038151 -0.39093149 0.15807465 -0.90674418 0.0096656866
0.044948019 -0.06428656 0.68357539 -0.31046942 0.21938047 -0.92492217 0.018508514
-0.062324394 -0.18646993 0.73030931 -0.67849088 0.19373886 -0.70860106 0.0037133396
0.0027103289 -0.084303655 0.78821236 0.95891821 -0.24246818 0.14725837 0.018097604
0.0017679567 -0.068141058 0.8072722 0.99070519 -0.11751194 0.068513937 0.0063080513
0.025391178 -0.19020347 0.66149974 -0.35562405 0.18152499 -0.91683167 0.011181777
-0.11618613 -0.25095662 0.76592034 -0.61350268 0.13226567 -0.77853733 0.00051169354
-0.16920114 -0.25080577 0.80542994 -0.57002252 0.096791096 -0.81590796 0.0008366757
-0.15777047 -0.28713763 0.7878443 -0.57913923 0.20087411 -0.7900933 0.00039960066
-0.22100902 -0.25600469 0.84078085 -0.5964632 0.10423518 -0.7958433 0.00023423533
0.0065083583 -0.20661114 0.67245758 -0.54709935 0.11472694 -0.82916826 0.0016784802
0.03064514 -0.20758198 0.65640873 -0.30286145 0.15784347 -0.93987256 0.016071474
-0.011536608 -0.30170271 0.6639362 -0.56093794 0.2344816 -0.79395658 0.0025059476
-0.06000527 -0.21663196 0.72365129 -0.64404583 0.10751171 -0.75739443 0.00019851135
-0.055721816 -0.24987994 0.71555209 -0.63756686 0.15200114 -0.75525099 0.00034401059
-0.014280613 -0.24994522 0.68163925 -0.61387593 0.18153387 -0.76824588 0.00094545487
-0.082671709 0.011516502 0.78586149 -0.17994991 0.8104347 -0.55750662 0.014198873
-0.12441022 -0.072923683 0.90496761 -0.09788806 0.55936903 -0.82311863 0.036299601
-0.18617061 -0.22059557 0.81850702 -0.57135481 0.081347816 -0.8166616 0.0002815224
-0.18332669 -0.23185711 0.81587499 -0.56840295 0.080048621 -0.818847 0.0002768391
-0.14252502 -0.23468731 0.78749621 -0.58708638 0.079145312 -0.805646 0.00030288467
-0.13958076 -0.25083506 0.78334993 -0.59063798 0.13932692 -0.79481745 0.001157809
-0.08372397 -0.23409069 0.74170858 -0.6300897 0.11821876 -0.76747078 0.00030129464
-0.18381792 -0.23573969 0.81617022 -0.57001364 0.080813684 -0.81765121 0.00020066825
-0.17507276 -0.24786761 0.80972099 -0.56824404 0.088827915 -0.81805158 0.00038558719
-0.069986299 -0.25338686 0.7280457 -0.63398379 0.15051764 -0.75855714 0.00045542084
-0.10362492 -0.25004691 0.75571364 -0.62495303 0.13433589 -0.76901722 0.00031993695
-0.092427984 -0.20066436 0.75258029 -0.61635679 0.12305677 -0.77779257 0.001233762
0.04202858 -0.2003431 0.65362293 -0.22065704 0.18687165 -0.9572823 0.026821025
-0.020894362 -0.18756977 0.69516605 -0.60495389 0.22983234 -0.76236987 0.0068458747
-0.03265338 -0.19343275 0.7044118 -0.62788051 0.16502894 -0.76061255 0.0029974291
-0.04772168 -0.19021538 0.71722507 -0.65671849 0.16650176 -0.73552567 0.001910938
-0.16163856 -0.29779035 0.78788823 -0.57945657 0.21648751 -0.78572464 0.00015709983
-0.12119126 -0.24477734 0.77116126 -0.60945272 0.1168818 -0.78415942 0.00058157946
-0.1240718 -0.23547533 0.7744562 -0.6083498 0.10284901 -0.78697687 0.00030281246
-0.012079 0.0049587702 0.72889072 -0.53171682 -0.14590879 -0.83425891 0.061830498
-0.23051903 -0.29950839 0.84004265 -0.60561579 0.17067401 -0.77723861 0.00058177905
-0.020540409 -0.23090412 0.68978435 -0.62931603 0.14072369 -0.76430243 0.0005854168
-0.20466748 -0.156965 0.84751779 -0.54479325 0.38548407 -0.74471623 0.015836652
-0.1028508 -0.20173162 0.76078087 -0.61174715 0.11030467 -0.78332514 0.00071110611
-0.20309356 -0.17595987 0.83715498 -0.58938622 0.2040135 -0.7816664 0.0038905286
0.014648224 -0.10707968 0.7205348 -0.80944556 0.4782815 -0.34065339 0.011245146
-0.017590506 -0.26648018 0.6797933 -0.6028555 0.21277809 -0.76895428 0.0011813929
-0.060717616 -0.26210913 0.71740061 -0.63711441 0.16777264 -0.75228816 0.0006266748
-0.056327898 -0.23371498 0.71895558 -0.64266306 0.11844452 -0.75693792 0.000240535
0.063568443 -0.19058274 0.65442783 0.21513037 0.21929857 -0.95164436 0.040471267
0.068930604 -0.2528173 0.6470226 0.41044188 0.10439087 -0.90589184 0.033677343
-0.18822013 0.015149913 0.87466753 -0.57929099 0.47069818 -0.66548115 0.070705883
-0.030243251 -0.12066304 0.80263537 -0.4522323 0.88781166 -0.085301481 0.031573415
-0.2257233 -0.16775404 0.85828483 -0.61993408 0.25636181 -0.74159318 0.0071360129
-0.15672664 -0.20223847 0.80044854 -0.56992286 0.072604738 -0.81848425 0.00034699112
-0.16856678 -0.23587744 0.80603349 -0.56916481 0.080900326 -0.81823379 0.00026208838
-0.16863453 -0.23910047 0.80592859 -0.5688948 0.080666915 -0.81844455 0.00029055215
-0.11321855 -0.23382203 0.76532888 -0.61567885 0.10095556 -0.78150338 0.0003140526
-0.22936006 -0.30596673 0.83711785 -0.60215741 0.18252495 -0.77723306 0.00067999179
-0.13206539 -0.23689552 0.77976644 -0.59915048 0.092951067 -0.79522252 0.00052635599
-0.095956579 -0.25347352 0.74878126 -0.62833369 0.14619288 -0.76408398 0.00048429813
-0.085535884 -0.22375169 0.74468189 -0.62917829 0.10395211 -0.77027833 0.00017997822
-0.15330422 -0.25178462 0.7938087 -0.57730436 0.13110012 -0.8059358 0.00095633982
-0.12622832 -0.20983554 0.7778576 -0.59814495 0.081858613 -0.79719627 0.00042017293
-0.084854543 -0.2481157 0.74065787 -0.63081461 0.13950171 -0.76329041 0.00041684156
-0.23682967 -0.19760238 0.8614673 -0.67670637 0.13674802 -0.72344202 0.0014959658
-0.014230067 -0.30152324 0.66668612 -0.57149655 0.23064031 -0.78752571 0.0023971752
-0.21965821 -0.18498698 0.84885705 -0.61823159 0.16129072 -0.76926911 0.0016934624
-0.23149523 -0.23282433 0.85242456 -0.63784844 0.11109196 -0.76210761 0.00070859684
-0.22656864 -0.18993065 0.8539272 -0.64225161 0.14865673 -0.75194013 0.0015770035
-0.24262361 -0.29178417 0.85087037 -0.64191854 0.16909072 -0.74789637 0.0019979
-0.061319295 -0.15613642 0.74005616 -0.60207582 0.53265995 -0.59479243 0.030218164
-0.1748578 -0.16009536 0.81815547 -0.61209971 0.18162869 -0.76963949 0.01293831
-0.22396588 -0.18442763 0.85273093 -0.62921041 0.15878873 -0.76084191 0.0020438111
-0.23290928 -0.29043311 0.84393585 -0.61283368 0.16030101 -0.7737819 0.00063735497
-0.20782012 -0.29435405 0.8240363 -0.58551502 0.16200821 -0.79430819 0.00056111248
-0.10237408 -0.05372493 0.89950913 -0.033199403 0.32988402 -0.94343752 0.010295366
-0.16569993 -0.15152423 0.81488842 -0.60760778 0.57025915 -0.55282646 0.050326023
-0.23375252 -0.21714716 0.85579121 -0.65924197 0.10140554 -0.74506176 0.00058840483
0.0080035087 -0.28834024 0.65510803 -0.51272029 0.24917492 -0.82160187 0.00286323
-0.019151874 -0.19515392 0.69175071 -0.61356211 0.1418242 -0.77680594 0.0009233458
0.0066397907 -0.29902664 0.65261877 -0.5167554 0.24319147 -0.82086647 0.0023481501
-0.21199243 -0.14668624 0.85710657 -0.51697391 0.38544688 -0.76430923 0.012086782
0.0018197761 0.0082961768 0.71791685 -0.61924142 -0.064268865 -0.78256607 0.072699264
0.012563704 -0.16967539 0.67374957 -0.53752083 0.21116336 -0.81638318 0.015064574
-0.052458387 -0.24326926 0.71430498 -0.64063561 0.13803186 -0.75533646 0.00023474994
-0.21994108 -0.10627511 0.88707352 -0.36714578 0.42508328 -0.82735008 0.1150185
-0.14396583 -0.23784949 0.78848523 -0.58452839 0.083593927 -0.80705553 0.00038117083
-0.10735998 -0.24410951 0.75978792 -0.62016284 0.12103099 -0.77508032 0.00038393514
-0.19098395 -0.20403837 0.82421708 -0.59018254 0.10883433 -0.79989976 0.00065555272
-0.20692722 -0.28260303 0.82614678 -0.58308518 0.14026967 -0.80021006 0.00069979072
-0.18054426 -0.19900601 0.81724155 -0.58693945 0.11061954 -0.80203831 0.00054569443
-0.20255107 -0.2018683 0.83335954 -0.60114777 0.12466112 -0.7893548 0.00048595812
-0.19332527 -0.14677712 0.84489685 -0.49575204 0.48960072 -0.71730119 0.01740752
-0.24804342 -0.14551719 0.88550085 -0.74128741 0.27575848 -0.61192346 0.020909244
-0.25461483 -0.28660068 0.86244524 -0.72352976 0.16215418 -0.67097753 0.0084618917
-0.028563388 -0.26724467 0.68881369 -0.62063366 0.20771903 -0.75608641 0.00052990392
-0.21770239 -0.29006439 0.83287448 -0.59502715 0.15482113 -0.78865272 0.00052164728
-0.0004937083 -0.096615583 0.83857018 0.8243432 -0.56249118 -0.06373404 0.028785279
-0.025088266 -0.12097608 0.81488597 -0.54386365 0.83877677 -0.025804562 0.03861006
-0.086335503 -0.30235109 0.72700274 -0.60898232 0.25985324 -0.74941105 0.00054621394
-0.062597439 -0.21520072 0.72654319 -0.64396089 0.11396989 -0.75652182 0.00054615876
-0.066035025 -0.26499715 0.72212076 -0.63707715 0.17142113 -0.75149685 0.00065578398
-0.019481551 -0.1527447 0.70478952 -0.52099133 0.54273331 -0.65879333 0.016512047
-0.066115052 -0.24411599 0.7262435 -0.63544929 0.13756846 -0.75978887 0.00031472195
-0.014849954 -0.30600968 0.66501856 -0.56388122 0.23560557 -0.79153514 0.0024874092
-0.23994339 -0.10913166 0.89111078 -0.83722788 0.23439229 -0.49407461 0.10693639
-0.242662 -0.10729369 0.8933292 -0.87410939 0.22633733 -0.42977238 0.11087849
-0.20736612 -0.145726 0.85515988 -0.51230156 0.39482316 -0.7626676 0.0124267
-0.18081687 -0.24147373 0.81399834 -0.56854105 0.082678705 -0.81848967 0.00019608783
-0.11552404 -0.1647301 0.77572924 -0.37404725 0.39344791 -0.83981395 0.05061404
-0.23340099 -0.26990885 0.84773874 -0.61963743 0.14688511 -0.77102149 0.0010992361
-0.016954498 -0.12267382 0.76226926 -0.47868317 0.85050231 -0.2179641 0.027262952
-0.090841062 -0.1643104 0.7582171 -0.50058341 0.45874983 -0.73414218 0.044190224
-0.10611622 -0.13113315 0.84205121 -0.10832322 0.97293466 -0.20411822 0.0085565373
-0.046722796 -0.28375012 0.69981229 -0.63555437 0.21151501 -0.74251729 0.0003363796
-0.086502224 -0.29950127 0.72833604 -0.61066777 0.25490001 -0.74974054 0.000839393
-0.24565582 -0.21522689 0.86703116 -0.71520883 0.10560331 -0.69088656 0.0031509527
-0.2447083 -0.27361336 0.85598344 -0.64706612 0.15930749 -0.74560487 0.0020911337
-0.17355457 0.021329049 0.87540978 -0.26459399 0.83382529 -0.48448464 0.052713413
-0.19937398 -0.28012305 0.8205089 -0.58035994 0.13835303 -0.80252147 0.00097986695
-0.20795624 -0.23933803 0.8323456 -0.58747834 0.088957913 -0.80433559 0.00077755586
-0.24534521 -0.27611122 0.85587186 -0.65351391 0.15724057 -0.74040198 0.0025183677
-0.24340843 -0.26883033 0.85536659 -0.64282489 0.15333702 -0.75050914 0.0016754708
0.01741733 -0.19752276 0.66542047 -0.43283662 0.15480876 -0.88808036 0.0057082376
-0.10448425 -0.080123603 0.89622968 -0.0019606031 0.34356031 -0.93912864 0.013334787
0.0028181807 -0.19796188 0.67544657 -0.56620771 0.12462642 -0.81478655 0.0012540731
-0.061397798 -0.19186848 0.72794437 -0.65952998 0.14917292 -0.73672765 0.0016270545
-0.0051330384 -0.2931048 0.66185546 -0.54618365 0.24186002 -0.8019895 0.0022663057
-0.15351555 -0.19990061 0.7985065 -0.57074708 0.073817261 -0.81780112 0.00030221912
-0.20668365 -0.27858624 0.82719809 -0.58255404 0.13461894 -0.80156624 0.00061008794
-0.27856231 -0.29436955 0.89149779 -0.93087912 0.083663136 -0.35561842 0.042477157
-0.046765797 -0.17160791 0.71998346 -0.62588894 0.34214976 -0.70085412 0.017836832
-0.25203073 -0.14727068 0.88833648 -0.7634663 0.26678616 -0.58817023 0.021152461
-0.0044823941 -0.32141033 0.65089196 -0.51217127 0.25727591 -0.81944478 0.0023761133
-0.12010755 -0.12778997 0.86015737 -0.19681761 0.80767125 -0.55581468 0.020541746
-0.074038796 -0.13078919 0.81111735 -0.11311204 0.98737293 -0.11090718 0.0019261028
-0.014478348 -0.25834379 0.67919791 -0.60497338 0.19411637 -0.77222157 0.0012384162
-0.055724021 -0.096047416 0.89509857 0.00050909672 0.3131786 -0.94969416 0.014451672
-0.26934019 -0.19055296 0.90167129 -0.93918896 0.13617265 -0.31524771 0.037235413
-0.25678521 -0.1876232 0.88261771 -0.79288101 0.15793908 -0.58855325 0.01406969
-0.25873616 -0.25272119 0.87421131 -0.78899038 0.13366683 -0.59968936 0.009561996
-0.21496905 -0.14966826 0.85792708 -0.52386242 0.376537 -0.76406026 0.011723697
-0.2565527 -0.18352088 0.88310099 -0.79902065 0.18005149 -0.57371372 0.017731557
-0.25951692 -0.25869486 0.87395346 -0.79233581 0.13734746 -0.59442377 0.0092718825
-0.2579934 -0.1738964 0.88843715 -0.8332296 0.21170256 -0.51079386 0.036069624
-0.15574567 -0.16423061 0.80370259 -0.59308779 0.18377279 -0.78388417 0.014236419
-0.26322436 -0.19576067 0.8895455 -0.87114173 0.13013273 -0.47347391 0.033911705
-0.26600811 -0.20398235 0.89218599 -0.89227819 0.11979657 -0.43530264 0.033933546
-0.22754921 -0.22351632 0.85002673 -0.63491446 0.10630368 -0.76523405 0.00019125159
-0.26366511 -0.19813254 0.88987029 -0.8749525 0.12889779 -0.46673694 0.036651731
-0.26382908 -0.18627454 0.89445752 -0.88613641 0.1652927 -0.43294424 0.041047204
-0.13612989 -0.16342869 0.78990066 -0.48519441 0.23704083 -0.84166384 0.042436495
-0.15551257 -0.24270287 0.79674172 -0.57357997 0.088136889 -0.81439424 0.00045042846
-0.24698476 -0.26678911 0.85888451 -0.66580468 0.15525709 -0.72979414 0.0030716723
-0.2770327 -0.30149567 0.88420111 -0.86065513 0.10894587 -0.49739659 0.02687259
-0.11363204 -0.077318177 0.89577609 -0.021044871 0.34855679 -0.93705142 0.01640247
-0.21865192 -0.042356078 0.89595473 -0.96593004 0.2542651 -0.048254367 0.13129589
-0.26402649 -0.2151327 0.8862744 -0.84862649 0.08938092 -0.52138674 0.015681623
-0.095743351 -0.07611715 0.8973276 -0.0018679829 0.29251286 -0.95625979 0.0098674698
-0.23748435 -0.18373038 0.86354041 -0.67734051 0.16106306 -0.71782207 0.0019083705
-0.26998186 -0.28501999 0.87873954 -0.83875602 0.1239962 -0.53020114 0.02266204
-0.25937501 -0.26544082 0.87189645 -0.77883059 0.15978523 -0.60654068 0.0091335559
-0.27718404 -0.29783368 0.88460964 -0.85447037 0.1145526 -0.50671297 0.025238615
-0.19206946 -0.19701503 0.82577968 -0.59387517 0.12626505 -0.79458755 0.00084933726
-0.25443169 -0.15055564 0.92342299 -0.90857893 0.27150106 0.31744525 0.042597238
-0.27991313 -0.29332331 0.89929247 -0.96900666 0.1113784 -0.2205015 0.04954249
-0.26102099 -0.16173957 0.89559853 -0.88107616 0.22393619 -0.4166021 0.033766083
-0.19039606 -0.15188076 0.83571953 -0.56178981 0.4723568 -0.67916954 0.021066859
-0.26400241 -0.15739745 0.90291667 -0.91940278 0.22272629 -0.32417822 0.030147702
-0.26844645 -0.29550603 0.87476027 -0.80557454 0.12321284 -0.5795415 0.017245634
-0.25454769 -0.15290804 0.88955098 -0.79568046 0.24917175 -0.55209243 0.01853141
-0.19737844 -0.29699802 0.8152045 -0.59172881 0.18425444 -0.78479767 0.00036418161
-0.22615005 -0.18874094 0.85321665 -0.64085716 0.14996658 -0.75286931 0.0015675838
-0.2346361 -0.17489946 0.86384344 -0.6664753 0.19355807 -0.71996248 0.00344901
-0.24419603 -0.13871993 0.88320243 -0.71724468 0.28980526 -0.63369787 0.025834158
-0.24139431 -0.1418694 0.87930256 -0.68861771 0.30326816 -0.65866077 0.021202086
-0.2371313 -0.27184415 0.85001147 -0.62641984 0.15179789 -0.76456231 0.0011876322
-0.23517439 -0.20593253 0.85869616 -0.67064345 0.12050024 -0.73192692 0.0011019376
-0.15775029 -0.14558344 0.81050622 -0.43781415 0.85372925 -0.28189552 0.054165594
-0.2403796 -0.23712943 0.85869396 -0.65388328 0.11991337 -0.74703234 0.00098425092
-0.21495058 -0.17535895 0.8473562 -0.594347 0.21734555 -0.77428198 0.0062227361
-0.16715272 -0.28266367 0.79637897 -0.57414663 0.19212827 -0.79589093 0.00060224027
-0.27067137 -0.2222188 0.90022618 -0.97682881 0.072861716 -0.20123777 0.036633868
-0.26904595 -0.21375947 0.89685792 -0.95802712 0.087406009 -0.27302787 0.038517695
-0.15202411 -0.2297342 1.0788873 -0.78285384 0.14935832 0.60401326 0.00060440472
-0.22251116 0.0088812131 0.9025234 -0.81886727 0.48603529 -0.30532944 0.10476319
-0.26884639 -0.25412333 0.9331907 -0.94222796 0.071043514 0.32735187 0.012658525
-0.26604089 -0.17826931 0.89956063 -0.90817207 0.18232943 -0.3768017 0.039141379
-0.10385799 -0.26170281 1.1520563 -0.80936593 0.08618141 0.58094716 0.0021393676
-0.12267151 -0.23778944 1.1200516 -0.80716467 0.13955575 0.57359344 0.00098724139
-0.20265189 -0.15199438 0.98565775 -0.66742718 0.62077314 0.41131696 0.023651689
-0.022327226 -0.056204598 1.1006708 -0.70901823 0.67874897 -0.19129308 0.16395913
-0.16476744 -0.26223078 1.0675504 -0.79633284 0.16450706 0.58205789 0.00049610244
-0.18165503 -0.24879122 1.0437269 -0.78485358 0.12242831 0.60746706 0.00078468554
-0.097848251 -0.1293363 1.0449721 -0.14846097 0.98448801 0.093503006 0.0076501155
-0.26983088 -0.2408863 0.9250719 -0.96283334 0.11241949 0.2455889 0.019396279
-0.16119437 -0.28811228 1.0836143 -0.80105311 0.23447156 0.55076039 0.0016027718
-0.1650994 -0.19790034 1.0559798 -0.74972951 0.17583156 0.63795674 0.0026459002
-0.17706937 -0.23151679 1.0464889 -0.77747124 0.11269569 0.61873919 0.0003860718
-0.1389821 -0.21972595 1.0930768 -0.78616774 0.1647698 0.59564358 0.00079972268
-0.239208 -0.053204637 0.90473878 -0.8997122 0.24038762 0.36432374 0.061453503
-0.093415447 0.016776115 1.0768019 -0.27562311 0.93975884 0.20220095 0.0086384462
-0.096507654 -0.26652324 1.1641487 -0.81942445 0.074342892 0.56834561 0.0030804418
-0.16701275 -0.18826957 1.0464307 -0.73771644 0.23674266 0.63223994 0.004183237
-0.25171754 -0.24880721 0.95809251 -0.82940292 0.12789308 0.54381448 0.0011353299
-0.25941339 -0.22692972 0.94146663 -0.88778323 0.13898245 0.43877649 0.009068002
-0.12751502 -0.12975305 1.0107868 -0.15425561 0.97173315 0.17871745 0.0091051152
-0.20723209 -0.1576585 0.98146766 -0.7054866 0.57158643 0.41901976 0.022290803
-0.22574458 -0.15809672 0.95652324 -0.67313707 0.48711866 0.55641884 0.018893272
-0.19541842 -0.20850988 1.0195659 -0.76414543 0.11839554 0.6340853 0.0011254932
-0.21615975 -0.17165262 0.97651857 -0.79179251 0.38307908 0.4757258 0.018259631
-0.16286018 0.015039069 0.98992127 -0.48745158 0.75479901 0.43894112 0.024222506
-0.19568597 -0.26821667 1.0305381 -0.78067642 0.14691587 0.6074208 0.0014670909
-0.17534979 -0.12056705 0.95995814 -0.30167344 0.71281856 0.63315308 0.050831694
-0.13532907 -0.21960148 1.0982016 -0.79394859 0.15416133 0.58811563 0.0010335954
-0.17746082 0.016636731 0.97171205 -0.46661052 0.792252 0.39320669 0.026767397
-0.20260155 -0.2697216 1.0231476 -0.77863115 0.1462633 0.61019713 0.0018841017
-0.17512722 -0.19812734 1.0435635 -0.75371987 0.1688074 0.63514608 0.0024310653
-0.16335291 -0.2645596 1.0700324 -0.79647076 0.17188554 0.57973248 0.00040264588
-0.20037025 -0.20822614 1.0144 -0.76393652 0.13916498 0.63010639 0.00084105652
-0.19550779 0.022977352 0.94118595 -0.56867063 0.74638224 0.34572718 0.031202968
-0.22724558 -0.057033531 0.92924398 -0.81757885 0.15592748 0.55430275 0.063535929
-0.22188598 -0.046050455 0.93279064 -0.7679258 0.17366061 0.61654842 0.069481924
-0.14096954 -0.17100492 1.0698189 -0.75132525 0.37938753 0.53997725 0.0081543121
-0.19390632 -0.19416128 1.0209559 -0.75653547 0.17295183 0.63066775 0.0014608897
-0.1721025 -0.13634798 1.0031492 -0.39750826 0.86468565 0.30709282 0.022249302
-0.090577073 0.016090857 1.0827652 -0.28703606 0.93459129 0.21011761 0.0087118745
-0.20953664 -0.024930788 0.93959272 -0.82477993 0.093855239 0.55761033 0.047487244
-0.18875416 0.013650247 0.96693599 -0.58484095 0.70544183 0.40039077 0.035935253
-0.23706822 -0.063885853 0.91792244 -0.8650589 0.16512373 0.47371635 0.054724
-0.22936186 -0.073999964 0.92818058 -0.81290925 0.12859613 0.56801552 0.069548018
-0.17558379 0.019255305 0.96581674 -0.35042313 0.87383938 0.33705854 0.030384431
-0.2262675 -0.20006202 0.98298174 -0.7856741 0.21785708 0.57901168 0.0045009991
-0.11678247 -0.15931308 1.1029863 -0.78915119 0.39012957 0.47438312 0.0076228604
-0.16798249 -0.29737771 1.0783341 -0.79609674 0.23838079 0.55624151 0.00052065315
-0.24167879 -0.056928035 0.90460962 -0.89294267 0.19314976 0.40662831 0.051691528
-0.20435388 0.013135248 0.94185752 -0.78344798 0.45743123 0.42067316 0.037216753
-0.26978877 -0.28260154 0.93491656 -0.94715726 0.033248063 0.3190417 0.0080609899
-0.2117462 -0.026562579 0.93640321 -0.84494299 0.12337207 0.52043313 0.052897945
-0.016970973 -0.059106972 1.0799226 -0.70033717 0.6731742 -0.23741184 0.094013937
-0.19062358 0.014706076 0.9618082 -0.62109888 0.67409378 0.3997921 0.039141539
-0.25093955 -0.21195745 0.95049369 -0.83040011 0.15530807 0.53508413 0.0024779364
-0.09287937 -0.20345506 1.1544005 -0.79212314 0.20126681 0.57622266 0.0012121351
-0.18008736 -0.19217482 1.0348833 -0.75459909 0.16934663 0.63395733 0.0020638513
-0.16334465 -0.066844612 0.93116271 -0.711927 0.33532381 -0.61702347 0.17740184
-0.22857673 -0.033346836 0.89844292 -0.96749073 0.25194141 -0.022070497 0.098046906
-0.22425561 -0.00019215498 0.90047747 -0.87738413 0.28366691 -0.3869499 0.097960025
-0.16021816 -0.11011248 0.95783705 -0.31012273 0.55543876 0.77156448 0.037607394
-0.18290849 -0.25837493 1.0434768 -0.78605765 0.13552094 0.60311484 0.0011877922
-0.23078027 -0.19069391 0.97283697 -0.80108333 0.24691755 0.54524958 0.0031569358
-0.25406352 -0.18771774 0.93385369 -0.90978158 0.16236427 0.38201487 0.031365719
-0.26447085 -0.2482695 0.94058669 -0.92455649 0.09166497 0.36985517 0.0087460289
-0.22411202 -0.063023798 0.92885971 -0.73917121 0.11735722 0.66321427 0.093280539
-0.22802213 -0.042308483 0.92271942 -0.87592381 0.22028743 0.4292213 0.059060089
-0.11076163 -0.13005893 1.0233948 -0.14459689 0.98334593 0.11010245 0.0094853472
-0.2399985 -0.08362285 0.89624983 -0.98929018 0.10675586 0.099538639 0.11089058
-0.22776976 -0.059082624 0.92934543 -0.83085167 0.15357092 0.53488457 0.06172264
-0.21374503 -0.058064863 0.93209493 -0.54726195 0.04466619 0.83576864 0.1158934
-0.1742405 0.015684882 0.97575164 -0.46197763 0.79468 0.39377701 0.027161328
-0.074232049 0.018698428 1.0921801 -0.24258511 0.94935185 0.19970891 0.0085988324
-0.19213492 0.023171997 0.94323874 -0.50587726 0.80035675 0.32174101 0.034337778
-0.11350524 -0.16515464 1.1100996 -0.78145081 0.36400351 0.50678986 0.0091581885
-0.033422865 -0.089590713 1.1251807 -0.9291985 0.34566918 0.13077828 0.041106202
-0.029861037 -0.091295987 1.1323166 -0.77356124 0.43458682 0.46123448 0.06542822
-0.018672656 -0.052469451 1.1091837 -0.59040427 0.78785765 -0.17522281 0.19922316
-0.043849405 -0.12244437 1.1641833 -0.73465824 0.58566111 0.34245911 0.018623529
-0.15393935 -0.14832906 1.0421962 -0.45112664 0.72155643 0.52520585 0.045170736
-0.1004621 -0.27182588 1.1568271 -0.81079799 0.074528851 0.58056182 0.0035994994
-0.10954647 -0.20615461 1.1318586 -0.80685991 0.17675391 0.56367993 0.00066498417
-0.15308997 -0.29203865 1.0972108 -0.79603648 0.2520721 0.55025953 0.0025703257
-0.11716431 -0.22509633 1.1257871 -0.81120574 0.13530003 0.5688929 0.00050316594
-0.15670839 -0.22140692 1.071932 -0.77844089 0.14794829 0.61003369 0.00098929496
-0.18050787 -0.26105312 1.0475655 -0.78742272 0.14346991 0.59948468 0.00093551329
-0.17384639 -0.27053654 1.0595866 -0.79794252 0.17569381 0.57655823 0.00032700662
-0.19770542 -0.25450048 1.0243042 -0.77617872 0.1236766 0.61826426 0.0011041595
-0.20151456 -0.25122219 1.0201523 -0.76506591 0.11357551 0.63385701 0.0006599233
-0.13404639 -0.24346323 1.1061107 -0.79551387 0.15600532 0.58550841 0.00081687968
-0.15140761 -0.2965588 1.1023171 -0.80160797 0.26422504 0.53629267 0.0028443737
-0.19150671 -0.14428203 0.992787 -0.60350722 0.71095771 0.36099628 0.026359733
-0.19339694 -0.22812559 1.025233 -0.76810831 0.093180336 0.63350379 0.00059004728
-0.08952412 -0.26837805 1.1750437 -0.81266487 0.080106504 0.57719904 0.0057214396
-0.20427087 -0.21291722 1.0108873 -0.76566827 0.12586537 0.63080108 0.00084828056
-0.09982425 -0.28684449 1.1574585 -0.81482625 0.03557637 0.57861263 0.0071692071
-0.14125946 -0.2732974 1.1049817 -0.79566753 0.2207087 0.56409281 0.0020438058
-0.026574872 -0.058357812 1.1119987 0.93730384 -0.31191653 0.15546589 0.15442897
-0.12562104 -0.23453894 1.1150994 -0.80744654 0.14358273 0.57220113 0.0010391918
-0.17173642 -0.25903574 1.0593243 -0.79495066 0.1497362 0.58790523 0.00039252904
-0.088680081 -0.19642447 1.1574386 -0.78890336 0.21149184 0.57697713 0.001508995
-0.034807473 0.019377794 1.1430616 -0.28286269 0.91109335 0.29982916 0.030724574
-0.030686185 0.016730227 1.1567734 -0.29964575 0.83160383 0.46759748 0.037946403
-0.18362612 0.023792928 0.92970878 -0.2551986 0.94996727 0.18009973 0.025525346
-0.20855431 -0.0169475 0.93765473 -0.8636604 0.16701937 0.47559986 0.037717305
-0.19030777 0.0064495155 0.96934772 -0.74876702 0.510939 0.42224321 0.054395095
-0.1593819 0.025861848 0.88973165 -0.065941103 0.94301116 -0.3261621 0.021543518
-0.18152304 0.024350423 0.92805487 -0.23069862 0.95970607 0.16044436 0.019877914
-0.25979841 -0.18336277 0.9278301 -0.96625179 0.14125042 0.21542026 0.040822618
-0.05305988 0.019018788 1.1268554 -0.28951728 0.91334969 0.2863076 0.026791366
-0.16880217 0.012669075 0.98156357 -0.4157697 0.81121206 0.41118199 0.023475735
-0.092326753 0.016851975 1.0783607 -0.27562311 0.93975884 0.20220095 0.0086384462
-0.17681456 -0.10003164 0.94561464 -0.29061925 0.44330379 0.84795183 0.047446717
-0.16816579 -0.13260388 0.99488717 -0.32946882 0.88282299 0.33477426 0.021247076
-0.15267456 -0.19959766 1.071641 -0.76184583 0.19429345 0.6179328 0.0023986371
-0.24044411 -0.078940734 0.90957874 -0.93021452 0.11842529 0.34738496 0.0780323
-0.24331334 -0.11531106 0.91777545 -0.96696329 0.20524184 0.15118778 0.1033515
-0.18995307 -0.12472037 0.95892173 -0.33887905 0.69306898 0.63625175 0.041170523
-0.1840905 -0.29838961 1.0563471 -0.79217136 0.21433361 0.57142431 0.00029879747
-0.00095531397 0.029576173 0.79348189 -0.064261243 0.9963392 -0.056380142 0.0034395345
-0.090216875 -0.13006768 1.0984917 -0.50508833 0.76160866 0.40600249 0.020391772
-0.19268958 -0.29712901 1.045805 -0.78582919 0.20094374 0.58488816 0.00027062441
-0.096200153 -0.16290808 1.1311517 -0.70297611 0.39090115 0.59415567 0.011893369
-0.17060629 -0.067282915 0.93685156 -0.51861989 -0.41173124 -0.74934024 0.21989882
-0.09242408 -0.12827927 1.0176401 -0.086634025 0.99402028 0.066469625 0.00048958982
-0.16304877 0.010546999 1.0031801 -0.60616535 0.61867553 0.4998042 0.018982941
-0.15878528 -0.059625261 0.93038148 -0.72015822 0.1348221 -0.68058449 0.14193
-0.13331208 -0.13300201 1.0361356 -0.21693824 0.96837109 0.12326904 0.016982215
-0.18123181 -0.13841695 0.99982822 -0.52589452 0.78149825 0.33570147 0.027359348
-0.26724571 -0.17054249 0.9100998 -0.96084917 0.19768383 -0.19413906 0.034718644
-0.086156264 -0.15700616 1.1398933 -0.67288363 0.43946978 0.59505796 0.011223658
-0.13780168 -0.23694426 1.0979713 -0.79467666 0.15859808 0.58594847 0.00072326889
-0.17847958 -0.26906967 1.0526714 -0.79339248 0.16684727 0.58539754 0.00061641179
-0.11199798 0.016120896 1.0479068 -0.27219287 0.94384146 0.18728155 0.0086263567
-0.27517387 -0.28468263 0.90967655 -0.9995755 0.020887569 0.020314679 0.043344703
-0.17479527 -0.064847179 0.93069941 -0.45259213 -0.82967401 -0.32680497 0.21071728
-0.066432223 0.026172433 1.0355784 -0.089170635 0.99174583 0.092134625 0.0027669617
-0.047763709 0.025690729 0.80376631 -0.06523829 0.90132266 -0.42820731 0.01708659
-0.24165028 -0.06598293 0.89677054 -0.94410002 0.13465261 0.30090517 0.067727804
-0.26973495 -0.23093686 0.89249307 -0.94495243 0.06876339 -0.31990096 0.031765893
-0.22927257 -0.20102507 0.97805631 -0.79105115 0.22480538 0.56894684 0.0043428331
-0.25801408 -0.1746584 0.88829952 -0.83326602 0.21082202 -0.51109856 0.035824724
-0.22873208 -0.09808147 0.92692852 -0.76109439 -0.033809308 0.6477595 0.097359732
-0.25718376 -0.27130497 0.95713043 -0.85906476 0.079457603 0.50566226 0.0038802361
-0.24436054 -0.10471938 0.89777786 -0.95057058 0.2032778 -0.23472022 0.11279618
-0.24323428 -0.24201971 0.97199714 -0.80992579 0.12307191 0.573475 0.00027218385
-0.18450415 -0.11742394 0.95216882 -0.29050472 0.62010121 0.72875333 0.035055939
-0.059591174 -0.1239198 1.0016735 -0.091878831 0.9912293 0.094987743 0.00034980895
-0.090382755 -0.13089196 1.102898 -0.50915241 0.7489171 0.42413083 0.022359261
-0.19545206 -0.25880629 1.0281628 -0.77804089 0.13102703 0.61439747 0.0013520925
-0.0097288433 -0.12279479 1.2073981 0.5432753 0.20604962 0.81387687 0.063313842
-0.11399898 -0.13097037 1.0457784 -0.19379959 0.97454435 0.11271664 0.018089801
-0.1018875 -0.12954269 1.0338666 -0.13169637 0.98645043 0.097834364 0.0067948531
-0.22624658 -0.030416973 0.92184961 -0.94009423 0.21204276 0.26694706 0.084292077
-0.0741238 -0.12658106 1.1143817 -0.55732936 0.7266494 0.40170214 0.015090412
-0.099284887 -0.28213248 1.1597131 -0.81563395 0.049480498 0.57644838 0.005969712
-0.1633133 -0.12627774 0.97290951 -0.22782698 0.82671672 0.51442623 0.03647349
-0.13936904 -0.11922642 0.9650467 -0.2851721 0.72433019 0.62771225 0.030525068
-0.13640547 -0.25772813 1.1052744 -0.79207629 0.18314627 0.58229941 0.0009084816
0.025270537 0.02954467 0.79508644 -0.053035501 0.99790627 -0.037018463 0.002464277
-0.2206596 -0.076411679 0.93129134 -0.61825806 0.05418336 0.7841053 0.091650076
-0.094945289 0.01429416 1.0841742 -0.31633702 0.92520082 0.20960493 0.0080870222
-0.046412583 -0.11183184 1.0938346 -0.75798136 0.6494996 0.060121391 0.031229844
-0.21142037 0.025272295 0.89634591 -0.62923121 0.68855888 -0.36049235 0.082099177
-0.23886482 -0.077216014 0.89627135 -0.98059219 0.122951 0.15271586 0.10531062
-0.22751039 -0.02840087 0.90003109 -0.97622311 0.20612897 -0.067077421 0.097102724
-0.16655669 -0.09079916 0.93737966 -0.74362731 -0.31280342 -0.59090817 0.16368276
0.044896726 0.029968597 0.83123881 -0.047107141 0.99869806 0.019574162 0.00087609881
-0.15554446 -0.11819786 0.96288431 -0.27947515 0.68792188 0.66981864 0.043531921
-0.21566258 -0.10138494 0.93526101 -0.57832199 0.0761014 0.81225133 0.061856434
-0.21044573 -0.16367358 0.97912771 -0.7523033 0.49180317 0.4383713 0.022733448
-0.2714276 -0.27412781 0.93125916 -0.95176578 0.044614758 0.30356464 0.010621762
-0.25084242 -0.1549307 0.93007916 -0.87333268 0.24275504 0.42232689 0.037506867
-0.22059321 -0.14456801 0.96212643 -0.53333855 0.58192253 0.61393505 0.024961814
-0.14133407 -0.17135784 1.0686313 -0.74551916 0.37974736 0.54771626 0.008373389
-0.17179802 -0.21146002 1.0513146 -0.76294559 0.13075246 0.6331017 0.0016154727
-0.10242449 -0.29287371 1.1520305 -0.81695187 -0.017142333 0.57645106 0.007678132
-0.17167939 -0.13414675 0.9953571 -0.36845407 0.86241424 0.34710696 0.024792198
-0.25479409 -0.17341909 0.93053025 -0.91666234 0.15760912 0.36727306 0.047295325
-0.068801306 0.023832185 1.0631558 -0.16787012 0.97275037 0.15992589 0.0046124854
-0.18663722 -0.29314941 1.0516685 -0.79102755 0.20167734 0.57758254 0.00036109649
-0.17415944 -0.23587359 1.0486135 -0.78100282 0.11591351 0.61367637 0.00041819178
-0.18829231 -0.25449347 1.0357379 -0.7810154 0.1255112 0.61176944 0.001181645
-0.21984796 -0.17861229 0.98384845 -0.78971273 0.27237406 0.54969651 0.0072220005
-0.026283875 -0.059016101 1.1066402 0.89793819 -0.41548246 0.14519432 0.14463446
-0.017645037 -0.059309464 1.0839419 -0.6137628 0.74278778 -0.26750982 0.092605151
0.032323416 0.033371069 0.96130204 -0.10183503 0.99478179 0.006222853 0.00035669433
-0.11448167 -0.13340491 1.0720212 -0.37330449 0.90508485 0.20362984 0.022091493
-0.24065688 -0.071239509 0.90486556 -0.92725742 0.11923736 0.35493127 0.076186836
-0.09426365 -0.13509932 1.1100521 -0.53573585 0.67605937 0.50589603 0.020642646
-0.17937961 -0.22360507 1.0425882 -0.7749415 0.10741656 0.62283808 0.00088865013
-0.10403426 -0.12853478 1.0118656 -0.09355364 0.9924078 0.079840153 0.0010832308
-0.23812616 -0.074390993 0.91746593 -0.88826704 0.13317688 0.43959704 0.057046477
-0.086221747 0.024882613 1.0400262 -0.18597963 0.97449481 0.12558445 0.0064339139
-0.18090068 -0.20996694 1.0398102 -0.76779377 0.11045907 0.63110334 0.00087125116
-0.11105775 0.030784402 0.88733727 -0.060469903 0.99585146 0.067995191 0.0018933918
-0.031146817 0.021205595 1.141148 -0.27585873 0.91409743 0.29719985 0.030188914
-0.046635181 0.012851804 1.1382855 -0.30672571 0.90186888 0.30422345 0.042424466
-0.03002266 0.015463266 1.1592526 -0.29815191 0.8175754 0.49262142 0.038372364
-0.019690936 -0.052388836 1.1122776 0.69348818 -0.67876875 0.24155162 0.20395897
-0.26334223 -0.27639139 0.94673723 -0.91623086 0.044635285 0.39815673 0.0067895111
-0.25983271 -0.22801569 0.94175315 -0.88665372 0.12935348 0.44397393 0.008304215
-0.18184866 -0.11691083 0.95318639 -0.2981118 0.63173163 0.71557289 0.038574386
-0.1657339 -0.10540213 0.95461583 -0.3152127 0.5119555 0.7990886 0.035837036
-0.2253844 -0.2171057 0.9873749 -0.77054071 0.16018607 0.616934 0.0020342926
-0.25969774 -0.26124185 0.95005429 -0.90243608 0.082779817 0.42279616 0.0057209935
-0.20314476 -0.12688304 0.95777625 -0.34948695 0.64173162 0.68267077 0.035305943
-0.042420756 0.0161574 1.1421845 -0.31989533 0.89166546 0.32031161 0.041995529
0.008339026 0.025604632 1.1397716 0.11941835 0.97638947 0.1800079 0.018385042
-0.010463368 -0.11441257 1.205006 0.59425604 0.19156365 0.78112942 0.066161253
-0.18961269 -0.059923884 0.93747175 -0.20753463 -0.056272209 0.9766078 0.077486999
-0.22067893 -0.21122247 0.99111205 -0.76403058 0.16793823 0.62293983 0.002225881
-0.06206248 0.016252432 1.1240441 -0.3153545 0.89993668 0.30110726 0.026197715
-0.14296511 -0.26214355 1.09883 -0.79451305 0.1969634 0.57441664 0.0011715078
-0.13714451 -0.2298927 1.0984406 -0.79553789 0.1518476 0.5865677 0.00073047652
-0.23089601 -0.13674873 0.87172198 -0.5653404 0.35667622 -0.74375558 0.011910219
-0.036943678 0.015421739 1.1497213 -0.30978674 0.87507445 0.37185591 0.037650891
-0.11956647 -0.268152 1.1299114 -0.78874624 0.11669304 0.60354131 0.0019396365
-0.22151999 -0.16026881 0.96193731 -0.70835155 0.49337688 0.50479436 0.02202536
-0.26608339 -0.26553687 0.94068283 -0.9342171 0.065726086 0.35059732 0.0090880981
-0.010111931 -0.11570234 1.2029639 0.60468495 0.20610091 0.76933646 0.070263185
-0.065651357 -0.12321626 0.9933421 -0.088986605 0.99101567 0.099846207 0.00032080273
-0.20391724 -0.058362298 0.93550438 -0.36155996 -0.041151579 0.93144023 0.090561271
-0.18689802 -0.21749751 1.0325874 -0.7692706 0.099993557 0.63104993 0.00097768672
-0.041818742 -0.12185398 1.0105664 -0.10473179 0.99095458 0.083906695 0.0006825116
-0.22137256 0.013643412 0.9033832 -0.75865769 0.61330807 -0.21975368 0.10211895
-0.016282296 -0.13554884 1.2129446 0.42235073 0.1947569 0.88526243 0.057277903
-0.10648634 -0.16316266 1.1223296 -0.72634554 0.40260351 0.55707502 0.013464491
-0.093540773 -0.20749491 1.154984 -0.79105902 0.18329822 0.58363307 0.001183247
-0.010796451 -0.13780652 1.2121271 0.43883464 0.19635592 0.8768515 0.054412618
-0.023800112 -0.086300105 1.1518176 -0.73885489 0.43378174 0.51568097 0.074752368
-0.0612734 0.015594562 1.1204934 -0.30194071 0.90786755 0.29087523 0.023727648
-0.0078606699 0.029435797 1.0934886 -0.046921272 0.99864328 0.022581672 0.001498786
0.20692296 -0.1160446 1.0045242 0.14628075 0.59410882 0.79097193 0.020977348
-0.0046989783 -0.099328518 1.1948614 0.68802994 0.20212604 0.69696474 0.048699219
0.067952707 -0.13168977 1.1197705 0.42895454 0.8338598 0.34738427 0.020195222
0.2086253 -0.059679721 0.97893834 0.41506425 -0.73563325 -0.53531808 0.16422017
0.22681141 -0.032081116 0.98127931 0.066900477 -0.20830004 0.97577429 0.13371231
0.24542443 -0.056802928 0.97919297 0.14487344 0.16096431 0.97626954 0.088105194
0.14753759 -0.15487055 1.0985752 0.62508643 0.23437306 0.74453765 0.0039360854
0.20037632 -0.1824878 1.0621302 0.60966837 0.19180529 0.76910031 0.0030904273
0.11152301 -0.1889471 1.1330879 0.61278564 0.15440394 0.77501822 0.0065550185
0.072454385 -0.13634315 1.1283416 0.48566231 0.77520084 0.4039751 0.018678691
0.28560421 -0.22220312 0.99699312 0.890082 0.16708052 0.42407319 0.016290547
0.21823025 -0.060982578 0.98127794 0.35572201 -0.67159271 -0.6499424 0.15554023
0.16055121 -0.28612277 1.1086769 0.59570336 0.15108587 0.78886664 0.00038354812
0.019562412 -0.24464294 1.2140695 0.42916712 0.019990493 0.90300387 0.0093230987
0.12014059 -0.1874557 1.1265006 0.58884507 0.14402151 0.7953108 0.0054570613
0.06399928 -0.13449097 1.1293392 0.50879997 0.76863599 0.38771287 0.021122009
0.21425888 -0.069990829 0.98384303 0.37664205 -0.55398214 -0.74245846 0.13203947
0.21908782 -0.028238019 0.97252107 0.23579003 0.17332931 -0.9562217 0.1693908
0.034799438 -0.16613209 1.1887388 0.54842067 0.30982658 0.77668667 0.0053733317
0.21910018 -0.26907101 1.0627517 0.55904156 0.14563082 0.81625015 6.4651045e-05
0.16042104 -0.17106721 1.0914346 0.62985772 0.20424813 0.74937433 0.0032092833
0.26363578 -0.10335094 0.98257297 0.65797091 0.16046976 0.7357471 0.020879723
0.21861775 -0.055202011 0.97756946 0.48051482 -0.66270411 -0.57439429 0.16764399
0.041230097 0.014640029 1.1490555 0.34298995 0.92578208 0.15901394 0.024846943
0.024795454 -0.11275385 1.162779 0.77035767 0.48665738 0.41196322 0.036617272
0.05769005 -0.14576486 1.1558456 0.58698523 0.65534121 0.4753696 0.018640872
0.10911166 -0.21764535 1.1388117 0.63148636 0.11333036 0.76706004 0.00049458025
0.22477289 -0.1594265 1.0335 0.4102076 0.52486289 0.74582082 0.012963459
0.078987718 -0.15437563 1.1440418 0.53125143 0.6731329 0.51445496 0.011938833
0.19230886 0.020095626 1.025871 0.56287992 0.29543594 0.77193511 0.012166334
0.060959447 -0.15040636 1.1590515 0.57639241 0.63231421 0.51763946 0.013382311
0.063871048 -0.24864769 1.1821705 0.64027905 0.18151394 0.7463882 0.0013510127
0.038298126 -0.2075585 1.1958804 0.55147541 0.13639337 0.82296526 0.0022836532
0.0029861229 -0.21576126 1.2182844 0.2811811 0.078693211 0.95642281 0.016674748
0.15555054 -0.095295787 0.97954053 -0.12144084 0.22389384 0.96701801 0.0085184081
0.13804659 -0.19936742 1.113608 0.61178988 0.10525431 0.78398639 0.00052109262
0.20186448 -0.17862874 1.0593002 0.59446955 0.2648451 0.75925153 0.0070242411
0.032261252 -0.14602134 1.1844345 0.61078548 0.39202124 0.68793929 0.011274064
0.14749955 -0.20393653 1.1071025 0.6164158 0.099792011 0.78107178 3.518075e-05
0.26505324 -0.10142707 0.98194343 0.65617919 0.1573824 0.73801059 0.017982112
0.025484201 -0.11249808 1.1672691 0.74980164 0.45116067 0.48399538 0.027633088
0.064901866 -0.15806705 1.1623687 0.56743848 0.59505957 0.56913763 0.013952245
0.22903402 -0.19867814 1.0417973 0.61589354 0.183309 0.76620674 0.0013939659
0.25544545 -0.042823855 0.97635341 0.35521495 0.045342002 0.93368441 0.10492717
0.16381519 -0.14340602 1.080706 0.61928082 0.28140607 0.7330088 0.0028208557
0.15210527 -0.14917009 1.0928911 0.61428487 0.26884967 0.74187195 0.0036042035
0.10885771 -0.157397 1.1271639 0.51666367 0.44624063 0.73070377 0.018439796
0.1954594 -0.17295858 1.0633836 0.62095565 0.25288382 0.74193263 0.006243146
0.13772605 -0.26641482 1.1223646 0.60843652 0.13559744 0.78193247 0.00012223239
0.025823416 -0.17466369 1.1981325 0.54496235 0.22602132 0.8074221 0.0035749462
0.18482934 -0.1765424 1.0732052 0.61958593 0.19941261 0.75917578 0.001643914
0.065961488 -0.26243198 1.1847917 0.64292282 0.1793641 0.74463332 0.0015685728
0.1309361 -0.15445676 1.1095501 0.49651098 0.38317898 0.77887779 0.0098803071
0.24211302 0.021915833 0.97793472 0.76753348 0.20289445 0.60805112 0.036538646
0.25979671 -0.10039607 0.98343873 0.6102013 0.16414526 0.77505523 0.024619993
0.096364163 -0.095653109 0.97883362 0.22717403 0.1671872 0.95939583 0.013101087
0.1277948 -0.0996667 0.97669125 0.019786239 0.13000129 0.99131632 0.0056143082
0.23092669 -0.1596774 1.0289085 0.40542537 0.52582854 0.74775308 0.013374966
0.10671616 -0.21438873 1.1406492 0.63304698 0.11296876 0.76582605 0.00056249957
0.22457924 -0.13590747 1.0168585 0.2479862 0.59297347 0.76608431 0.0094905701
0.081190385 -0.1010097 0.98444569 0.30017364 0.28050557 0.91170853 0.016195944
0.065880746 -0.1332926 1.1265016 0.47396064 0.79071689 0.38746372 0.020322973
0.21025996 -0.13502134 1.0198631 0.25110519 0.62103409 0.74247068 0.011799166
0.0022403335 -0.10174585 1.1883471 0.69315046 0.22753578 0.68393707 0.046703588
0.22481765 0.020283585 1.0014305 0.69145358 0.065768622 0.71942091 0.019954802
0.094960265 -0.072957873 0.97902298 0.20224075 0.056624375 0.97769749 0.0056432141
0.15786324 -0.053494059 0.96666986 0.048427451 0.45057794 0.89142263 0.056578171
0.044664312 -0.15482813 1.1770999 0.56116164 0.4781729 0.67560959 0.015299409
0.27747306 -0.2185991 1.0056438 0.84792709 0.18658863 0.49618986 0.0078484379
-0.0085683996 -0.057903402 1.1919401 0.79504669 0.087946221 0.6001386 0.053760566
0.16499636 -0.053818613 0.96937275 0.082723334 0.72668135 0.68197584 0.076492436
0.15472746 -0.090395756 0.979168 -0.10782329 0.20788072 0.9721933 0.0095044449
0.017651817 0.020442685 1.1616434 0.18723108 0.8829428 0.43053064 0.037709158
-0.0043722135 0.012939911 1.1764561 -0.15434065 0.76142687 0.62960941 0.048319373
-0.019924551 -0.18156619 1.2206507 -0.079174228 0.010380674 0.99680674 0.035062466
0.010387527 -0.10303881 1.1794366 0.70967895 0.2766785 0.64792341 0.044055346
-0.017219264 -0.24212724 1.2233722 -0.11813363 -0.003808113 0.99299031 0.026517006
0.026113817 -0.18423709 1.2012379 0.52821946 0.18327458 0.82909262 0.0031877274
0.18386348 0.023185402 1.0323634 0.50071204 0.34702271 0.79300863 0.016811254
0.10291911 -0.091860935 0.97702456 0.18016204 0.11006047 0.97746021 0.0081037981
0.066430226 -0.08428438 0.98724133 0.3651562 0.28031984 0.88773972 0.016508117
0.035521608 -0.099548057 1.0059549 0.439832 0.5048753 0.74273062 0.010153293
0.14020328 -0.063442633 0.97549576 0.016287899 0.14913525 0.98868263 0.01995087
0.050773565 -0.10450722 0.99882263 0.40181211 0.47157237 0.78496277 0.011081122
0.087244451 -0.22507603 1.1611042 0.6574645 0.1251318 0.74302244 0.00072527031
0.20382442 -0.08826077 0.98277038 -0.13901737 0.48112655 0.86555851 0.072331838
0.13349214 -0.29187986 1.1325865 0.61373645 0.16711441 0.77162182 0.00061958417
0.030703077 -0.18266636 1.1970053 0.55768645 0.19877104 0.80590069 0.0026273448
0.10457854 -0.068303652 0.9758563 0.13135293 0.050730173 0.99003679 0.0051842565
-0.016023727 -0.16493411 1.2173483 0.15976629 0.060018126 0.98532867 0.027865201
0.16656387 -0.15640402 1.082673 0.63774055 0.2332115 0.73409766 0.0030042927
0.27225584 -0.16327833 0.99786985 0.69141769 0.25998485 0.6740545 0.01042933
0.0074409251 -0.1670779 1.21043 0.37556773 0.14181504 0.91588062 0.018658051
-0.007710347 -0.023459932 1.1878313 0.04494144 0.19871993 0.97902542 0.058079131
-0.014829544 -0.18127844 1.219599 0.1217747 0.051260255 0.99123323 0.02929339
0.052844413 -0.23197344 1.1873692 0.61127436 0.14555609 0.77791846 0.0007488358
0.26611379 -0.040328834 0.96847814 0.49260414 0.12556767 0.86114693 0.11767171
0.12582931 -0.087473318 0.97591877 0.035683166 0.12951195 0.99093562 0.0053133764
0.073444366 -0.1093368 0.99008691 0.34690106 0.3293536 0.87817186 0.016728899
0.14621598 -0.27408299 1.1167679 0.60246503 0.14284045 0.78525949 9.9763842e-05
