# .PCD v0.7 - Point Cloud Data file format
VERSION 0.7
FIELDS x y z
SIZE 4 4 4
TYPE F F F
COUNT 1 1 1
WIDTH 255
HEIGHT 1
VIEWPOINT 0 0 0 1 0 0 0
POINTS 255
DATA ascii
0.0093504786 -0.25881109 0.62063092
0.0075206161 -0.26510221 0.62368733
-0.0121395 -0.2270222 0.66397601
-0.0080553293 -0.27147821 0.64508259
-0.01198351 -0.23520599 0.6538868
0.0041756029 -0.34295011 0.61921501
-0.01379001 -0.2465281 0.6793946
-0.01560479 -0.29340461 0.66066462
-0.0052835941 -0.3999587 0.63030308
0.089880683 -0.19762839 0.67664748
0.0075809872 -0.30604351 0.64210552
-0.025202731 -0.2025664 0.80213147
0.069545723 -0.19997039 0.85257441
-0.05601633 -0.3449448 0.73924458
-0.05952565 -0.43992639 0.74190068
-0.043440409 -0.2569012 0.72757518
0.120876 -0.1991072 0.83326119
-0.085116923 -0.4963378 0.79070032
-0.079232678 -0.29400519 0.78884459
-0.058717132 -0.4732593 0.73906022
-0.088929161 -0.28596959 0.79748082
-0.077327177 -0.2302141 0.77128112
-0.01291558 -0.48629409 0.6660791
-0.030409081 -0.2746515 0.71051729
-0.05806848 -0.40870121 0.74686313
-0.03579336 -0.22349709 0.71580201
-0.052626971 -0.25958359 0.73353833
-0.039403051 -0.2821897 0.71643722
-0.05596121 -0.37836361 0.75455379
-0.06559556 -0.20862021 0.76375031
-0.02819843 -0.21569981 0.71403807
-0.061750911 -0.2097697 0.81816822
-0.06372647 -0.40052611 0.76250279
-0.078920163 -0.51927513 0.76724631
0.0247132 -0.43749249 0.62562519
0.0272178 -0.49558121 0.61750042
0.05617319 -0.48291111 0.62513608
0.1003361 -0.24963661 0.66623098
0.081808783 -0.484496 0.64415759
0.1060303 -0.47747901 0.65300781
0.1445476 -0.3258341 0.68759191
-0.090794124 -0.2053953 0.8052389
0.083209731 -0.29296631 0.65290189
0.076372132 -0.2048609 0.67159188
0.090093389 -0.1994133 0.66230708
0.136261 -0.19749939 0.75803632
0.15767249 -0.1959874 0.71669751
0.087366879 -0.1982135 0.72627199
0.02016715 -0.201988 0.68713421
0.02746306 -0.35308459 0.62124628
0.1572319 -0.2025595 0.69668567
0.1050527 -0.1945834 0.77856928
-0.05845964 -0.2081029 0.78572983
-0.050015111 -0.2026993 0.74293
-0.03667235 -0.2024516 0.70452118
0.1133744 -0.2009276 0.73153222
0.1947826 -0.2797887 0.72290528
0.1931304 -0.2808333 0.73106372
0.33020341 -0.50967968 0.66223818
0.13665029 -0.2052253 0.83865142
0.17745601 -0.20199279 0.76559752
0.17898729 -0.48878029 0.78088123
0.18440831 -0.3309494 0.73185283
0.1229565 -0.2452209 0.84387708
0.17404629 -0.37243819 0.78190577
0.098249637 -0.2007319 0.81328827
0.1426158 -0.199481 0.82026303
0.15999471 -0.19805589 0.78198612
-0.037909951 -0.212327 0.81938612
0.018805349 -0.2109372 0.87031841
0.03354419 -0.2013177 0.68190849
-0.074859999 -0.38490811 0.81411511
0.092223912 -0.43339881 0.90774721
0.07626126 -0.45861739 0.906335
-0.009326891 -0.35945579 0.849365
-0.061928529 -0.2092208 0.80803752
-0.024561889 -0.3851594 0.84142601
0.025084689 -0.30353159 0.8731792
0.043593518 -0.488078 0.8892473
-0.072351351 -0.242157 0.82204902
2.459902e-05 -0.39751199 0.85827827
0.044795409 -0.51081097 0.88801152
0.061656211 -0.30631679 0.89412308
0.1352388 -0.19748759 0.69141638
0.073032841 -0.2122985 0.90470862
0.001750694 -0.48419201 0.85548377
0.051441111 -0.38294289 0.89416528
-0.05003012 -0.38265631 0.83421052
-0.05341408 -0.49600491 0.82179987
-0.0088057434 -0.34117901 0.8526051
-0.03154029 -0.2795743 0.84208661
-0.021560671 -0.20709009 0.83219218
-0.025949961 -0.2067568 0.81497443
-0.0097832698 -0.20827129 0.85204607
0.02597598 -0.42784441 0.87187642
0.077029862 -0.28653991 0.89857572
0.001826609 -0.45703149 0.86199403
0.01826852 -0.31669089 0.86886293
-0.025552571 -0.2525425 0.84950888
-0.034929551 -0.31281769 0.84126258
0.040542569 -0.2025606 0.78663182
-0.062932573 -0.2230445 0.82606101
-0.048958249 -0.39975369 0.82713509
-0.01501547 -0.35567701 0.84929878
-0.03113641 -0.46498701 0.84221542
0.1062871 -0.3084816 0.90770823
0.03426747 -0.34860799 0.8786813
-0.059222549 -0.32034269 0.82455778
0.065901414 -0.200984 0.796538
0.057576891 -0.2613014 0.89328671
0.017824311 -0.41471541 0.867419
0.085928246 -0.38517141 0.91337579
0.1038438 -0.29856321 0.91304332
0.018025151 -0.20453461 0.85945272
0.0087559577 -0.33527789 0.62874103
-0.076847643 -0.31803009 0.7716791
-0.068096437 -0.4816896 0.75796002
-0.083332337 -0.392739 0.78261209
-0.01772395 -0.3313576 0.67328399
0.001894098 -0.3932341 0.63918161
-0.01011262 -0.23094711 0.660541
0.01753163 -0.1962529 0.73778301
-0.061638769 -0.37407529 0.74498922
-0.06668862 -0.44778451 0.76038462
-0.058511049 -0.46448931 0.73438472
-0.062123001 -0.40079921 0.73970348
-0.059398562 -0.31602001 0.73596817
-0.048884809 -0.30121711 0.72829908
-0.060686011 -0.28570941 0.7516672
-0.01559356 -0.24439999 0.67061907
-0.01642359 -0.28474379 0.66966832
-0.0069430391 -0.2002257 0.65749258
0.044672769 -0.1985198 0.74054182
-0.01124871 -0.2240071 0.66609031
-0.00078775833 -0.30987501 0.64306009
0.08066944 -0.1996489 0.66311628
0.055988882 -0.201837 0.85734153
-0.01162454 -0.2124543 0.85325092
-0.042254109 -0.4140498 0.83283031
0.062487241 -0.1928678 0.72657979
0.076515637 -0.2055738 0.90992188
0.095969848 -0.2004229 0.82433617
0.147488 -0.1930519 0.84845859
0.1058811 -0.2564145 0.91849118
0.132402 -0.4202134 0.90275502
0.1308357 -0.2413595 0.88384873
0.1517165 -0.36719361 0.86103147
0.1722571 -0.4949654 0.82821929
0.1588064 -0.44281119 0.85437721
0.2184642 -0.199148 0.73647648
0.1882043 -0.37224349 0.79153168
0.02319921 -0.2030268 0.8704654
0.2006949 -0.32877901 0.72041488
0.1990936 -0.47957909 0.71117961
-0.09338738 -0.2101116 0.7994653
0.1976486 -0.44019601 0.78433162
0.191479 -0.37227419 0.78810507
0.2003516 -0.4741661 0.78313541
0.22021949 -0.31992909 0.7291609
0.2167297 -0.4866423 0.75106782
0.2075167 -0.32441029 0.73702598
0.1412013 -0.19250549 0.84305972
0.16554859 -0.1895259 0.77526891
0.1312218 -0.1938384 0.68330139
0.061850179 -0.2014751 0.70890129
-0.03310572 -0.2007536 0.79980791
0.090659693 -0.2010612 0.82018799
0.2173778 -0.26352361 0.73855948
0.199339 -0.219295 0.76866472
0.2272861 -0.46478099 0.73088479
0.062503003 -0.1991162 0.85277581
0.2101106 -0.26407921 0.75206047
0.01056719 -0.2071739 0.77530771
0.21936131 -0.4358134 0.72930741
0.2159777 -0.3288295 0.74247289
0.2090525 -0.3828246 0.75146091
0.2016841 -0.25210139 0.76882392
0.033878628 -0.2037099 0.8635661
0.20009281 -0.19643199 0.71301788
0.2164066 -0.44742799 0.71701539
0.21003629 -0.190827 0.72554332
0.2277361 -0.47762051 0.71825981
0.1779574 -0.34261361 0.69795799
0.20922559 -0.425863 0.71168667
0.1767742 -0.2818059 0.70404661
0.2066835 -0.3234764 0.70955843
0.1423116 -0.35607621 0.67506641
0.17445651 -0.47073191 0.69376409
0.1003567 -0.1993729 0.6643371
0.1854623 -0.38780069 0.70282853
0.1797747 -0.3443858 0.70270038
0.03027386 -0.43289021 0.61405909
-0.0054491162 -0.20001321 0.65683752
0.01356086 -0.46143281 0.62276661
0.135336 -0.20017099 0.79048711
-0.053222761 -0.42906621 0.73381662
0.01202958 -0.33845451 0.62832773
-0.058365099 -0.44654009 0.74014992
-0.040110301 -0.254498 0.71930069
-0.037002899 -0.4867166 0.70714742
-0.0143923 -0.3749131 0.66646701
0.0052448981 -0.30013281 0.63398153
-0.009937901 -0.29031649 0.66785848
-0.0078212367 -0.2480081 0.66921741
-0.03705889 -0.45783931 0.70773602
-0.015959021 -0.44727269 0.66933608
0.01155635 -0.25945911 0.63207912
-0.078140177 -0.2631281 0.78316712
0.030623941 -0.1995202 0.85963082
-0.053102631 -0.3512727 0.73333412
-0.077664226 -0.4125599 0.8026669
-0.090167612 -0.51306802 0.77957678
-0.084369697 -0.51682729 0.77906829
-0.065294027 -0.4541184 0.77299881
0.02843521 -0.19473059 0.68151098
-0.087029733 -0.2075001 0.81205469
0.055506371 -0.19479071 0.72358549
-0.049230531 -0.3931424 0.83200282
0.1356117 -0.1880842 0.83934349
0.07585723 -0.19223779 0.81633693
0.1419615 -0.19466861 0.839782
0.1492956 -0.18966819 0.81746888
0.095096357 -0.2034606 0.82135868
0.1109508 -0.1935475 0.88354212
-0.041511361 -0.2014216 0.74397522
-0.050396461 -0.20251121 0.7656188
0.093490973 -0.1996333 0.8929882
0.19318581 -0.47011471 0.77917612
0.2115438 -0.48071 0.74647051
0.1841615 -0.37036991 0.78368068
0.17004891 -0.33620349 0.80999422
0.20550039 -0.3426629 0.74441552
0.1710835 -0.2529183 0.80752641
0.1706728 -0.4523457 0.8150394
0.17274819 -0.4228248 0.81237543
-0.094559386 -0.2088913 0.80319512
0.1064977 -0.43589509 0.64793187
0.04517388 -0.23598941 0.62464392
0.088640749 -0.47368979 0.63189638
0.092432857 -0.26320171 0.64857262
0.04374541 -0.29263729 0.61797142
0.050849821 -0.41142601 0.62001872
0.1415415 -0.2046555 0.68466002
0.07426469 -0.31337199 0.63624477
0.050668769 -0.2049392 0.63831651
0.01468463 -0.2013988 0.83679652
0.02978646 -0.27481171 0.61780047
0.1021314 -0.3249127 0.64343131
0.082777232 -0.376596 0.63580358
0.1216498 -0.45143169 0.65147328
0.1845862 -0.4457314 0.69524151
0.2125666 -0.3889122 0.71690053
0.027313299 -0.49262401 0.61653799
0.020284791 -0.4470762 0.61245441
0.03061543 -0.34335381 0.60798937
