# .PCD v0.7 - Point Cloud Data file format
VERSION 0.7
FIELDS x y z normal_x normal_y normal_z curvature
SIZE 4 4 4 4 4 4 4
TYPE F F F F F F F
COUNT 1 1 1 1 1 1 1
WIDTH 587
HEIGHT 1
VIEWPOINT 0 0 0 1 0 0 0
POINTS 587
DATA ascii
0.25517443 -0.52465516 0.60704219 0.94973296 0.29914972 -0.09228655 0.016922157
0.17320703 -0.25464901 0.48685783 0.18436153 -0.11149845 -0.97651374 0.1610157
0.25820553 -0.52045387 0.68840992 0.93724149 0.34281304 -0.063699357 0.011942984
0.17000249 -0.14146128 0.51641428 0.33787736 0.85176045 -0.40042856 0.1035833
-0.055490211 -0.13936335 0.5663985 -0.0016512545 0.99392676 -0.11003155 0.011418479
0.23706695 -0.42499414 0.5395487 0.98904628 0.11414107 -0.093591288 0.0046118987
0.24272826 -0.44345534 0.63430268 0.97513074 0.21575449 -0.05069619 0.0058702962
0.11713775 -0.30299795 0.71348667 -0.14984232 -0.89509791 0.41993695 0.059775028
0.24197553 -0.42843133 0.65402704 0.98882943 0.14305229 -0.041861512 0.0027838487
0.24812432 -0.4371874 0.70671099 0.97314656 0.22502783 -0.048459101 0.0031919645
0.26584005 -0.51232409 0.68792707 0.95255333 0.30055314 -0.048063252 0.0086587733
0.19466889 -0.30557561 0.79520452 0.47085482 0.84322113 -0.25937209 0.0497679
0.19752051 -0.1871931 0.52049148 0.89715397 0.25260285 -0.36236259 0.097132303
0.18304226 -0.15206659 0.50721771 0.49464858 0.74144602 -0.45340994 0.12906533
-0.041134235 -0.1361728 0.82542604 -0.0091312099 0.99884844 0.04710044 0.016184591
-0.044825364 -0.1370174 0.74855208 -0.0040686158 0.99993271 -0.01086059 0.0012595013
0.051131822 -0.50502896 0.43669364 -0.13463952 0.41000715 -0.90209001 0.062413339
0.18816352 -0.23911211 0.54887915 0.90632778 0.061887555 -0.41801888 0.11430293
0.23987445 -0.42429709 0.61975825 0.99169767 0.12331218 -0.036468688 0.0041750446
0.14563079 -0.4342216 0.45248887 0.19639145 0.22690587 -0.95390987 0.029995384
0.2420803 -0.44077122 0.61806101 0.97610408 0.21190086 -0.048153523 0.0080647506
0.24622485 -0.48897681 0.58191228 0.96863824 0.24395585 -0.04717496 0.0069055911
0.15820797 -0.21348839 0.49429947 0.17989689 0.18352209 -0.96641433 0.13505916
0.24322081 -0.44091627 0.59934908 0.97695529 0.20986471 -0.038925786 0.0051523666
0.24121109 -0.43299475 0.62647164 0.98303425 0.1778073 -0.045034658 0.0072643403
0.24662656 -0.42176947 0.71101761 0.98934835 0.13335279 -0.058368176 0.0013185263
0.22499442 -0.38152906 0.48399597 0.76727813 0.15599141 -0.62205374 0.061630994
0.087482639 -0.16265601 0.50084037 0.086508244 0.55689037 -0.82606858 0.13350078
-0.10054012 -0.27129278 0.56403434 0.42081836 0.42144024 -0.80330569 0.045799445
-0.034525059 -0.16607402 0.50917119 -0.032011911 0.94299811 -0.33125475 0.030487956
-0.020634964 -0.36528152 0.47164091 0.091907866 0.30390599 -0.9482584 0.047468666
-0.1406011 -0.28201345 0.52931869 0.058740631 0.61841166 -0.78365588 0.11471523
0.11917832 -0.39871514 0.45143417 0.038829774 0.2668317 -0.9629606 0.024694877
-0.040170833 -0.14274643 0.54213285 -0.0091969483 0.98411977 -0.17726725 0.018374244
0.2431996 -0.45013809 0.50224042 0.9550752 0.12739603 -0.26758462 0.034662135
-0.11392905 -0.22519591 0.55067545 0.64212775 -0.055268038 -0.76460284 0.014790521
0.023949219 -0.38731298 0.46466225 -0.11176487 0.094569914 -0.98922455 0.015967177
-0.048895001 -0.32065719 0.54218727 -0.01077422 0.89846337 -0.43891621 0.057956107
-0.0045549646 -0.30395439 0.56220061 -0.03081573 -0.990897 0.13104774 0.020267628
-0.033819187 -0.41465962 0.47056839 -0.053824876 0.094364427 -0.99408162 0.017775102
0.081765175 -0.33311415 0.46989858 -0.046549577 0.68348253 -0.72848111 0.056709982
0.25242257 -0.45490724 0.7518478 0.96629709 0.25589445 -0.028068343 0.00594548
0.051180422 -0.45674056 0.45791447 -0.1683301 0.16663934 -0.97154325 0.036846105
0.025220674 -0.44546962 0.46315619 -0.056485869 0.16986026 -0.98384792 0.016956417
0.013798525 -0.30995178 0.50635982 -0.11019741 0.92430407 -0.36540195 0.067259908
0.20407207 -0.15339518 0.68242252 0.4338834 0.9006142 -0.02528185 0.02072322
0.2032838 -0.15074989 0.67755473 0.45287949 0.89078814 -0.037373047 0.019501651
0.13946719 -0.29967165 0.75122976 -0.29325998 -0.85904038 0.41958115 0.070688121
0.20639242 -0.16865987 0.73612618 0.33688894 0.94104147 -0.030769281 0.016280625
0.1095664 -0.28156605 0.75304902 0.53382427 0.56969094 -0.62488711 0.063155711
0.12911183 -0.26592273 0.76865351 0.62526965 0.4774299 -0.61733186 0.058188971
0.12149718 -0.29851288 0.69633728 -0.12108263 -0.97776163 0.17123415 0.041132487
0.20387223 -0.3072432 0.72365648 0.21828839 0.97587854 0.0033599762 0.013940824
0.20109768 -0.31047103 0.72199589 0.21642961 0.97626561 0.0079837926 0.01391319
0.12058479 -0.30087391 0.70123321 -0.095726363 -0.92981088 0.35537058 0.050392225
0.14467269 -0.28720975 0.76342559 0.37395206 0.7742635 -0.51056421 0.080660008
0.13046227 -0.25155702 0.77396005 0.03196691 -0.77675164 0.62899518 0.086020239
0.14700398 -0.26606569 0.78045452 0.5414874 0.60662419 -0.58206409 0.092524655
0.1480445 -0.2260102 0.78791612 0.24430211 -0.78283995 0.57225698 0.05509587
0.14851835 -0.23025881 0.78795761 0.089874141 -0.74728769 0.65839481 0.074935243
0.14501017 -0.26195258 0.7802726 0.51985198 0.64739972 -0.55733973 0.10048019
0.11536422 -0.26163015 0.7549659 0.48106328 0.57979524 -0.65758318 0.065584749
0.11863191 -0.28613937 0.75514913 0.49139744 0.59892392 -0.63231212 0.060268968
0.24256939 -0.43875945 0.6297431 0.97795671 0.20311007 -0.048444908 0.0067044147
0.24321902 -0.44246826 0.58566099 0.9762851 0.21352759 -0.03568349 0.0059286649
0.1848978 -0.30740881 0.80273861 0.4788301 0.81395495 -0.3289364 0.046630193
0.20276567 -0.29491436 0.83109343 0.7129842 0.65756571 -0.24343562 0.16008994
0.16908297 -0.2431228 0.80072236 0.53576434 0.44660571 -0.71658903 0.090615809
0.20972213 -0.30986294 0.77538246 0.52357149 0.84851605 -0.076768354 0.057015892
0.22091556 -0.30964154 0.79884976 0.81478089 0.54915226 -0.18591392 0.053878438
0.2613833 -0.48490721 0.7881217 0.91449398 0.39630738 -0.081493966 0.027243631
0.24033627 -0.31813559 0.80720317 0.83879775 0.48945624 -0.23843437 0.046251338
0.25243971 -0.46889943 0.74515861 0.96752572 0.24818611 -0.047934223 0.0059666755
0.26534113 -0.48667115 0.80007476 0.91291195 0.39881402 -0.086828366 0.028020293
0.24607748 -0.41225463 0.75071633 0.9931457 0.090099499 -0.0744555 0.0021849764
0.2651867 -0.49120408 0.78150707 0.91448891 0.39631832 -0.081497565 0.027234493
0.25066742 -0.43139315 0.75913334 0.98818904 0.13091452 -0.079648294 0.0042339782
0.19528167 -0.15885869 0.55425686 0.79178679 0.60976136 -0.035564143 0.069761038
0.20271637 -0.16751999 0.59815073 0.62892228 0.77053714 -0.10358241 0.029419584
0.099196889 -0.28768322 0.71499491 0.54987246 0.6844278 -0.47874731 0.06503848
0.15960772 -0.30118978 0.62943369 0.22305398 0.97453278 0.023081083 0.014859925
0.22734714 -0.32928896 0.53824049 0.96616256 0.25461742 -0.041230198 0.02161335
0.25319126 -0.46783373 0.66519308 0.9667362 0.25076914 -0.050358456 0.0038385852
0.24090506 -0.42341512 0.64780051 0.99030524 0.13354172 -0.038237598 0.0031639494
0.21477064 -0.16354005 0.83074045 0.84183699 0.52826101 -0.1106833 0.088496417
0.19676344 -0.30776754 0.57052767 0.83801764 0.50675797 0.20229365 0.059939582
0.23734945 -0.422297 0.53727883 0.98814058 0.12002484 -0.095771499 0.0047311457
0.19694149 -0.21605164 0.54130906 0.91532767 0.11842907 -0.38490248 0.064475767
0.1967959 -0.1935817 0.8284989 0.83012301 0.037117664 -0.55634338 0.10607169
0.16257812 -0.24302319 0.79571193 0.51253623 0.46491373 -0.72191536 0.083973624
0.25254294 -0.36855614 0.80749679 0.97852433 0.16989759 -0.11672606 0.0075216065
0.10533746 -0.13868414 0.72114819 0.00873808 0.99983335 -0.016031368 0.0055904058
0.2305001 -0.32802594 0.6187104 0.76452297 0.62970257 -0.13776547 0.08171048
0.2442293 -0.4862721 0.57575464 0.9696576 0.24101952 -0.040911667 0.006049946
0.10821538 -0.13874812 0.74442673 0.0074393051 0.99983662 -0.016479295 0.0049000443
0.20053548 -0.15119627 0.69438994 0.36394051 0.93132412 -0.013517326 0.033432901
0.24220636 -0.43521887 0.59486789 0.98463804 0.16976209 -0.040851094 0.0045804237
0.20564325 -0.15504295 0.66712344 0.46692631 0.88428533 -0.0043907063 0.017888984
0.20530994 -0.16716206 0.65438992 0.45899928 0.88813293 -0.023230137 0.016528562
0.13095158 -0.27648064 0.76346767 0.63963085 0.46640196 -0.61101687 0.054214031
0.13020296 -0.26509535 0.76914197 0.61579251 0.46845135 -0.63352418 0.056916758
0.18307199 -0.30896714 0.68884718 -0.088682026 -0.99600828 0.010145986 0.011522834
0.12599169 -0.25175476 0.77093446 0.0092625227 -0.79147035 0.61113733 0.075152062
0.24531643 -0.41811478 0.70589769 0.98906732 0.13467951 -0.060059864 0.0012253255
0.2648297 -0.51212865 0.60321695 0.96060514 0.26952818 -0.067766458 0.0099403178
0.27452114 -0.50660664 0.73005176 0.94404441 0.32710466 -0.042221732 0.0076554748
0.2504622 -0.3778457 0.80859226 0.98568499 0.13625458 -0.099296257 0.0055815964
0.21334819 -0.17026514 0.73883075 0.37354013 0.92723584 -0.026487377 0.016303796
0.20141214 -0.29386926 0.82278031 0.71606416 0.60832787 -0.34232923 0.10049693
0.19658621 -0.1933441 0.82337892 0.83288378 0.052120402 -0.55098832 0.096234769
0.22490188 -0.22662833 0.85680586 0.97777832 0.047458768 -0.20419885 0.037317559
0.21818841 -0.19644567 0.85491306 0.957187 0.27673003 0.084932454 0.065898888
0.20618911 -0.1695226 0.80914021 0.7801609 0.6162951 -0.10737514 0.080240563
0.25541767 -0.4526026 0.82423794 0.98018742 0.17222604 -0.097830765 0.0050035408
0.26547453 -0.49308044 0.77780509 0.91655576 0.39246407 -0.076795042 0.02669305
0.25649351 -0.39866212 0.8904022 0.95935082 0.11974829 0.25555092 0.019213419
0.27000272 -0.50987834 0.68281734 0.95620841 0.28518069 -0.065859303 0.0076896064
0.25303739 -0.38246873 0.85022581 0.99342096 0.11450569 -0.0018006832 0.0087511716
0.27954507 -0.50846714 0.80280113 0.83365178 0.53811139 -0.12434173 0.025867091
0.2518318 -0.37720871 0.86239117 0.98564208 0.14112251 0.092703611 0.020489221
0.14592534 -0.24710286 0.78382963 0.4976387 0.67291462 -0.54730403 0.094053835
0.22385566 -0.31047967 0.70264137 0.25590557 0.96669662 0.0031607207 0.018711327
0.21885794 -0.22347279 0.85084778 0.96649706 0.013080729 -0.25634417 0.03821535
0.2624017 -0.48562774 0.90815216 0.98974043 0.14170496 -0.018262167 0.015735287
0.1545929 -0.30329311 0.75373143 -0.26755413 -0.90531236 0.32988548 0.059512429
0.23263414 -0.32385159 0.62768185 0.74633896 0.62959743 -0.2158363 0.069307908
0.24746822 -0.38594326 0.79654753 0.98818403 0.11843845 -0.097286187 0.0031800272
0.26299047 -0.4361482 0.88054848 0.98339349 0.16621064 0.072879016 0.017889187
0.022078227 -0.13550794 0.7689808 0.0048282025 0.99994987 -0.0087759783 0.01108784
0.2462754 -0.32113007 0.87914377 0.93467236 0.3346189 0.12007378 0.088921741
0.24926721 -0.47724295 0.59260064 0.96986187 0.24127541 -0.033973459 0.005265581
0.11605163 -0.30718476 0.68806529 -0.13922708 -0.98781955 0.069485351 0.020679863
0.20939961 -0.21920536 0.83436823 0.86290616 -0.031321064 -0.50439262 0.052767865
0.20136935 -0.15712386 0.65800989 0.46243504 0.88651842 -0.015454382 0.015361232
0.23198929 -0.34612784 0.61552268 0.96800667 0.227552 -0.10575056 0.034267575
0.23696533 -0.28814799 0.87841034 0.96686918 0.25506413 0.010306019 0.11812256
0.20638716 -0.15767822 0.70508164 0.42963839 0.90298104 -0.0060191611 0.02294717
0.21706764 -0.22262232 0.84567779 0.92862934 -0.0051905364 -0.3709726 0.043791454
0.23023289 -0.22594053 0.86174536 0.98891932 0.14593944 -0.027208617 0.04188621
0.26182556 -0.44188425 0.87132657 0.98776847 0.15575239 -0.0073906006 0.011463093
0.23447537 -0.31084391 0.64939624 0.35092065 0.91507989 -0.19870485 0.026573189
0.26208049 -0.46382156 0.8405897 0.96002948 0.26779094 -0.081432812 0.022596424
0.2530351 -0.38996944 0.88136715 0.97457421 0.15991719 0.1569445 0.021209201
0.24587648 -0.43104237 0.68257141 0.9819997 0.17846172 -0.061870806 0.0012772651
0.25293583 -0.45049706 0.76569253 0.97440815 0.21830441 -0.053589236 0.0063956534
0.24390934 -0.40510845 0.7179864 0.99234843 0.10429148 -0.066090479 0.00069028529
0.25353444 -0.43928796 0.78685731 0.98385507 0.15253825 -0.093602531 0.0052733342
0.27866632 -0.50347555 0.90335071 0.98384577 0.1788795 0.0070517599 0.015980784
0.23852904 -0.41966212 0.61534321 0.99049908 0.1295092 -0.046249203 0.0026007232
0.2412982 -0.43496865 0.61279315 0.98173261 0.18503678 -0.044299558 0.005083289
0.25650546 -0.40017381 0.85351795 0.99265414 0.12016772 -0.014052428 0.0081599187
0.23574488 -0.3484956 0.63263255 0.97198915 0.18801259 -0.14102624 0.031637728
0.25206533 -0.45662916 0.74851894 0.96577328 0.25817719 -0.025027046 0.0055495426
0.25219807 -0.35360673 0.88368708 0.97806752 0.11950701 0.17059329 0.021148985
0.25151184 -0.34961069 0.85524166 0.97346985 0.22797321 0.019613465 0.032422129
0.2115998 -0.2821919 0.52670181 0.93747497 0.34667319 -0.030956537 0.066106312
0.22843775 -0.33064643 0.53740978 0.96992719 0.2395765 -0.042945631 0.021047501
0.21179424 -0.28248695 0.53084213 0.93328065 0.35872871 -0.017344663 0.061831232
0.24170339 -0.30871713 0.87891066 0.93230116 0.35493556 0.069536611 0.094769239
0.22454625 -0.34332016 0.53040546 0.96437383 0.2330911 -0.12510639 0.037145156
0.23902547 -0.30960578 0.81846792 0.8344655 0.4878118 -0.25633368 0.043787457
0.24870285 -0.36618453 0.76951277 0.95902497 0.21657485 -0.18266493 0.011960724
0.20651558 -0.16109589 0.68376631 0.44803768 0.89351326 -0.029939782 0.020385524
0.23769359 -0.41536617 0.53740805 0.98694682 0.12814276 -0.097547099 0.0052005071
0.20965321 -0.29787847 0.8266021 0.83399397 0.48713273 -0.2591444 0.099617101
0.093697436 -0.13496387 0.79028267 0.013374025 0.99980593 -0.01446046 0.0025099483
0.203384 -0.30686417 0.54811358 0.93581164 0.3441793 0.076139882 0.028851356
0.26486048 -0.47098944 0.8475033 0.94995904 0.3060078 -0.06274569 0.034800928
0.12038616 -0.13689525 0.75090384 -0.00091664295 0.99969566 -0.024652572 0.0061035394
-0.032014396 -0.13666794 0.81278312 -0.00069923472 0.99995577 0.0093777943 0.003412843
0.24638334 -0.38647354 0.89460635 0.93939251 0.14234319 0.31189746 0.015614762
0.26262116 -0.45304525 0.8646037 0.98846251 0.14044949 -0.056708027 0.0068628378
0.24389654 -0.33303404 0.89193028 0.84763062 0.18185438 0.49844891 0.048721202
0.21314253 -0.22155252 0.83846492 0.93811297 -0.00079762301 -0.34632862 0.04162522
0.19306299 -0.15428959 0.5479967 0.64081031 0.75038558 -0.16212204 0.081779994
0.22998245 -0.32113039 0.67428404 0.6134277 0.78557634 -0.08109396 0.057917655
0.16205409 -0.2994788 0.63064587 0.19780301 0.98023343 -0.0040383181 0.014658287
0.24199146 -0.42174074 0.66189921 0.99284339 0.10905069 -0.048682749 0.0015846721
0.19673213 -0.28688711 0.81760085 0.66091716 0.60056275 -0.45001435 0.083455145
0.26733658 -0.50956833 0.61904097 0.96403831 0.2608746 -0.05074079 0.0097797653
0.26479805 -0.45496488 0.88292044 0.98649848 0.16272821 -0.018447116 0.010455364
0.2370882 -0.4250235 0.53611863 0.9888761 0.1027361 -0.10756091 0.0046973135
0.24371004 -0.40945315 0.72132379 0.99104333 0.11679719 -0.064742967 0.001285252
0.1943727 -0.16484059 0.58012325 0.66862738 0.74168187 -0.053342536 0.052835174
0.24424702 -0.45342451 0.62367475 0.97732192 0.20614719 -0.048426326 0.0066950172
0.24584113 -0.43536627 0.66717178 0.97910869 0.19719167 -0.049615476 0.0038627095
0.14598061 -0.28478208 0.76518899 0.37395206 0.7742635 -0.51056421 0.080660008
0.23565012 -0.31728584 0.77524942 0.84360987 0.53621912 -0.028131992 0.039224949
0.2603381 -0.43171433 0.86253673 0.99007124 0.13838066 -0.024694089 0.0080446219
0.25017232 -0.42436638 0.7708782 0.98928583 0.11928494 -0.08417058 0.0035328204
0.24807802 -0.41918692 0.76759905 0.99004549 0.1155783 -0.080321491 0.0033952706
0.15126595 -0.13713908 0.79568052 0.1015964 0.99460423 0.020992264 0.023434443
0.24658124 -0.43648535 0.68913823 0.97565764 0.21257164 -0.053902205 0.0022918612
0.24937961 -0.43358624 0.72780544 0.98420513 0.16857059 -0.054077186 0.0040167072
0.24910384 -0.4357807 0.73290133 0.98211277 0.18002543 -0.055185307 0.0046287915
0.2470953 -0.43264085 0.7016089 0.98347217 0.17086717 -0.059890538 0.0018742958
0.25300676 -0.47478214 0.74140668 0.96725386 0.24929574 -0.047662247 0.0059059057
0.24137057 -0.39316648 0.66359401 0.99271894 0.10781644 -0.053709175 0.0010564895
0.24914184 -0.4415141 0.71166372 0.97104901 0.23412317 -0.047436561 0.003596531
0.2312454 -0.3440491 0.61191744 0.93607515 0.34053674 -0.0883063 0.047827005
0.11700573 -0.30281496 0.71386576 -0.14984232 -0.89509791 0.41993695 0.059775028
0.24595539 -0.45201996 0.64790672 0.96976036 0.23656577 -0.060011636 0.0044801072
0.25832528 -0.40330407 0.89145178 0.9699316 0.11737768 0.2132024 0.017619384
0.2401652 -0.42631814 0.61868942 0.99141055 0.12444781 -0.040222675 0.0039154175
0.20918955 -0.30608222 0.76576954 0.45365164 0.88718706 -0.084256776 0.044682935
0.24915469 -0.32444957 0.79464084 0.84447032 0.51109552 -0.16016026 0.055172287
0.25677487 -0.40077612 0.88162249 0.98536474 0.12505685 0.11583265 0.016259879
0.27625445 -0.50700808 0.76109213 0.8802402 0.45168978 -0.14544228 0.034548242
0.1841501 -0.25189951 0.55891103 0.91385007 0.07987418 -0.39811829 0.15890838
0.1998225 -0.1884058 0.5365333 0.9587661 0.23602122 -0.15830828 0.092074879
0.21173291 -0.29271793 0.50022066 0.90065956 0.24540213 -0.35859454 0.062749021
0.22791767 -0.36779475 0.50009835 0.85933536 0.18594454 -0.4764109 0.055104807
0.2188876 -0.14917371 0.78855759 0.42044991 0.90582871 -0.051925432 0.042133894
0.19132356 -0.30693334 0.76675254 0.38643709 0.91017991 -0.14912751 0.043014791
0.21497746 -0.30544001 0.72725165 0.27614379 0.96076405 0.026021872 0.029491026
0.22522426 -0.32550567 0.50059152 0.87468112 0.25016764 -0.41514948 0.062593624
0.19920789 -0.19005603 0.52435476 0.92207283 0.21984886 -0.31850922 0.089055583
0.19617839 -0.17518148 0.52003056 0.80931985 0.44195396 -0.38688269 0.11360885
0.19520311 -0.16082956 0.53414869 0.79762429 0.57739437 -0.17438813 0.10267128
0.23756838 -0.39662221 0.51492065 0.95990318 0.14654522 -0.23897786 0.018308671
0.21713574 -0.25600955 0.89144069 0.59840351 0.040816661 0.80015451 0.15802194
0.19479641 -0.15937801 0.52647638 0.68358332 0.66230237 -0.30670759 0.11368349
0.21217424 -0.16804549 0.81574219 0.82682514 0.55208135 -0.10754749 0.073838018
0.26523426 -0.50597423 0.67276591 0.95814544 0.27802566 -0.068257585 0.0075099757
0.24312018 -0.42032334 0.67738116 0.99247676 0.10886726 -0.056016356 0.0015707226
0.24297607 -0.42170429 0.66848177 0.99189425 0.1165223 -0.050678127 0.0016538905
0.19965778 -0.187134 0.53579718 0.93391019 0.29509059 -0.20182462 0.10033575
0.20577756 -0.15936235 0.66412741 0.46656623 0.88448614 0.00042366592 0.018134952
0.18096156 -0.1412165 0.52478355 0.44816977 0.84662437 -0.2870034 0.09455277
0.21026956 -0.28789338 0.52335739 0.92787635 0.37159544 -0.031020623 0.068244942
0.20060456 -0.36107069 0.46555761 0.4508369 0.28718218 -0.84514648 0.058913387
0.22759943 -0.37116119 0.49827796 0.85665661 0.20258853 -0.47444418 0.056021113
0.20986782 -0.28761262 0.49645415 0.89616883 0.23617975 -0.37563351 0.067121051
0.22269224 -0.38146195 0.4788489 0.76727813 0.15599141 -0.62205374 0.061630994
0.22660272 -0.38562688 0.48732841 0.78034246 0.15576002 -0.60564387 0.058240488
0.22293104 -0.37048385 0.48684534 0.80825412 0.15774311 -0.56731158 0.057148192
0.21236512 -0.29306349 0.49499905 0.89003062 0.2333269 -0.39166841 0.061278202
0.19968367 -0.26967838 0.48921338 0.89201701 0.34118247 -0.29647964 0.088407412
0.23404945 -0.35404453 0.6258021 0.97319728 0.17455053 -0.14973044 0.032400254
0.18685105 -0.16816925 0.50223893 0.67559713 0.43489566 -0.59534389 0.10174389
0.1925161 -0.18149668 0.50349736 0.73861283 0.32231504 -0.59208459 0.088992171
0.20508881 -0.24875484 0.4983429 0.78009081 0.16686553 -0.60300428 0.086012185
0.18609278 -0.14338294 0.53222668 0.51675218 0.82454455 -0.23042031 0.086524606
0.22517493 -0.32529232 0.49883097 0.87475181 0.25007942 -0.41505376 0.060635649
0.19541308 -0.16253686 0.52997422 0.76918006 0.58931506 -0.24712324 0.11487317
0.26602906 -0.5029856 0.6099202 0.96423227 0.25844169 -0.058855388 0.0079454081
0.18869776 -0.30288872 0.5630151 0.85993904 0.4456743 0.24875546 0.052048847
0.21726745 -0.17266577 0.84023458 0.8829186 0.4405334 0.16243474 0.078279771
0.12608176 -0.29553658 0.75236434 0.49932477 0.64398938 -0.57961404 0.06413357
0.19179012 -0.17337063 0.50522172 0.72565395 0.39081013 -0.56629843 0.096070118
0.19762786 -0.14985143 0.6653387 0.43239608 0.90163612 -0.0092686908 0.016761662
0.1899216 -0.29890111 0.80852497 0.47371271 0.83692557 -0.27413839 0.05992306
0.27739015 -0.50125331 0.82667571 0.82996017 0.5323748 -0.16656296 0.027396953
0.25251204 -0.43396237 0.77003109 0.98794597 0.12973896 -0.084442385 0.0041845096
0.24631776 -0.41897535 0.73075074 0.99338955 0.097066469 -0.061281368 0.0017656257
0.19308592 -0.18280174 0.50499254 0.76438093 0.3031615 -0.56904745 0.086778283
0.22409013 -0.41707298 0.46134308 0.73818213 0.20067807 -0.64406163 0.060973722
0.22560973 -0.44552916 0.46101341 0.68149793 0.22748177 -0.69556642 0.051807862
0.2441085 -0.38112575 0.60952401 0.99398094 0.10463601 -0.032451898 0.001513329
0.25109571 -0.39186126 0.51495624 0.97143179 0.13366137 -0.19609945 0.013447757
0.21377873 -0.29979488 0.82356673 0.76607829 0.5941714 -0.2451214 0.084733248
0.20462269 -0.21607991 0.49899742 0.78169489 0.13015431 -0.60992873 0.07199122
-0.02681523 -0.13759103 0.79503256 -0.0011982748 0.99999404 -0.0032284427 0.0040643476
0.20248978 -0.23345508 0.49943373 0.77592558 0.11800821 -0.61968833 0.08595819
0.19829267 -0.30373594 0.78788203 0.47425976 0.85767251 -0.19868436 0.048796307
0.055804525 -0.14126304 0.62855202 0.0065559582 0.99922979 -0.038689435 0.0088766962
0.038551278 -0.13633624 0.81915748 0.0048359665 0.99988443 0.014415965 0.0036229438
0.1743902 -0.37342873 0.46281514 0.23054206 0.24529693 -0.9416368 0.025894241
0.23202209 -0.32185566 0.50935501 0.92531925 0.24954508 -0.2855022 0.04871425
0.2592234 -0.41425627 0.86021912 0.99191785 0.12666002 -0.0074967644 0.009792136
0.11822577 -0.13533537 0.72615951 0.0037405952 0.99956542 -0.029239694 0.0062048133
0.22514582 -0.32272676 0.48241007 0.84756982 0.22472213 -0.48075506 0.054019712
0.26871294 -0.49862969 0.93151104 0.734496 0.45903367 0.49980363 0.015859822
0.24335866 -0.43666849 0.65853494 0.97980231 0.19464327 -0.045842063 0.0038803215
0.22076648 -0.37930506 0.47768527 0.75786889 0.16563557 -0.63103062 0.061307222
0.15746783 -0.13615839 0.78859454 0.10954668 0.99390495 0.012346081 0.019515576
0.15992969 -0.30160931 0.71323007 -0.10424773 -0.93131882 0.34896672 0.02635539
0.26164383 -0.4625105 0.84662139 0.96228486 0.25902027 -0.083163992 0.023182077
0.23205267 -0.30984861 0.67107886 0.3049207 0.93751866 -0.16757731 0.032387514
0.24505928 -0.41734561 0.69099915 0.98547328 0.15745573 -0.063639902 0.0008727932
-0.15739807 -0.13870962 0.63173556 -0.16910698 0.98504156 0.033105485 0.026852624
-0.099932976 -0.13679852 0.71581507 -0.0024864899 0.9999941 -0.0023641267 0.0063809012
0.15456523 -0.14074932 0.57561582 0.20640235 0.97685677 -0.05611543 0.04735047
0.059544865 -0.13893059 0.75093371 0.015592406 0.99963903 -0.021878878 0.00217713
-0.13207281 -0.1397206 0.57849544 -0.051187143 0.9834342 -0.17388842 0.021454087
-0.011250536 -0.13677017 0.80839306 -0.0032591389 0.99999076 0.0027957927 0.0047873077
-0.012082493 -0.13881211 0.5985558 0.017474072 0.99984515 -0.0021112862 0.0041277152
-0.040552281 -0.13990961 0.55922937 -0.0086704567 0.98946565 -0.14450793 0.015408607
0.12619559 -0.13858682 0.73419279 0.0065828138 0.99989992 -0.012521853 0.0068718456
0.19483441 -0.19650182 0.50260502 0.80647075 0.16720441 -0.56713974 0.078689985
-0.020524131 -0.13874219 0.60666692 0.017440952 0.9998315 -0.0057393461 0.0039257444
0.19455403 -0.20879766 0.4973976 0.80523312 0.15099357 -0.57341129 0.077266283
0.19659084 -0.24710926 0.49402446 0.73981792 0.12889078 -0.66034591 0.093812868
0.0020299579 -0.30792147 0.49978998 -0.19471693 0.89199311 -0.40796295 0.072804473
0.24337003 -0.43850306 0.57759458 0.98662215 0.16165742 -0.021062301 0.0072639175
0.16211513 -0.30693871 0.62508518 0.27192858 0.96230567 -0.0047499402 0.028761359
-0.027374825 -0.13642131 0.81476855 -0.001483741 0.99986714 0.016234357 0.0034361775
0.18286453 -0.31604239 0.69287342 -0.088962778 -0.99591565 0.015413809 0.010915277
0.062761717 -0.14259899 0.60985249 -0.0018849797 0.9987365 -0.050218903 0.008671538
0.022513445 -0.1380012 0.67544961 0.0031999869 0.9995718 -0.029086623 0.0054510213
0.12127131 -0.13865639 0.71278477 0.0006039422 0.99994791 -0.010183854 0.0075781723
-0.085877031 -0.30804536 0.53025734 0.11008128 0.72026497 -0.68490911 0.032017685
0.25204468 -0.34532279 0.87065256 0.97785789 0.20050015 0.059947737 0.028926359
0.024344238 -0.1374445 0.53357816 0.069572926 0.98453438 -0.16078417 0.017306261
0.21667692 -0.23008502 0.88716561 0.97350246 0.22527187 0.039312802 0.048005395
0.13063772 -0.37641817 0.46088618 0.045316521 0.23660533 -0.97054845 0.017738277
-0.020006888 -0.14140834 0.5336678 -0.0049883719 0.97629195 -0.21640052 0.02486453
0.2640411 -0.48460746 0.72540605 0.96921676 0.24290694 -0.040188216 0.0052147144
0.13727139 -0.34243509 0.46555004 0.0093050366 0.55442929 -0.83217877 0.041206419
0.20329729 -0.31019416 0.5519371 0.93346411 0.35465211 0.053540729 0.029869774
0.18610658 -0.14544918 0.51640826 0.55445457 0.75849724 -0.34243557 0.11029618
0.25235224 -0.45475599 0.75013202 0.96843696 0.24756956 -0.028966028 0.0057250499
0.2129088 -0.15104805 0.82334894 0.78210717 0.61158127 -0.11948546 0.091031939
0.20455852 -0.16110927 0.65845037 0.46243101 0.88652062 -0.015450641 0.015361708
-0.0068363626 -0.30858123 0.53516251 -0.027126934 -0.98499382 0.17044471 0.031786926
-0.0334046 -0.49040356 0.45853752 -0.025555722 0.27556491 -0.96094269 0.018435692
-0.14030744 -0.28126276 0.52980834 0.058770441 0.61215192 -0.78855312 0.12163282
-0.0016076046 -0.30121642 0.56205016 -0.034419734 -0.99081153 0.13079652 0.019699363
0.11486291 -0.38492027 0.45292407 0.028757982 0.25655341 -0.96610212 0.031047372
0.16765364 -0.41658661 0.45330313 0.24247906 0.19146691 -0.95107543 0.015067893
0.024484945 -0.38539156 0.46428555 -0.065867253 0.11568761 -0.9910993 0.011950306
0.031950962 -0.43343729 0.46262908 -0.067482218 0.090012774 -0.99365175 0.015531687
0.073010802 -0.51082873 0.43936568 -0.26487115 0.37925526 -0.88657135 0.10629225
-0.0048534977 -0.38810426 0.46983886 -0.056647606 0.078838386 -0.99527663 0.020963801
0.095093593 -0.51061898 0.43600351 -0.20786341 0.43185991 -0.87766153 0.1439181
-0.11299021 -0.22689915 0.5528627 0.65703702 -0.052418955 -0.75203365 0.015225997
-0.020016041 -0.47923717 0.45747444 -0.051518984 0.2532998 -0.96601498 0.017461462
0.016366336 -0.38708577 0.46574154 -0.11574429 0.088215925 -0.9893539 0.014845275
-0.00056767347 -0.45332736 0.45912388 -0.078053996 0.206903 -0.97524285 0.018183088
0.096471429 -0.31045511 0.51270926 -0.19435811 0.76078844 -0.61921382 0.062100399
-0.012240857 -0.42177421 0.46302933 -0.056783892 0.092262566 -0.99411428 0.014767028
0.03146591 -0.46535096 0.46173948 -0.06591475 0.20914297 -0.97566104 0.017766912
-0.043157917 -0.40672937 0.47641227 -0.067311347 0.065358073 -0.99558902 0.022722978
-0.071280956 -0.35183585 0.4733741 -0.046117675 0.39406922 -0.91792297 0.071989961
-0.1402057 -0.15416105 0.50870991 -0.11895803 0.90872473 -0.40008536 0.050126214
-0.15446566 -0.3118023 0.50114131 0.040537171 0.51826084 -0.85426134 0.056703486
-0.060945276 -0.35101703 0.46957025 -0.021221282 0.38742206 -0.92165816 0.059444759
-0.10094487 -0.40411583 0.47143528 -0.017430624 0.11091965 -0.99367642 0.019857051
-0.10400948 -0.40112078 0.46890426 -0.029616198 0.10408481 -0.99412733 0.022825412
-0.15827198 -0.37915474 0.4773725 -0.086237319 0.20742185 -0.97444302 0.027232351
-0.084920548 -0.42877126 0.47296917 -0.027260851 0.14983588 -0.98833501 0.016170306
-0.049403094 -0.43940568 0.46734446 -0.014254639 0.14918517 -0.98870653 0.013789209
0.042920258 -0.30391923 0.56715578 0.10930454 -0.95713949 0.2682097 0.055066895
0.044904061 -0.29985511 0.58958352 0.22988106 -0.90860105 0.34871042 0.069285765
-0.1012954 -0.50900406 0.44432887 -0.019204851 0.13444237 -0.99073535 0.017403852
0.10996997 -0.5122115 0.43680397 -0.13641432 0.55486882 -0.82067764 0.18558209
-0.030674944 -0.29741055 0.60678869 0.45219085 0.78716081 -0.41940594 0.081837542
-0.10793938 -0.22247611 0.541179 0.53173184 -0.21098235 -0.82021201 0.051123943
0.18295424 -0.42790067 0.4490433 0.26305884 0.19533603 -0.94479835 0.014652674
-0.098099224 -0.34828976 0.47814754 -0.047486935 0.46079254 -0.88623649 0.060251806
-0.11851238 -0.33907852 0.47895569 -0.039698873 0.45865014 -0.88772976 0.064936094
-0.017358178 -0.35760516 0.47115964 0.087132245 0.39381585 -0.91505027 0.05809503
-0.19096844 -0.40765664 0.47985685 -0.29247752 0.096072659 -0.95143414 0.036223453
0.099665172 -0.50311023 0.4323141 -0.35056436 0.23659591 -0.90616059 0.16653517
-0.1526998 -0.27970028 0.51570064 0.097250246 0.5291459 -0.84293956 0.10133062
-0.15874165 -0.32536751 0.48118022 0.037881728 0.47844329 -0.87730092 0.052079
-0.10106942 -0.5075931 0.44369087 -0.019204851 0.13444237 -0.99073535 0.017403852
-0.12066118 -0.46489725 0.45973858 -0.069151171 0.17663817 -0.98184371 0.025646772
-0.11882718 -0.31102002 0.51585984 0.26540878 0.70684028 -0.65569431 0.03172135
-0.14235041 -0.43670866 0.46766269 -0.092938177 0.12869988 -0.98731899 0.017520577
-0.15985784 -0.28077197 0.50551611 0.1000612 0.50908577 -0.85487974 0.10771455
-0.19417195 -0.35988522 0.48391101 -0.35890478 0.3430962 -0.86802781 0.035231538
0.0094132451 -0.39100522 0.46724284 -0.10054813 0.09037026 -0.99081951 0.013725578
-0.18687305 -0.41920295 0.46916091 -0.19183059 0.093782172 -0.976937 0.01525895
-0.14032492 -0.50395119 0.44734868 -0.13105717 0.23857747 -0.96223944 0.018643709
-0.18066217 -0.21476567 0.50963658 -0.12546895 -0.06796924 -0.98976648 0.076169342
-0.23677072 -0.47830734 0.47941017 -0.58864844 0.27509159 -0.76014322 0.043294672
0.019204291 -0.50702357 0.43241239 -0.085842296 0.30906588 -0.94715858 0.024421487
0.22210506 -0.4524439 0.45856276 0.49948284 0.24920681 -0.82970649 0.038784016
-0.052817583 -0.24828419 0.60695457 0.51495785 0.64937538 -0.55958015 0.068102017
-0.18986043 -0.41690856 0.47667855 -0.27948219 0.098407023 -0.9550947 0.031391792
-0.098938592 -0.34647703 0.47314221 -0.047694601 0.46253321 -0.88531822 0.060960274
-0.16002096 -0.37574533 0.47457674 -0.086094953 0.21665128 -0.97244537 0.028322751
-0.18085498 -0.39296317 0.47891793 -0.15897678 0.036781911 -0.98659694 0.022492468
-0.17709579 -0.50425982 0.4567754 -0.14346085 0.24941723 -0.9577108 0.011698936
-0.1598608 -0.31054914 0.49098966 0.040608685 0.49291441 -0.86912966 0.049165104
-0.24883476 -0.50786632 0.46429208 -0.50129205 0.046379566 -0.8640343 0.031748082
-0.23249307 -0.49444699 0.47030258 -0.43387219 0.092696413 -0.89619321 0.039611157
-0.01251662 -0.51244062 0.4136115 -0.15006687 0.35898924 -0.92119843 0.04844432
0.0039319247 -0.29745603 0.56361157 -0.03026974 -0.99103391 0.13013643 0.017863525
-0.11468817 -0.47305512 0.46004269 -0.070106402 0.20427991 -0.97639883 0.01697094
-0.14476579 -0.50463885 0.45018089 -0.12633243 0.23957258 -0.96262407 0.016568046
-0.066872001 -0.35714832 0.48016259 -0.024442554 0.39621601 -0.91783196 0.061471105
0.1823201 -0.50876766 0.43442431 0.079959936 0.28735989 -0.95447922 0.021018714
0.12659414 -0.33212745 0.46782109 -0.0013578627 0.5839054 -0.81182057 0.040375613
0.01773818 -0.28083459 0.61491162 0.31435886 0.92363876 -0.21924874 0.08337687
0.16021423 -0.25956997 0.4890525 -0.085130468 -0.25083596 -0.96427906 0.13897905
-0.10028993 -0.27256879 0.5604015 0.41973895 0.42081895 -0.80419564 0.044589743
0.0025658433 -0.51251596 0.43269351 -0.07349731 0.33996448 -0.93756187 0.025879921
0.12938808 -0.33890575 0.46839795 -0.0028601023 0.57296091 -0.81957769 0.041833758
0.19424707 -0.35687539 0.46622348 0.43176132 0.27169445 -0.8600955 0.057354532
0.088421687 -0.33559918 0.46461546 0.0082587898 0.67522144 -0.73756891 0.07007309
-0.12834124 -0.27401462 0.53665602 0.095417798 0.57992673 -0.80906141 0.10743725
0.2286367 -0.50999087 0.43641239 0.37119398 0.28202155 -0.88469136 0.026481595
0.17258586 -0.34587172 0.46395871 0.22867468 0.27418908 -0.93409216 0.031587124
0.22459967 -0.35624757 0.53514177 0.96658719 0.21389803 -0.14126891 0.027510973
0.18872319 -0.21204627 0.49579099 0.77113175 0.15421346 -0.61771679 0.077799387
0.1778063 -0.36121202 0.46293527 0.23895411 0.27840084 -0.93026549 0.030748958
0.23393235 -0.40114802 0.51407272 0.95176554 0.14661101 -0.26953205 0.026394507
0.10057688 -0.50343525 0.43257678 -0.36031047 0.22848544 -0.9044174 0.17399053
0.23854266 -0.38521332 0.61376309 0.99361795 0.10848243 -0.030902933 0.0014987236
0.22327106 -0.32873923 0.53447908 0.96751577 0.2404619 -0.078046441 0.02881013
0.22480388 -0.32804286 0.53130257 0.96219122 0.23917021 -0.13032873 0.039051637
0.24404977 -0.45651463 0.62578869 0.97732818 0.20614916 -0.048291896 0.0064376486
0.21317483 -0.36296949 0.47562245 0.58953917 0.25655788 -0.76591229 0.057801031
0.2396045 -0.42160892 0.62925148 0.99070191 0.13138859 -0.035309296 0.0035638756
0.22527251 -0.36641335 0.49515304 0.85933536 0.18594454 -0.4764109 0.055104807
0.2297446 -0.38001487 0.49920288 0.84471208 0.20047589 -0.49625683 0.054308336
0.23425831 -0.39219043 0.63031805 0.99324286 0.10895073 -0.039978828 0.001430236
0.24331355 -0.44141111 0.59939319 0.97695529 0.20986471 -0.038925786 0.0051523666
0.25216237 -0.45923704 0.73218954 0.97180575 0.23270759 -0.03795898 0.0043264544
0.24841462 -0.44034508 0.70935154 0.97028631 0.23686588 -0.049386166 0.0036384098
0.23707578 -0.41675299 0.53096151 0.9864769 0.11291537 -0.1188002 0.0058534313
0.23244154 -0.32478845 0.62693501 0.74634033 0.62959611 -0.21583487 0.069306068
0.23607539 -0.42492747 0.5265249 0.98571008 0.12328663 -0.11478725 0.0077153863
0.27598539 -0.50943661 0.73068941 0.93774813 0.34401661 -0.04776061 0.0082423529
0.1841704 -0.16991404 0.49951091 0.65917552 0.41451237 -0.62742901 0.095538445
0.17751446 -0.31500968 0.61867505 0.43792504 0.89830244 -0.035699073 0.041335844
0.20273204 -0.15370849 0.68439978 0.35578457 0.93454087 -0.0071224929 0.030796999
0.19332762 -0.15742174 0.55779445 0.6860705 0.72610492 -0.045595162 0.071082197
0.2022251 -0.29189235 0.83190304 0.74009365 0.56778878 -0.36038482 0.15927407
0.14765608 -0.14162752 0.57554382 0.17857976 0.98358721 -0.025798332 0.040143691
0.2326849 -0.31261241 0.80468869 0.84220052 0.49216613 -0.22016069 0.046097536
-0.046891678 -0.13683154 0.89107275 -0.051601455 0.98465061 0.16673495 0.045094389
0.1580361 -0.13939391 0.71926916 0.091485679 0.99426007 -0.055472437 0.017444827
0.012011996 -0.13783866 0.7013796 -0.0010088743 0.99961835 -0.027604403 0.0054796436
0.15722629 -0.14049129 0.71135449 0.10792676 0.99227524 -0.061169673 0.017810959
0.1152984 -0.13850608 0.73461556 0.0041356282 0.99991113 -0.012678571 0.0055046072
0.20484287 -0.16389726 0.66955268 0.45977843 0.88764101 -0.026403867 0.020280734
0.20874579 -0.29297781 0.5228501 0.92618567 0.37340358 -0.052438442 0.064221986
0.20778528 -0.29461899 0.52945954 0.92044908 0.39051026 0.01658983 0.051597849
0.26462343 -0.48858029 0.79296708 0.91291195 0.39881402 -0.086828366 0.028020293
0.26227114 -0.4449819 0.87436664 0.98760736 0.15615536 0.015722288 0.010840985
0.26429752 -0.46727908 0.84750265 0.96757197 0.2467614 -0.053975325 0.026997332
0.25325233 -0.47868305 0.7516644 0.96594113 0.25540209 -0.041562017 0.006626816
0.26580778 -0.48746729 0.80021679 0.91291195 0.39881402 -0.086828366 0.028020293
0.25460812 -0.45189199 0.82699996 0.98018742 0.17222604 -0.097830765 0.0050035408
0.251973 -0.45424041 0.76756054 0.97202659 0.22905536 -0.051941339 0.0064827786
0.2503576 -0.46470618 0.75788456 0.96327972 0.26662737 -0.031654991 0.0063721929
0.2255961 -0.38749501 0.48223764 0.76596242 0.14838323 -0.62552691 0.060825728
0.22996597 -0.44203126 0.47424763 0.82511866 0.2020109 -0.52760857 0.054493822
0.20920302 -0.29247695 0.53710389 0.9294129 0.36898422 -0.0065033142 0.049841661
0.22697245 -0.43981344 0.47141927 0.81025213 0.21355934 -0.54578739 0.055498008
0.2641241 -0.48906398 0.77771211 0.91655576 0.39246407 -0.076795042 0.02669305
0.25138327 -0.46256533 0.75354308 0.96347541 0.26671606 -0.024034368 0.00600668
0.23708986 -0.42489925 0.5376271 0.98856628 0.11606121 -0.096262515 0.0046506706
0.18459792 -0.17668732 0.49623361 0.62468982 0.37554777 -0.68463606 0.089945167
0.22490115 -0.42107207 0.46131924 0.73709267 0.21295509 -0.64136147 0.059891086
0.19842871 -0.36290017 0.46548185 0.43173459 0.27452034 -0.85921109 0.057466101
0.16718088 -0.4199484 0.45305848 0.23863615 0.19502549 -0.95132428 0.013181999
0.22490031 -0.47317463 0.45667216 0.48612207 0.27614754 -0.82911277 0.045687098
0.15804033 -0.13689063 0.78267354 0.12159216 0.99241108 0.018320369 0.02039828
0.089122176 -0.13568847 0.78862798 0.018192556 0.99975866 -0.012314672 0.0024471602
0.0012524915 -0.13746914 0.64997035 0.011162208 0.99959701 -0.026100919 0.004250579
-0.16898736 -0.13830668 0.62344521 -0.19565716 0.97990137 0.038878448 0.026148185
0.12376393 -0.13976355 0.71946806 0.0042683166 0.99974686 -0.02209018 0.0074749771
-0.02744236 -0.13967687 0.5715223 0.0088763265 0.99212098 -0.12496891 0.014720879
0.23791911 -0.4603107 0.50782281 0.97633696 0.078088418 -0.20166413 0.028537953
0.21199834 -0.29872981 0.82597601 0.83636528 0.46589667 -0.28884852 0.08804331
0.19049858 -0.51158977 0.42984989 0.2890197 0.34367073 -0.89350879 0.012810308
-0.074551865 -0.14449884 0.89870977 -0.046264037 0.97501892 0.21725042 0.11883869
-0.10183395 -0.14039846 0.59485048 0.0096902018 0.99945176 -0.031660836 0.0014087942
0.20877215 -0.14074689 0.85959709 0.54950327 0.77837849 0.30360043 0.098286383
0.22089094 -0.33313975 0.50069845 0.82008642 0.30291593 -0.48548964 0.071695246
-0.022198921 -0.13651372 0.75386024 0.0049341852 0.99986368 -0.015755191 0.0012053766
-0.039825518 -0.14914232 0.66787493 0.012114423 0.99978042 -0.017098418 0.0046971408
0.19307728 -0.18552157 0.50636011 0.75915539 0.29505226 -0.58019596 0.086756863
0.20402196 -0.15992042 0.72029626 0.3284975 0.94360679 -0.041176941 0.019092014
0.22969161 -0.33080822 0.61531258 0.74669826 0.66321814 -0.050827816 0.071768664
0.1535023 -0.30897012 0.62379265 0.21998216 0.97500437 0.031212281 0.016260726
0.1135954 -0.13732909 0.76117164 0.00015333915 0.99955243 -0.029916026 0.005223901
-0.04012949 -0.14008784 0.55630589 -0.0086939335 0.98946756 -0.1444937 0.015610753
-0.024429582 -0.13909352 0.57976073 0.01611595 0.9987483 -0.047351174 0.0075111329
-0.058778532 -0.13840926 0.68110597 -0.0021935271 0.99982661 -0.01849144 0.0056251329
0.20478883 -0.48066527 0.4495275 0.43260789 0.29186106 -0.85303426 0.041244641
0.22643952 -0.23036571 0.87220538 0.98026639 0.18718155 -0.063568354 0.046494998
0.26176021 -0.51813781 0.60612947 0.95616162 0.281703 -0.079990044 0.012483393
0.19484746 -0.17021097 0.60605794 0.55152249 0.82479852 -0.12462119 0.0285879
0.24739979 -0.3800256 0.78777868 0.98462534 0.14213847 -0.10153607 0.0043141921
0.2022156 -0.51314837 0.43128073 0.29040563 0.31107169 -0.90493029 0.013823624
0.28070387 -0.51027876 0.80172485 0.8226254 0.55138099 -0.13880365 0.02615715
0.210099 -0.48760995 0.44860592 0.48351204 0.24759343 -0.83959132 0.049679682
0.25166991 -0.37425342 0.81260848 0.98568356 0.13582973 -0.099890523 0.0053077573
0.23710555 -0.31925714 0.77721852 0.84387213 0.53594476 -0.025358148 0.040526424
0.2260409 -0.34383783 0.53700459 0.96681261 0.2292971 -0.11267754 0.027746476
0.26298371 -0.51575869 0.56892788 0.96682358 0.20648593 -0.15038508 0.021662217
0.25933203 -0.53009957 0.63279742 0.95946354 0.27604747 -0.056812111 0.013891047
0.079232268 -0.50764817 0.43684053 -0.26602647 0.38628197 -0.88318521 0.1144964
0.15720041 -0.30418745 0.75321543 0.27776921 0.90520138 -0.32164386 0.059032187
0.091353863 -0.51017225 0.43360129 -0.35575399 0.30694053 -0.88273811 0.13683127
0.10860623 -0.51305366 0.43720967 -0.13641432 0.55486882 -0.82067764 0.18558209
0.10853772 -0.51447272 0.43630171 -0.11738541 0.6183604 -0.77707851 0.19121481
0.2279167 -0.35225141 0.58592218 0.95183796 0.30068853 -0.059923638 0.036506537
0.19292143 -0.15522566 0.55572826 0.63605517 0.76727211 -0.082019955 0.07510592
0.24293666 -0.44078004 0.58405679 0.97851098 0.20217606 -0.040510647 0.0057995263
-0.038766336 -0.13810636 0.79665923 -0.00057525892 0.99999726 -0.0022880845 0.0043342048
-0.1549474 -0.13652284 0.86277336 -0.25830117 0.94173914 0.21542469 0.075468108
-0.15003228 -0.14647141 0.90253627 -0.25850412 0.85941625 0.44111148 0.11638068
-0.096580848 -0.13700196 0.7309258 -0.016867422 0.99985433 -0.002616514 0.0052811014
-0.022719121 -0.13720329 0.7916525 -0.00043572023 0.99999297 -0.0037178146 0.0040899515
0.051356215 -0.14010026 0.87931442 0.0036737619 0.9898296 0.14221036 0.013191376
0.038958695 -0.13697797 0.83412224 0.005770626 0.99802011 0.062630139 0.0060256398
-0.095984556 -0.1369666 0.81711358 -0.0070051011 0.99844891 0.055233758 0.02446058
-0.0065023927 -0.13630642 0.80334669 0.0061970544 0.99997991 -0.0013319021 0.01468778
0.021827785 -0.13707286 0.81805462 0.0021859179 0.99988341 0.015112927 0.013441976
-0.10712003 -0.13848515 0.74904764 -0.049919359 0.99873644 -0.0057971142 0.0028043969
-0.078235596 -0.13698794 0.74329478 -0.013435503 0.9998799 -0.007727074 0.0037804095
-0.066297553 -0.1373359 0.78559291 -0.006142782 0.9999491 -0.0080000563 0.0021428932
0.074203774 -0.137345 0.78791302 0.02340297 0.99969643 -0.0076965741 0.0048787924
0.050032929 -0.13704245 0.75613379 0.0089287534 0.99989367 -0.01153073 0.0029728136
0.040064614 -0.13649631 0.75510699 0.0089436984 0.99986422 -0.01384244 0.0035033552
-0.038183827 -0.13706401 0.74930578 -0.0023905204 0.99991262 -0.013000716 0.0011311253
0.027087482 -0.13494422 0.77712947 0.0073497547 0.99990243 -0.011874045 0.01097928
-0.041776888 -0.13762462 0.80686486 -0.0095158797 0.99986613 0.013310071 0.012857229
0.098527037 -0.14084803 0.74155742 0.01181837 0.99981463 -0.015196273 0.0046909759
0.030962894 -0.13587861 0.7568571 0.010132574 0.99984413 -0.01445919 0.0033934871
0.074490361 -0.13732284 0.75006318 0.027609095 0.99951243 -0.01457857 0.0047319406
-0.12091101 -0.13825603 0.78028089 -0.088086732 0.99610645 -0.0035548208 0.0029625825
0.040008031 -0.13630018 0.74864346 0.010479785 0.99973744 -0.020375343 0.0019546859
-0.10911323 -0.13913499 0.86262232 -0.0082619321 0.97703779 0.21290594 0.076088995
0.022405926 -0.13702969 0.82112521 0.0026003136 0.99980021 0.019820908 0.013628876
0.053563252 -0.13733645 0.7576499 0.0091218725 0.9998706 -0.013244674 0.0030735189
0.041237231 -0.14057757 0.73300904 0.0092257559 0.99965334 -0.024659192 0.0022702769
-0.0096988594 -0.13744785 0.72527075 0.005001911 0.99952245 -0.030493777 0.0031667389
-0.067604445 -0.13681574 0.72503173 -0.0076643866 0.99978167 -0.019441668 0.0038432889
-0.014904403 -0.13849713 0.73858058 0.0067524286 0.99975097 -0.021269402 0.0015312982
-0.17991476 -0.14327237 0.74812198 -0.20469542 0.97857285 -0.022247946 0.018594539
-0.16735888 -0.14051446 0.78347248 -0.16911627 0.98554957 0.0095793847 0.0085811578
-0.072526209 -0.13741606 0.71688199 -0.0085155088 0.99969554 -0.023159165 0.004274115
-0.05355531 -0.13510381 0.83062786 -0.02994214 0.9957118 0.087529577 0.024265725
0.034142964 -0.13677403 0.79316294 0.0045804814 0.99991995 -0.011792943 0.013732388
0.037590936 -0.13630949 0.79039592 0.0069715409 0.99988866 -0.01318953 0.013189709
-0.024267595 -0.13702255 0.80562252 -0.0018823158 0.99999821 -6.339416e-05 0.0046013989
-0.04163992 -0.13796009 0.80314612 0.00061731983 0.99999887 -0.0013851492 0.0048489319
0.051328246 -0.13815287 0.74867392 0.014002497 0.99966639 -0.021703076 0.0016338644
-0.022062555 -0.13709286 0.79271823 -0.00062571745 0.9999935 -0.0035548136 0.0041770614
-0.040549144 -0.13659926 0.82232124 -0.015523631 0.99935234 0.032464229 0.016199159
-0.056776162 -0.13593803 0.74661964 -0.004592624 0.99995494 -0.0083071124 0.0013500648
-0.12834729 -0.13906397 0.72558033 -0.086686671 0.99615413 0.01274069 0.0099074477
-0.17458065 -0.14219125 0.76316392 -0.18540515 0.98236209 -0.024283996 0.011890339
-0.15484028 -0.13905483 0.88867098 -0.27246553 0.89545763 0.35202014 0.11197791
0.0020602457 -0.13577761 0.79303056 0.0099473195 0.9999314 -0.0061871051 0.011913572
-0.0059579909 -0.13661931 0.80707622 0.0059640668 0.99998158 -0.0011532316 0.014883095
-0.043952662 -0.13605437 0.76036006 -0.0061920532 0.99994165 -0.0088549471 0.001195012
-0.033478115 -0.13504972 0.82905984 -0.013215788 0.99846131 0.053856116 0.015445445
0.040146548 -0.13638461 0.7814126 0.0088107139 0.99987191 -0.013360837 0.012624464
-0.12654138 -0.13815433 0.80520558 -0.1035946 0.99460137 0.0060141496 0.0078678392
0.10736647 -0.13934915 0.73480809 0.0049319146 0.99989522 -0.013607202 0.0046774708
-0.11902718 -0.13844116 0.78083938 -0.080746613 0.99670291 -0.0079549951 0.0028295687
-0.004589722 -0.13580152 0.83554107 0.0027198035 0.99858189 0.053167012 0.0061207348
-0.045412686 -0.13660136 0.75031376 -0.0043713921 0.99992889 -0.011091674 0.0012329633
-0.10076149 -0.13817868 0.74602872 -0.032276336 0.99945515 -0.0068987324 0.0040051481
-0.078690171 -0.13588722 0.74475646 -0.01380002 0.9998706 -0.0082613844 0.0037260647
0.0018462029 -0.13767333 0.70722622 0.0027523763 0.99951601 -0.030987229 0.004791772
0.031932332 -0.13467202 0.7830826 0.0060405894 0.9998818 -0.01413906 0.01165922
-0.039358497 -0.13832742 0.79097402 -0.0018263351 0.99999136 -0.0037343712 0.0038840177
-0.097288765 -0.13696541 0.73044091 -0.017678551 0.99984056 -0.0025014558 0.0053918869
-0.021064444 -0.13637154 0.72227651 0.0084408214 0.99953359 -0.029349158 0.0029532511
-0.0048651239 -0.13793226 0.72172993 0.0057325778 0.99947715 -0.031821724 0.0033131826
-0.012104207 -0.13796137 0.69470006 0.015013491 0.99960601 -0.023716236 0.0050176363
0.0079953084 -0.13755734 0.71348292 0.0051327534 0.99953336 -0.030112045 0.00444709
0.086898096 -0.13949864 0.70910549 0.014965651 0.99974912 -0.016663343 0.0048727035
0.0083338758 -0.13613129 0.83138418 -0.00029440512 0.99847537 0.055198442 0.0053381836
0.052565429 -0.13645677 0.82177997 0.021987818 0.99932212 0.029527789 0.0055442145
0.076410174 -0.13814759 0.80791986 0.043329261 0.99897921 0.012769105 0.015601246
0.092629597 -0.1367366 0.80102766 0.026155062 0.99964458 0.0051481556 0.013049588
-0.14822738 -0.1394355 0.8134082 -0.15221968 0.98798406 0.026770752 0.016107662
-0.066441283 -0.13667369 0.73372549 -0.0023426553 0.99995631 -0.0090517364 0.0016798328
-0.036069114 -0.13688192 0.73403299 0.0044150851 0.99979895 -0.019559935 0.0015242007
-0.12804146 -0.13884357 0.7213828 -0.091416344 0.99578041 0.0080299294 0.011038603
-0.10300436 -0.13927875 0.68111891 0.0013665739 0.99994671 -0.010231734 0.004918782
-0.059591345 -0.13859312 0.6836834 -0.0029115167 0.99980354 -0.019607296 0.0053676916
0.063989952 -0.13929538 0.6921488 0.0058509316 0.99981099 -0.018538862 0.0044635506
-0.025691455 -0.1369679 0.76672435 0.00078203587 0.99992353 -0.012342963 0.0012403938
0.035509065 -0.13669465 0.75896198 0.0089565599 0.9998588 -0.014221822 0.0033116222
-0.0080730729 -0.13987236 0.67284924 0.020366512 0.99953902 -0.022514114 0.0056377775
0.0015507396 -0.13783742 0.70170283 0.0038929184 0.99955773 -0.029481409 0.0050918385
0.017825997 -0.13772398 0.69870824 0.0075182514 0.99950725 -0.030476471 0.0059121503
-0.055907864 -0.13917422 0.66388077 0.010889462 0.99973655 -0.020206967 0.0033824248
-0.067176647 -0.138708 0.66044015 0.0070387577 0.99985665 -0.015400279 0.0055171535
-0.02110466 -0.13787106 0.69076908 0.015577675 0.99968803 -0.019523801 0.0048423903
0.011172624 -0.13937901 0.6630044 0.0041165552 0.99964803 -0.026209388 0.0044920235
-0.064993806 -0.13852197 0.65428323 0.012788604 0.99974853 -0.018419664 0.0040070694
0.0018953317 -0.13887216 0.65551585 0.011598648 0.99959522 -0.025977261 0.00451349
-0.060151 -0.49933809 0.97808468 0.14723727 0.35709587 0.92239028 0.01500124
-0.18106058 -0.48765287 0.98163277 -0.23512577 0.29324588 0.926673 0.024711853
-0.0063861473 -0.13505852 0.83711749 0.0031292927 0.99860132 0.052779458 0.0061997031
