# .PCD v0.7 - Point Cloud Data file format
VERSION 0.7
FIELDS x y z normal_x normal_y normal_z curvature
SIZE 4 4 4 4 4 4 4
TYPE F F F F F F F
COUNT 1 1 1 1 1 1 1
WIDTH 596
HEIGHT 1
VIEWPOINT 0 0 0 1 0 0 0
POINTS 596
DATA ascii
-0.56298047 -0.22264497 1.1198286 -0.68190026 0.63976586 -0.35455832 0.060756579
-0.56618237 -0.32585219 1.0724082 -0.86876976 -0.054401439 -0.49221903 0.019144081
-0.40367436 -0.18463176 1.0958444 -0.64725035 0.70821488 -0.28195477 0.076306097
-0.55741435 -0.31559783 1.0581089 -0.87431383 0.050366398 -0.48274073 0.0052905693
-0.41372687 -0.15962876 1.0020623 -0.71007657 0.70308405 0.038262475 0.085800141
-0.4765709 -0.21500328 0.91986322 -0.84206873 0.43625152 -0.31718275 0.051135708
-0.54660869 -0.31633449 1.0380281 -0.88053071 0.053258862 -0.47098735 0.0053302022
-0.52563703 -0.30539945 1.0014101 -0.886522 0.095589004 -0.45270458 0.00094604347
-0.54756063 -0.24317527 1.0596172 -0.79920805 0.30880982 -0.5156579 0.042723879
-0.4756791 -0.35733131 0.88738829 -0.7650488 -0.30241096 -0.56854898 0.077997133
-0.55069035 -0.31868422 1.0449224 -0.87997794 0.028124856 -0.47418115 0.0082515404
-0.53444529 -0.24377342 1.03494 -0.73969448 0.33540869 -0.58339775 0.035676368
-0.52825296 -0.21306354 1.0409228 -0.47389698 0.84655619 -0.24241352 0.071763746
-0.48540682 -0.37034586 0.90335917 -0.77979982 -0.42619696 -0.45855027 0.078032352
-0.40900066 -0.14689693 1.0153346 -0.76775682 0.63604438 0.077440359 0.097832836
-0.44439769 -0.20898573 0.87205291 -0.73286879 0.24188271 -0.63592154 0.052297324
-0.47279957 -0.21389049 0.92214578 -0.83871919 0.44658497 -0.31162801 0.052408092
-0.5406149 -0.16457723 1.1595173 -0.47441345 0.39057267 -0.78891367 0.093398251
-0.41384292 -0.11750223 0.99536419 -0.55795044 -0.57538044 -0.59802061 0.1602758
-0.446509 -0.2870169 0.8568235 -0.63164806 0.15149526 -0.76030904 0.029983019
-0.46583217 -0.20247029 0.97275108 -0.54902869 0.82995677 -0.09868712 0.053900782
-0.40140784 -0.12931012 1.0962738 -0.93848044 0.092961594 -0.33258459 0.070950747
-0.54220676 -0.33088592 1.0259622 -0.88448435 -0.12577216 -0.44929802 0.027943298
-0.50025636 -0.33764133 0.93906057 -0.90278602 -0.051024914 -0.42705256 0.03464346
-0.57899034 -0.2364119 1.1232685 -0.78559875 0.462964 -0.41048619 0.05278001
-0.1005424 -0.041971982 1.0466468 0.28300783 0.95388138 -0.10008462 0.048810817
-0.43183833 -0.3053149 0.83621395 -0.3401354 0.074264072 -0.93743944 0.056008559
-0.57764566 -0.22525775 1.099998 -0.77457684 0.53931487 -0.3304092 0.048686169
-0.49386042 -0.20239294 1.0199219 -0.30405191 0.94800955 -0.093969621 0.026479537
-0.410566 -0.17287883 1.0249125 -0.73912805 0.64810592 0.1834351 0.06317164
-0.46222961 -0.24393176 0.89241892 -0.78719205 0.25505552 -0.56149387 0.030382955
-0.50839698 -0.32117385 0.96245432 -0.90397435 0.023290982 -0.42695183 0.016296431
-0.46928468 -0.35026219 0.8777228 -0.75472146 -0.19701511 -0.62576407 0.050242241
-0.51816005 -0.3447386 0.97499961 -0.90856534 -0.14420624 -0.39206329 0.0486257
-0.4036265 -0.1610734 1.0359911 -0.83964533 0.52052546 0.15507773 0.052472677
-0.32388747 -0.038149551 1.1316713 0.024837531 0.99920428 -0.031209564 0.001594805
-0.51560766 -0.35999346 0.96888965 -0.89935642 -0.27380255 -0.34086689 0.066101119
-0.35157132 -0.044857882 1.016462 -0.03777875 0.98857635 -0.14590983 0.11258136
-0.5820936 -0.24237335 1.1204052 -0.85127187 0.34370911 -0.39648488 0.038575131
-0.46314767 -0.19658515 1.1071899 -0.205538 0.84899515 -0.48678675 0.069264479
-0.55701613 -0.19901237 1.1688949 -0.56927693 0.58265668 -0.5800302 0.071175463
-0.52358818 -0.33125201 0.99080467 -0.89983749 -0.059779014 -0.43210983 0.0295179
-0.39868677 -0.12995572 1.0984519 -0.93241596 0.079462633 -0.3525424 0.071419358
-0.58943498 -0.37215582 1.1047277 -0.7966851 -0.35525423 -0.48896533 0.086183369
-0.42405376 -0.1869372 1.0117208 -0.63499838 0.76186419 0.12782858 0.07048431
-0.45724842 -0.23726141 0.88485849 -0.75139964 0.26094928 -0.60605609 0.041008905
-0.60057348 -0.38193837 1.1320897 -0.72553551 -0.46927345 -0.50336933 0.10687757
-0.50712168 -0.38070625 0.94598991 -0.84539157 -0.41336322 -0.33829558 0.085851125
-0.46058053 -0.24936581 0.88645393 -0.75173408 0.25530809 -0.60804087 0.034618419
-0.39719549 -0.21204633 0.85881573 0.10244247 0.21551302 -0.97111255 0.079814695
-0.53516448 -0.33085385 1.0134722 -0.88441306 -0.12500298 -0.449653 0.03191793
-0.45425132 -0.2415829 0.87684828 -0.72115117 0.24141899 -0.64935189 0.041378375
-0.41414705 -0.18453191 1.1009039 -0.54537559 0.76276284 -0.34750307 0.07139051
-0.41676024 -0.18254124 1.1074661 -0.52472633 0.75301152 -0.39703393 0.075977251
-0.43008155 -0.10942933 0.94313431 0.80842793 0.58848244 0.011514645 0.13990964
-0.50471884 -0.26760572 0.96576297 -0.89512908 0.18773845 -0.40434921 0.012421167
-0.58760625 -0.11562327 1.1973081 -0.97528368 0.2124068 -0.060870316 0.12191609
-0.6288231 -0.37275764 1.1536256 -0.85047519 -0.29843196 -0.43316317 0.08770059
-0.60898799 -0.30975291 1.1525464 -0.90450543 0.1055501 -0.41319382 0.0045406613
-0.50955373 -0.31716305 0.96692884 -0.90236717 0.048269153 -0.42825654 0.0098755499
-0.56095278 -0.22039448 1.0914136 -0.71159911 0.64608258 -0.27605081 0.063653506
-0.52323371 -0.33135101 0.9909215 -0.89983749 -0.059779014 -0.43210983 0.0295179
-0.61590368 -0.31480685 1.1669755 -0.92695367 0.10301327 -0.36075637 0.013401716
-0.44247583 -0.064849749 0.92053318 -0.54415387 0.51610512 -0.66146213 0.080520764
-0.46212146 -0.19954835 1.0529672 -0.28880805 0.95731789 -0.011499114 0.021458792
-0.56543761 -0.051900897 1.1631455 -0.702272 0.70306724 -0.11184975 0.086253427
-0.55176693 -0.14937091 1.1661565 -0.70158517 0.2538805 -0.66582501 0.12653156
-0.43679112 -0.18732041 0.870125 -0.70200193 0.24854209 -0.6673981 0.064006768
-0.49467665 -0.21351404 0.94910276 -0.74867761 0.57617933 -0.32787085 0.06179668
-0.43777829 -0.19579369 0.96762383 -0.60622627 0.79495263 -0.0232372 0.049844269
-0.54273921 -0.17464012 1.1559459 -0.45511517 0.48719817 -0.74532425 0.075344644
-0.49993512 -0.19896723 1.1183395 -0.23657128 0.88374358 -0.40377146 0.050803397
-0.48166335 -0.20254427 1.0076787 -0.35064983 0.92885721 -0.11945289 0.029511625
-0.55490226 -0.2052182 1.1316397 -0.60207075 0.6558798 -0.45533773 0.070017055
-0.42169946 -0.19357798 1.0273602 -0.56620187 0.81014115 0.15194365 0.060623869
-0.43108064 -0.31100675 0.83901358 -0.31011045 0.059455086 -0.9488396 0.052039642
-0.51428562 -0.049816448 1.0571705 -0.30683777 0.93772119 -0.16287863 0.024933636
-0.52111548 -0.36020786 0.9820627 -0.89481544 -0.26788521 -0.35713142 0.062484011
-0.5117892 -0.30456227 0.97589636 -0.8929351 0.095850535 -0.4398632 0.0019306736
-0.43202499 -0.17317186 1.1227461 -0.34249336 0.62994283 -0.6970439 0.058191977
-0.49696007 -0.14819393 1.1487497 -0.16420349 0.78891987 -0.59215099 0.11180657
-0.55329776 -0.20982392 1.0820681 -0.63487315 0.73643202 -0.233675 0.067712843
-0.51118374 -0.1430397 1.1539049 -0.089234926 0.77618009 -0.62416482 0.15184475
-0.55138659 -0.090989128 1.1650916 -0.94123536 -0.034628339 -0.33597144 0.15468872
-0.5225296 -0.21277072 1.0375711 -0.45747674 0.86099523 -0.22226635 0.071379319
-0.43384492 -0.13371056 1.1255617 -0.31603429 0.58217877 -0.74912632 0.08539319
-0.49723414 -0.31890804 0.94086319 -0.90123641 0.035308044 -0.43188688 0.013761441
-0.43430024 -0.17184255 1.1231529 -0.34439203 0.61640024 -0.70812774 0.060174529
-0.51550817 -0.35719106 0.9682886 -0.90210408 -0.2569373 -0.34668648 0.061151747
-0.5535866 -0.055237506 1.1243168 -0.65488547 0.73745751 -0.16517074 0.092922337
-0.51066315 -0.066645131 1.0450974 -0.32862866 0.91122699 -0.24833189 0.036013875
-0.47711357 -0.20722713 0.95807111 -0.69286507 0.67342085 -0.25776404 0.070987269
-0.52922571 -0.21354969 1.0412475 -0.49593848 0.83093709 -0.25216749 0.074859597
-0.43834728 -0.12126495 0.91638613 -0.96593499 -0.25874421 0.0045868126 0.17277285
-0.46845657 -0.3502079 0.87664449 -0.74551505 -0.19913806 -0.63604355 0.048824891
-0.46000895 -0.20088153 0.97473192 -0.5368278 0.84104043 -0.066833757 0.047008429
-0.44279134 -0.20932032 0.87044644 -0.70816654 0.22913374 -0.66783077 0.055602506
-0.54763043 -0.24273838 1.0592037 -0.79600477 0.31919852 -0.51428461 0.045281213
-0.53572875 -0.21443266 1.048051 -0.56712598 0.76774698 -0.2982159 0.080529794
-0.54764313 -0.20932354 1.0655955 -0.60697901 0.7645818 -0.21677426 0.065591849
-0.51101363 -0.20163226 1.1219316 -0.35153186 0.8485952 -0.39536262 0.055494882
-0.43119687 -0.13010494 0.88809115 -0.50599426 0.42867348 -0.74847102 0.17817119
-0.45733538 -0.23979886 0.88343906 -0.74690133 0.24550886 -0.61795121 0.038684767
-0.44878775 -0.14975519 1.1315466 -0.30897361 0.61861694 -0.72239071 0.067351706
-0.47290823 -0.16108957 1.139414 -0.28049344 0.65341151 -0.7031194 0.053450454
-0.47372493 -0.16837256 1.1367348 -0.29148436 0.65188557 -0.70005864 0.04492696
-0.41494489 -0.18448628 1.1013274 -0.5410369 0.76613688 -0.34686214 0.071218744
-0.57295871 -0.073764481 1.1755183 -0.94870818 0.298738 -0.10348143 0.11336758
-0.43488395 -0.091848671 0.94246215 -0.95002943 -0.30862466 -0.046850935 0.18957876
-0.43620059 -0.12256347 0.89675677 -0.39095417 0.40692979 -0.82556832 0.1690906
-0.557109 -0.058070295 1.139581 -0.65905958 0.72845966 -0.18704768 0.09136413
-0.47862077 -0.36011475 0.89272153 -0.78234679 -0.3432847 -0.519701 0.08120247
-0.57399607 -0.27849916 1.0914984 -0.86634046 0.13204102 -0.48168397 0.0060134958
-0.54517555 -0.32704115 1.0324216 -0.89071649 -0.083948188 -0.44674036 0.020451417
-0.40474916 -0.17412931 1.0432938 -0.78125393 0.60445672 0.15580221 0.065882005
-0.41450509 -0.15994716 0.99964368 -0.70950371 0.70465344 0.0082490509 0.084384598
-0.4069688 -0.14708824 1.0203177 -0.79711765 0.59803891 0.083384842 0.093294978
-0.43091708 -0.13439772 1.124437 -0.31660408 0.59129149 -0.74171168 0.081687726
-0.41563493 -0.18187612 1.1084626 -0.52862018 0.7417134 -0.41282192 0.076604769
-0.55948651 -0.19719596 1.1595292 -0.57807279 0.5466662 -0.60579526 0.045442544
-0.41846803 -0.14093357 0.97918677 -0.72454119 0.64324814 0.24753158 0.12769267
-0.43645972 -0.18639816 0.87229282 -0.69530386 0.25142077 -0.67330533 0.068111725
-0.43335333 -0.094877504 0.94451237 -0.93193609 -0.36030963 0.040891238 0.18195005
-0.57548904 -0.27887678 1.0938525 -0.86716181 0.13710231 -0.47878307 0.0077400133
-0.41402897 -0.14343065 0.99534923 -0.73910159 0.66166663 0.12619886 0.12490158
-0.62040085 -0.29441079 1.1773908 -0.93995816 0.1301401 -0.31550309 0.0098395608
-0.40793917 -0.16112898 1.0217493 -0.77332658 0.61541325 0.15242228 0.072791651
-0.54853702 -0.33247375 1.0389516 -0.88537371 -0.11067116 -0.45151445 0.025161404
-0.57365143 -0.32024029 1.0871357 -0.8735407 -0.0043630144 -0.48673153 0.013178035
-0.50745267 -0.38164887 0.94604492 -0.84539157 -0.41336322 -0.33829558 0.085851125
-0.46972656 -0.18667699 1.1246449 -0.27100468 0.76015073 -0.59053135 0.064526431
-0.63931656 -0.34286219 1.228508 -0.96884054 0.040801592 0.24430144 0.10303981
-0.43459037 -0.12177592 0.9102748 -0.94422334 -0.27598879 0.17964555 0.18578392
-0.42257097 -0.13993128 0.9665761 -0.70609003 0.64644575 0.28904131 0.12772928
-0.62893713 -0.33558464 1.1889665 -0.96522814 -0.0078073377 -0.26129237 0.068447523
-0.42198455 -0.17663515 1.0063288 -0.69410056 0.7141059 0.090978637 0.075701058
-0.43969879 -0.19779648 1.0632502 -0.38335007 0.92316759 0.028360924 0.040993009
-0.53445381 -0.24236713 1.0356038 -0.73571438 0.33489308 -0.5887028 0.037115429
-0.40277672 -0.15194489 1.0370393 -0.85108566 0.50409347 0.1467756 0.056149594
-0.4633891 -0.24980927 0.89287436 -0.79559892 0.24334049 -0.55480433 0.028433291
-0.40337539 -0.15989806 1.0367489 -0.8404882 0.5188756 0.15603729 0.052911911
-0.54652715 -0.31732252 1.0377181 -0.88078177 0.046277262 -0.47125566 0.0057107727
-0.5599674 -0.33303466 1.0589471 -0.86768633 -0.094970979 -0.48795587 0.022353388
-0.52249587 -0.3291446 0.989232 -0.89947176 -0.040480532 -0.43509993 0.024870744
-0.42838362 -0.19479908 1.085234 -0.48108357 0.84433371 -0.23592199 0.062412456
-0.58954287 -0.10597045 1.2159276 -0.96309769 0.24968694 0.10049492 0.13195813
-0.46084785 -0.15725142 1.1353723 -0.32137051 0.59120536 -0.73972785 0.054940913
-0.59302837 -0.32502747 1.1194721 -0.88470113 -0.035924569 -0.46477243 0.020451961
-0.47175384 -0.20876959 0.92535949 -0.82906795 0.47376755 -0.29696906 0.05467185
-0.47454298 -0.21482022 0.92034018 -0.84000713 0.44099632 -0.31608588 0.051890627
-0.41170073 -0.17367052 1.0249151 -0.72914106 0.65961945 0.18236074 0.0641286
-0.4998844 -0.33625785 0.93885696 -0.90257967 -0.050659195 -0.42753205 0.034591913
-0.55777735 -0.31693953 1.0580876 -0.87689507 0.023991451 -0.48008281 0.0081151053
-0.58390552 -0.23466808 1.1171285 -0.81875855 0.41092193 -0.40097082 0.046925962
-0.5565809 -0.33134499 1.0530262 -0.87301695 -0.089770876 -0.47935635 0.022549041
-0.52369511 -0.33188915 0.99050409 -0.89994395 -0.059614487 -0.43191099 0.029699527
-0.58228612 -0.24350727 1.1206112 -0.85275704 0.34190843 -0.39484686 0.038567595
-0.59311998 -0.36792228 1.1119202 -0.81983417 -0.3386783 -0.46170232 0.088681489
-0.60554481 -0.36960247 1.132977 -0.78620207 -0.35972515 -0.502478 0.093659915
-0.49940142 -0.21460539 0.95310599 -0.75321889 0.57630509 -0.31707066 0.063434571
-0.52521008 -0.30736312 1.0004723 -0.88731265 0.085325919 -0.45320609 0.001600539
-0.60621619 -0.24275833 1.1692719 -0.88213307 0.28331327 -0.37626439 0.028597236
-0.56825197 -0.28069845 1.0813965 -0.86165416 0.12309603 -0.49234089 0.0020217071
-0.42446616 -0.29891738 0.83479637 -0.23931992 0.095895335 -0.96619362 0.056169644
-0.41136926 -0.14222994 1.0001242 -0.75338888 0.65756625 -0.0034446057 0.10094203
-0.57844436 -0.33123249 1.0932717 -0.87259734 -0.083766177 -0.48120388 0.028670769
-0.43951872 -0.19800906 1.0151092 -0.50484753 0.86164677 0.051903456 0.053556703
-0.41289383 -0.12521884 0.9955079 -0.30283716 0.77047962 0.56093735 0.18355358
-0.57346159 -0.23249912 1.1033165 -0.79705417 0.49309397 -0.34865895 0.048212849
-0.53537679 -0.33084098 1.0139837 -0.88355446 -0.12758844 -0.45061383 0.032010235
-0.57779527 -0.083179459 1.1839641 -0.97293299 0.20618834 -0.10434439 0.098627724
-0.56422716 -0.051791977 1.1601384 -0.69333023 0.70754188 -0.13666666 0.089165241
-0.57460207 -0.33118901 1.0868214 -0.8671329 -0.086508043 -0.49050671 0.027155004
-0.56590354 -0.32364678 1.071734 -0.87290835 -0.035942551 -0.48655856 0.016217621
-0.58801943 -0.32603702 1.1074737 -0.87860638 -0.054697413 -0.47440377 0.024800817
-0.64280087 -0.38393912 1.1813786 -0.798747 -0.51711112 -0.30756989 0.10799124
-0.58550382 -0.079466701 1.206252 -0.89935547 0.37129542 0.23086682 0.087206714
-0.50486606 -0.27156988 0.96565545 -0.89837629 0.16250625 -0.40805846 0.0087779826
-0.13077605 -0.041672967 1.0412343 0.19156624 0.85943931 -0.47398993 0.14879268
-0.4251596 -0.18680377 0.97486466 -0.62623066 0.77955008 0.011692512 0.05202112
-0.39523944 -0.15070139 0.87539208 0.42086443 0.23137553 -0.87711942 0.098407477
-0.40717295 -0.24131608 0.84981698 -0.053390354 0.2972028 -0.9533205 0.061844863
-0.45182741 -0.28606561 0.86397815 -0.68705517 0.15357386 -0.7101903 0.02376809
-0.60354888 -0.18503642 1.1965641 -0.84459382 0.33478218 -0.41783038 0.056466796
-0.59539527 -0.14163932 1.217253 -0.95954895 0.27864847 -0.040260822 0.12881516
-0.63038909 -0.31159857 1.2307186 -0.94240201 0.18471718 0.27885112 0.049000107
-0.57612902 -0.31274223 1.093117 -0.87519926 0.064697221 -0.47941685 0.0030498488
-0.4972102 -0.21046518 0.97281617 -0.63224363 0.7112481 -0.30723614 0.052196145
-0.52063668 -0.31751198 0.99016339 -0.89131343 0.02746422 -0.452555 0.010004364
-0.55979383 -0.19953442 1.16397 -0.59568381 0.53927755 -0.59526509 0.049047239
-0.40477061 -0.18338716 1.0719379 -0.71656716 0.68952179 -0.10531511 0.068272196
-0.46535182 -0.29865876 0.88152117 -0.7998637 0.1145771 -0.58914363 0.0091973273
-0.4374173 -0.23071481 0.86195397 -0.54781866 0.25977123 -0.7952444 0.064417906
-0.44349486 -0.20113392 0.93250972 -0.7835294 0.56562811 -0.25718936 0.057039078
-0.28083873 -0.03841405 1.0228252 0.046345469 0.98873961 -0.14228904 0.010128881
-0.57433176 -0.20882551 1.157901 -0.67287248 0.51087308 -0.53502464 0.046398882
-0.40779114 -0.21122262 0.85546476 -0.045538794 0.18361712 -0.98194242 0.079938233
-0.64160407 -0.3807869 1.1637378 -0.86323541 -0.33717859 -0.37567961 0.081807315
-0.53303224 -0.31547216 1.0131661 -0.88811255 0.047033619 -0.45721313 0.0051669348
-0.43640789 -0.19489245 1.036956 -0.42480755 0.90386915 0.050586443 0.044435911
-0.42548978 -0.32068622 0.83814937 -0.23201038 -8.519565e-05 -0.97271323 0.056313556
-0.46436095 -0.048991662 0.95590919 -0.5327633 0.74461251 -0.40213853 0.11823767
-0.46452725 -0.33878735 0.87131876 -0.74405396 -0.10407643 -0.65996349 0.032520548
-0.59990561 -0.22737412 1.1657553 -0.85288334 0.32800469 -0.40620556 0.036728442
-0.46449837 -0.19914861 1.0748901 -0.22415718 0.95972157 -0.16937584 0.023150209
-0.5715813 -0.065693513 1.2234567 -0.78700513 0.4681361 0.40183511 0.11873734
-0.61304599 -0.31333861 1.1601667 -0.92064613 0.09926118 -0.37756845 0.010131714
-0.47739023 -0.13428101 1.138575 -0.23754352 0.53037727 -0.81380159 0.056700427
-0.40136242 -0.18961917 1.0812157 -0.71361142 0.68278509 -0.15672681 0.067333572
-0.44440565 -0.058672391 0.93095672 -0.55815423 0.5545091 -0.61723864 0.09329433
-0.4900488 -0.34798458 0.91108388 -0.86551082 -0.12247849 -0.48568523 0.053078875
-0.5496372 -0.060064312 1.1232502 -0.65017974 0.74359912 -0.15596992 0.085423321
-0.48789486 -0.19936307 1.0502269 -0.24333981 0.9648813 -0.098943204 0.026423763
-0.45606795 -0.26537839 0.87280905 -0.69418353 0.20353696 -0.69042164 0.026812542
-0.59715521 -0.14682543 1.2070017 -0.89826488 0.27408427 -0.34350833 0.10826337
-0.40333858 -0.19971345 1.0566723 -0.55428809 0.83020818 0.059322882 0.054145686
-0.46109819 -0.25391552 0.88633257 -0.76418972 0.22432831 -0.60472381 0.028764464
-0.63895088 -0.38402396 1.1682609 -0.83334887 -0.43714702 -0.33827841 0.087114498
-0.48672578 -0.26917201 0.92333323 -0.88022131 0.1597321 -0.44687381 0.0066645024
-0.4631165 -0.20153701 1.0015005 -0.40250316 0.9092871 -0.10577435 0.026477296
-0.35638419 -0.35229942 1.4048666 -0.45931789 -0.1830249 0.86921167 0.060141016
-0.59913594 -0.15987188 1.2050502 -0.78523004 0.38441727 -0.48542473 0.088681988
-0.62329465 -0.24856305 1.2217382 -0.93879783 0.24612573 0.24099955 0.053196799
-0.30540052 -0.16904578 1.3444842 -0.85259819 0.36787507 0.37113908 0.13309695
-0.59994543 -0.26031524 1.25395 -0.70519918 0.20463501 0.67883617 0.025731442
-0.43728766 -0.31310794 1.3472664 -0.47573313 0.087331787 0.87524343 0.0095649343
-0.58931375 -0.10369437 1.2160857 -0.9627955 0.24855419 0.10604603 0.12706916
-0.51919687 -0.23560897 1.2948979 -0.27878338 0.61085278 0.74103898 0.046221346
-0.4536317 -0.22726758 1.3313808 -0.3681218 0.62010151 0.69279182 0.045436598
-0.53587013 -0.23743936 1.2863425 -0.31233832 0.54408395 0.77872807 0.043309011
-0.56052548 -0.047647197 1.2718049 -0.55552596 0.21084341 0.80432326 0.056722857
-0.44996274 -0.20656107 1.2898792 -0.15410449 0.90442759 0.39782214 0.030403174
-0.48753932 -0.33244795 1.3232217 -0.41826001 -0.10274847 0.90249729 0.054865427
-0.47843572 -0.35459131 1.3324527 -0.4457165 -0.24777699 0.86019963 0.089657031
-0.30948696 -0.14374408 1.316949 -0.51463252 0.78802204 0.33789736 0.094816782
-0.42037898 -0.24883074 1.352749 -0.51165307 0.30202174 0.80435938 0.024815882
-0.31767857 -0.051249817 1.3646731 -0.12452252 0.931364 0.34213328 0.05459968
-0.32503736 -0.17712098 1.2980872 -0.78941911 0.4957408 0.36202008 0.05162378
-0.60852933 -0.32194534 1.256197 -0.75015539 0.10053702 0.65357423 0.047792871
-0.44141582 -0.37514603 1.3522236 -0.38024357 -0.41163477 0.82823408 0.095196292
-0.55233872 -0.28402692 1.2881491 -0.47991428 0.13695179 0.86656016 0.0052270093
-0.38975543 -0.24624245 1.3640388 -0.49327189 0.26995021 0.82692784 0.021705227
-0.4640049 -0.2859956 1.3294597 -0.44760045 0.14074591 0.88308805 0.0025108301
-0.48647919 -0.066305861 1.2807717 -0.38615543 -0.48967117 0.78173274 0.063926265
-0.42361751 -0.059847306 1.3113562 -0.22909515 0.92009562 0.31770968 0.0185176
-0.4130635 -0.33934337 1.3637793 -0.45425206 -0.13002931 0.88133281 0.056464158
-0.474132 -0.32198378 1.3287101 -0.45781374 -0.0020310592 0.88904589 0.02877632
-0.57952029 -0.081208721 1.2173988 -0.83713567 0.39315578 0.38030571 0.099793807
-0.36766103 -0.063378915 1.3290884 -0.072298601 0.97012001 0.23160318 0.066637225
-0.37967128 -0.31358266 1.3787524 -0.4833259 0.10587573 0.86901462 0.0083810538
-0.50094533 -0.060427886 1.2705669 -0.38957694 -0.40840745 0.8254897 0.088640995
-0.53650486 -0.047775406 1.2519001 -0.53077739 0.44128543 0.72356242 0.11282565
-0.32819083 -0.14921062 1.2383145 -0.33039561 0.94383311 0.0042134803 0.22883317
-0.39352763 -0.20030163 1.2542294 -0.13901646 0.96090472 0.23945035 0.049089611
-0.50843394 -0.33806482 1.3164973 -0.43929914 -0.091283731 0.893691 0.05179188
-0.49010429 -0.063914254 1.2760193 -0.390367 -0.45132142 0.80244792 0.071438462
-0.31356171 -0.068047844 1.3656217 -0.51261556 -0.022467442 0.85832423 0.14233762
-0.55997491 -0.27044016 1.281098 -0.51175606 0.15959373 0.84417748 0.0073872861
-0.38457084 -0.059083946 1.3259376 -0.19810517 0.94751072 0.25095361 0.023960097
-0.34382632 -0.23211274 1.385174 -0.43854353 0.33832991 0.83259374 0.018492641
-0.50730956 -0.33699936 1.3167967 -0.44117326 -0.090955988 0.89280069 0.051654134
-0.33919021 -0.13281512 1.2381387 -0.79909432 0.23724426 0.55241597 0.040038623
-0.56035739 -0.14430752 1.243367 -0.32506657 -0.052245244 0.94424689 0.1408029
-0.48078111 -0.36311778 1.3305696 -0.40939555 -0.41672453 0.81162542 0.097873382
-0.3364155 -0.13440378 1.2397287 -0.80024344 0.28223372 0.52910727 0.050346036
-0.36876059 -0.29622328 1.3825798 -0.485223 0.14645617 0.8620379 0.0037674622
-0.28463161 -0.25377691 1.421075 -0.21783723 0.2974022 0.92956924 0.018736703
-0.43972549 -0.20477635 1.2934026 -0.10475554 0.91067898 0.39961255 0.041149456
-0.40676537 -0.29619572 1.3557385 -0.47558326 0.1278141 0.8703357 0.0038918734
-0.3411622 -0.20746373 1.3522642 -0.54974836 0.6963253 0.46141943 0.030146627
-0.58614087 -0.29523253 1.2686194 -0.64109474 0.15528251 0.75158811 0.014547712
-0.35861799 -0.1895535 1.2164589 -0.60214013 0.56321836 0.56587303 0.090231448
-0.44086793 -0.31605706 1.3455136 -0.47055119 0.078195579 0.87890106 0.010172888
-0.3691673 -0.047040939 1.3384417 -0.17882413 0.93573773 0.30400142 0.016620755
-0.31150234 -0.11961603 1.320803 -0.0059663244 0.89866012 -0.4386051 0.23888522
-0.46227849 -0.27940229 1.3298668 -0.45098272 0.19502032 0.8709659 0.0071053822
-0.50368685 -0.35520828 1.3195118 -0.35329592 -0.38955635 0.85054564 0.086516589
-0.31820735 -0.13877064 1.2843852 -0.52969879 0.81402427 0.23829319 0.12523682
-0.46121475 -0.12186634 1.2160496 0.34275863 0.033608742 0.93882203 0.19665261
-0.57581306 -0.11929244 1.2309909 -0.59969437 0.099072024 0.79407263 0.19543569
-0.58460957 -0.14960554 1.2298503 -0.62445951 0.053538106 0.77922004 0.17080832
-0.42870736 -0.37816644 1.3701093 -0.4335807 -0.2580803 0.8633669 0.076173365
-0.30301979 -0.22631252 1.4039596 -0.4024719 0.35643059 0.84319252 0.019635078
-0.30878535 -0.047712278 1.368359 -0.073283173 0.93137521 0.3566089 0.04429616
-0.32083365 -0.12148333 1.2710785 -0.36561102 0.92586744 0.09538351 0.11662415
-0.54020977 -0.25428405 1.2870773 -0.37241474 0.37603557 0.84847194 0.042671002
-0.56194705 -0.23819879 1.271848 -0.43875673 0.44738808 0.77931798 0.037826635
-0.48100963 -0.19969499 1.2436857 -0.14313607 0.6614269 0.73622447 0.051261768
-0.64047289 -0.34523666 1.2309629 -0.96366817 0.014608156 0.26670274 0.11232749
-0.31285873 -0.055628486 1.3684294 -0.17549336 0.8840425 0.43320996 0.1270941
-0.55393779 -0.098664127 1.2362906 -0.43302062 0.20780881 0.87710243 0.14057282
-0.28888634 -0.3110742 1.4270785 -0.28231964 0.15685681 0.94640988 0.014317122
-0.51798391 -0.1994449 1.2454448 0.071878634 0.47651428 0.8762235 0.036599737
-0.58326209 -0.14060488 1.2299176 -0.69096172 0.061480418 0.72027212 0.18972959
-0.3661443 -0.13698399 1.2051972 -0.61647213 0.12452259 0.77746785 0.08797542
-0.51162642 -0.12252783 1.2290829 -0.092883684 -0.35844705 0.92891777 0.17086054
-0.40640232 -0.12985159 1.1980166 0.34409833 0.91528648 0.20939672 0.11894847
-0.4443621 -0.28106403 1.3395694 -0.48569131 0.19392905 0.85234696 0.0068453946
-0.48457187 -0.13047922 1.2224976 0.55322355 0.31790328 0.76998782 0.17666866
-0.50971073 -0.18949504 1.2361329 0.12427835 0.45000136 0.88433808 0.046443347
-0.32497975 -0.15241455 1.2678192 -0.70458138 0.65640289 0.26963022 0.11931667
-0.55765343 -0.22377701 1.2730646 -0.37261528 0.54778308 0.74906051 0.035812993
-0.44276363 -0.052611124 1.2950342 -0.20990722 0.89882469 0.38477695 0.010899262
-0.59949267 -0.25240451 1.2531266 -0.70440185 0.22856256 0.67199486 0.026921215
-0.42754817 -0.20179494 1.2745525 -0.058163617 0.97487825 0.21501006 0.011811274
-0.46998477 -0.13625725 1.2194338 0.61814129 0.472074 0.62852806 0.24655814
-0.38334236 -0.14872785 1.1982435 -0.38141254 0.27739179 0.88180399 0.12107369
-0.54192311 -0.24352492 1.2838383 -0.34844688 0.47243717 0.80956036 0.048965491
-0.46222523 -0.26970646 1.326053 -0.43131047 0.25738925 0.8647092 0.015454344
-0.32234079 -0.27065459 1.4022567 -0.44233587 0.23116279 0.86654645 0.0069334921
-0.39417168 -0.19612382 1.231572 -0.077361673 0.83304006 0.54777676 0.075940154
-0.2923471 -0.061230399 1.3774393 -0.057413369 0.68217522 0.72893125 0.13046683
-0.55029786 -0.087620817 1.2363623 -0.49758109 0.2785936 0.82146126 0.13825041
-0.55084085 -0.098328568 1.237313 -0.45137888 0.19384721 0.87102258 0.13854244
-0.61880374 -0.25328302 1.2333046 -0.893372 0.26288313 0.36438823 0.053035244
-0.5760144 -0.14765266 1.2355279 -0.43725759 -0.026643408 0.89894158 0.16756205
-0.49954957 -0.13486367 1.2271044 0.23505989 0.25037703 0.93917954 0.13430712
-0.40076891 -0.13187562 1.1978536 0.35419175 0.93201494 0.076787427 0.13983089
-0.30478492 -0.17023082 1.3466326 -0.82226133 0.40256089 0.40228218 0.13750733
-0.47060785 -0.35044214 1.3337865 -0.49388239 -0.23508191 0.83714795 0.092459418
-0.41507152 -0.20432596 1.3045973 -0.0036918418 0.89280558 0.45042706 0.034893289
-0.30971205 -0.2025388 1.3716042 -0.56052577 0.46979451 0.68198532 0.029264379
-0.48252538 -0.14985836 1.2243521 0.33880013 0.46579206 0.81746691 0.19590755
-0.45099369 -0.11587446 1.2138807 0.27605209 0.079508014 0.95784849 0.0046594413
-0.40335304 -0.065106966 1.323377 -0.23064077 0.92651957 0.29726475 0.02833591
-0.35222587 -0.29302391 1.3913013 -0.4832848 0.15326415 0.86194313 0.0031105815
-0.51712245 -0.35577321 1.3131859 -0.39764044 -0.42796448 0.81162089 0.084392458
-0.61178583 -0.24848883 1.2415254 -0.84702808 0.28715855 0.44730666 0.052392513
-0.45905158 -0.1091307 1.21664 0.33720717 -0.033492912 0.94083452 0.070114583
-0.56128353 -0.12009315 1.2379751 -0.40352944 -0.045895502 0.91381484 0.18670318
-0.5895927 -0.12051678 1.1976768 -0.96370298 0.25050694 -0.092319116 0.13260712
-0.3677083 -0.048461698 1.3378035 -0.17223585 0.93825877 0.30000904 0.015935367
-0.39331251 -0.24194781 1.3679496 -0.494073 0.2710759 0.82608098 0.021823525
-0.6179744 -0.27534646 1.2349041 -0.89998525 0.20360182 0.38545135 0.052117266
-0.32776424 -0.33245009 1.4116108 -0.43514037 -0.063140206 0.89814591 0.036488362
-0.37616634 -0.1984778 1.2491733 -0.38229236 0.85302466 0.3552483 0.089559689
-0.47756541 -0.11327223 1.2205412 0.16681774 -0.27759507 0.94610405 0.10351392
-0.43568382 -0.038681898 1.1643968 -0.0064710309 0.99996966 -0.0043326356 0.0014508762
-0.65383762 -0.38285309 1.1814044 -0.83788985 -0.47494051 -0.26902074 0.11994947
-0.31236154 -0.26261863 1.4071068 -0.40303248 0.2447093 0.88186294 0.0082760546
-0.47940642 -0.11131554 1.2208155 0.15997837 -0.27656591 0.94758546 0.10098878
-0.2250703 -0.26386374 1.4251558 0.38241938 0.16762008 0.90865779 0.055716436
-0.377271 -0.2462876 1.3664521 -0.48656297 0.25084195 0.83686012 0.020048214
-0.5822345 -0.32663009 1.277693 -0.57722288 -0.0082207061 0.81654519 0.029032834
-0.60226518 -0.23779669 1.2469655 -0.76243234 0.31321928 0.56620723 0.050597008
-0.63992667 -0.3764334 1.2220538 -0.84098464 -0.50718176 0.18844473 0.17158432
-0.56802094 -0.15080903 1.2409142 -0.37390721 0.049047779 0.92616826 0.15208739
-0.56452972 -0.13101685 1.2393878 -0.38205555 -0.035383489 0.92346174 0.17163195
-0.52654082 -0.11326887 1.2321607 -0.22784847 -0.23434818 0.94507456 0.15811558
-0.40114215 -0.31786731 1.3664839 -0.47679305 0.083811566 0.87501079 0.013173307
-0.25442669 -0.16832124 1.412287 -0.17936778 0.2093105 0.96125764 0.095297486
-0.5221858 -0.17595588 1.2313325 -0.021552136 0.63073242 0.77570111 0.20819889
-0.45665032 -0.34813383 1.3412373 -0.43380022 -0.18502641 0.88180643 0.079385869
-0.30588236 -0.20594442 1.38379 -0.48828232 0.41477671 0.76781547 0.02351927
-0.31370851 -0.13847363 1.3028951 -0.47574213 0.82429796 0.3069239 0.12055057
-0.42009628 -0.053862378 1.3050518 -0.20932746 0.93922317 0.27210632 0.01831851
-0.40056306 -0.31960389 1.3673387 -0.48510018 0.07493417 0.87124199 0.015217621
-0.54772687 -0.24395558 1.2808126 -0.36944139 0.43261778 0.82240796 0.046604782
-0.40883854 -0.30335897 1.3571986 -0.47525147 0.13469671 0.86947846 0.0034076525
-0.37934715 -0.13966469 1.1983225 -0.47028452 0.077227645 0.87912929 0.10249763
-0.52644676 -0.31992546 1.304443 -0.45360768 0.04429771 0.89009988 0.015090542
-0.32137722 -0.12404952 1.2705516 -0.40148804 0.90787697 0.12069342 0.12486301
-0.59578401 -0.23578978 1.2507471 -0.70512271 0.30893239 0.6382497 0.037548222
-0.51941711 -0.2929391 1.3038406 -0.4321135 0.12685645 0.89285231 0.0015008309
-0.47738478 -0.15589544 1.2215569 -0.56683505 0.55252546 0.61107576 0.20881449
-0.63070357 -0.36797324 1.2424196 -0.76739264 -0.36437625 0.52757794 0.14965494
-0.31379026 -0.21492508 1.3877755 -0.46388853 0.41651937 0.78186888 0.025029948
-0.38115272 -0.17362547 1.2108378 -0.41808668 0.61575198 0.66787201 0.11692037
-0.56651437 -0.22676882 1.2671893 -0.44151339 0.52297992 0.7290802 0.032173362
-0.57166743 -0.33218864 1.2819326 -0.5474273 -0.076575674 0.83334231 0.046458393
-0.5827381 -0.11674525 1.2250195 -0.94706029 0.28649279 0.1449092 0.16233099
-0.56489736 -0.31227928 1.2851331 -0.49721843 0.11195657 0.86037171 0.0083036516
-0.41664356 -0.045288451 0.89764547 -0.40288535 0.58902884 -0.7005201 0.07059291
-0.56914294 -0.12564789 1.2356197 -0.41188765 -0.00066450291 0.91123444 0.1834157
-0.5371567 -0.099768043 1.2350287 -0.31952661 0.070901997 0.94492102 0.14291734
-0.51933038 -0.17453571 1.2318062 0.015576554 0.63555199 0.77190089 0.20808373
-0.62251371 -0.24814604 1.2240028 -0.93516654 0.23961329 0.26086199 0.053338539
-0.58169538 -0.12853453 1.2281606 -0.83394557 0.16744065 0.5258311 0.19397323
-0.30289796 -0.27116433 1.4147772 -0.37621504 0.2256074 0.89864534 0.0060754297
-0.27316362 -0.31777358 1.4352661 -0.14882296 0.13147795 0.98008436 0.033560731
-0.41763508 -0.31759438 1.3578671 -0.46978357 0.078363799 0.87929654 0.01274864
-0.32874811 -0.14077462 1.2538399 -0.71215534 0.61062479 0.34636986 0.098136313
-0.46146551 -0.12437148 1.2162739 0.34586716 0.55489135 0.75661844 0.26731706
-0.31451595 -0.06878607 1.3646445 -0.51262182 -0.022490436 0.85831994 0.14372283
-0.57419348 -0.13734101 1.2358841 -0.44008821 -0.032136448 0.8973794 0.17660671
-0.40459061 -0.20269321 1.281045 -0.083665684 0.97827375 0.18968517 0.013343031
-0.50511742 -0.20366231 1.2512676 -0.087333098 0.61801493 0.78130043 0.033885475
-0.54245406 -0.11016655 1.2356786 -0.26599845 -0.057820074 0.96223783 0.16240208
-0.43755215 -0.20928143 1.3047582 -0.20640515 0.81700158 0.5384286 0.062998898
-0.44335544 -0.19833446 1.2383027 0.0041091037 0.8725878 0.48844001 0.051072765
-0.25745016 -0.12390003 1.3992786 -0.044607382 0.054739945 0.99750376 0.11182696
-0.38946322 -0.064485416 1.3196884 -0.19890282 0.94783503 0.24909118 0.026393354
-0.54408675 -0.37945348 1.3060296 -0.30557692 -0.70316917 0.6420092 0.0884367
-0.23846281 -0.16378705 1.4030837 0.33969772 0.23836447 0.90982848 0.14565274
-0.41559738 -0.047763087 1.2998134 -0.19053657 0.95532721 0.22593318 0.018675383
-0.5653742 -0.3671335 1.3050294 -0.50071657 -0.28498644 0.81735283 0.074515469
-0.55513799 -0.38079587 1.3019034 -0.26160535 -0.72731608 0.63448715 0.10002276
-0.54868191 -0.25680301 1.2841992 -0.41578269 0.30699164 0.85608464 0.036225248
-0.53237152 -0.19501664 1.2486631 0.056211818 0.44655415 0.8929891 0.038525287
-0.55023134 -0.21991733 1.2758944 -0.28533924 0.55419612 0.78195155 0.043392122
-0.54763824 -0.12072119 1.2373246 -0.23087975 -0.081005089 0.96960431 0.18371318
-0.47326624 -0.19523481 1.2315459 -0.13598862 0.49745592 0.85676414 0.057507746
-0.35891986 -0.19484082 1.239621 -0.54932654 0.70543605 0.44788438 0.09335278
-0.24473102 -0.37277466 1.4485788 0.17278571 -0.34859908 0.92120785 0.15519522
-0.27325323 -0.2490304 1.4232948 -0.088382155 0.28697804 0.95385128 0.037671577
-0.24264038 -0.26550528 1.4317895 0.2195593 0.22623567 0.94900542 0.058968794
-0.25138807 -0.10351171 1.4017186 0.38137192 0.20175233 0.9021371 0.10669236
-0.25539103 -0.048752543 1.3875887 0.19296728 0.7007789 0.68678421 0.1183511
-0.24940641 -0.37640318 1.4465462 0.072783545 -0.42900631 0.9003644 0.15396129
-0.23609874 -0.36772779 1.4496831 0.34515458 -0.24648003 0.90560257 0.14300622
-0.12721168 -0.2365001 1.2520264 0.84601504 0.2027272 0.49311295 0.012787633
-0.22420725 -0.25241989 1.4226781 0.42223123 0.20848227 0.88218814 0.057224739
-0.1843491 -0.059773948 1.2893276 -0.10334536 0.98640364 0.12777911 0.1292498
-0.11534745 -0.37178478 1.2554103 0.83853465 -0.24875672 0.48474705 0.057331175
-0.11495176 -0.20953988 1.1450227 0.38849193 0.59423208 0.70424592 0.030850511
-0.051983699 -0.36109945 1.1424456 0.85673642 -0.34843174 0.38026056 0.079624355
-0.19595788 -0.31502539 1.393497 0.80331808 0.089596778 0.58877206 0.010347552
-0.23056851 -0.049864784 1.3657262 0.4746466 0.74969935 0.46115237 0.15396729
-0.21330398 -0.28900203 1.4183279 0.53096461 0.14819565 0.83433491 0.046441972
-0.16349323 -0.31430054 1.3451835 0.8648591 0.083246909 0.49506438 0.0056158234
-0.1468055 -0.30276155 1.3085797 0.87920165 0.13352945 0.45735574 0.0014167727
-0.19167233 -0.14630306 1.1394453 0.26391119 0.27989805 0.92304277 0.038085077
-0.57253206 -0.13509706 1.2362838 -0.43956205 -0.035043824 0.89752835 0.18210304
-0.20305815 -0.1998397 1.2160943 0.18130971 0.96981108 0.16307431 0.018201964
-0.22404635 -0.18752855 1.383713 0.74678612 0.4302015 0.50718546 0.11461915
-0.11992981 -0.25734526 1.2414467 0.86925727 0.13363312 0.47595578 0.00057704479
-0.11462949 -0.15210271 1.1157407 0.39931864 0.26384479 0.87802655 0.020186754
-0.17935187 -0.11140349 1.1378661 0.28420734 0.083266951 0.95514023 0.053476218
-0.1523497 -0.26698914 1.3036869 0.86774975 0.17319337 0.46584806 0.0053500505
-0.21083504 -0.20231615 1.2770855 0.58091897 0.8134681 0.028335012 0.035942372
-0.16871779 -0.23661287 1.3280785 0.76807064 0.51266319 0.38372388 0.038924895
-0.22645353 -0.37202436 1.4485925 0.45089447 -0.30202532 0.83992559 0.13872156
-0.37276763 -0.04784552 1.3374224 -0.17419432 0.9382025 0.29905251 0.017120857
-0.29730672 -0.20283857 1.3945564 -0.35819906 0.43474618 0.82625008 0.039389774
-0.1791199 -0.17268561 1.1384355 0.25435525 0.35016254 0.90149307 0.035959564
-0.16746427 -0.12859175 1.1321418 0.25043508 0.25719431 0.93334526 0.05029095
-0.2062691 -0.17297649 1.1467046 0.26112828 0.62401021 0.73649395 0.087514482
-0.2068055 -0.16732249 1.1443318 0.15856296 0.71399665 0.68195784 0.12713867
-0.24328203 -0.33242139 1.4432422 0.21183017 0.083678596 0.97371757 0.078910947
-0.18590797 -0.35664687 1.389495 0.8282153 -0.2522696 0.50041938 0.059362289
-0.20682482 -0.33165118 1.4186964 0.69848007 0.010183224 0.71555704 0.055132776
-0.14976953 -0.24890199 1.2923886 0.79780275 0.33751994 0.4995909 0.034623321
-0.041480538 -0.29607934 1.1068295 0.9026773 0.12096196 0.41296706 0.0057333172
-0.23647548 -0.34761131 1.4500277 0.30110729 -0.020961815 0.95335984 0.1066856
-0.20354608 -0.26697391 1.3986622 0.76145184 0.21086417 0.61296612 0.026559154
-0.076004393 -0.28485271 1.1685139 0.87707716 0.14929619 0.45655921 0.0026953258
-0.28098562 -0.22033651 1.4119618 -0.19707905 0.33897257 0.91992253 0.035951484
-0.19536138 -0.30395442 1.3906263 0.79895377 0.11442263 0.59040689 0.0069078542
-0.0633699 -0.35328504 1.162416 0.8628903 -0.29376209 0.41124713 0.069685265
-0.17646046 -0.12768403 1.1354206 0.23825148 0.26605204 0.93405169 0.048873901
-0.15242365 -0.32758024 1.3267913 0.88597745 -0.0285576 0.46284819 0.019297684
-0.22179765 -0.36702743 1.4439955 0.5249117 -0.23694323 0.81751192 0.1252978
-0.22950852 -0.15046178 1.1502582 0.42527255 0.42691115 0.79805392 0.079884402
-0.21275306 -0.12708025 1.1453147 0.33520484 0.15256773 0.92971003 0.027336931
-0.19058883 -0.37631515 1.3939308 0.76017535 -0.47201636 0.44646829 0.089266971
-0.13735947 -0.13092175 1.1168221 0.087334618 0.7514087 0.65403181 0.15670167
-0.11685796 -0.14629026 1.1162044 0.39881849 0.23889406 0.88536632 0.019622948
-0.085398227 -0.048704974 1.0839878 0.72219044 0.63980627 0.26284751 0.17580231
-0.12626426 -0.14049746 1.1190002 0.3609238 0.23189323 0.90330476 0.013250823
-0.086698793 -0.13724442 1.10285 0.59820604 0.19735236 0.7766605 0.049814276
-0.20849855 -0.14686981 1.1444552 0.31621546 0.3336131 0.88809347 0.072471723
-0.11943204 -0.11077026 1.1082073 0.48519921 -0.14182337 0.86282557 0.15265726
-0.14790532 -0.27482551 1.2977566 0.87819588 0.14339654 0.45629975 0.0010742049
-0.23194905 -0.12797415 1.1484553 0.47531584 0.10066198 0.8740378 0.034020595
-0.12193407 -0.33997324 1.2698514 0.8584941 -0.089876533 0.50488615 0.027873632
-0.22145918 -0.23774417 1.4164118 0.52417564 0.26563245 0.80912256 0.071083643
-0.24282689 -0.18186036 1.1668109 0.3250106 0.72905427 0.60236871 0.066636309
-0.072429791 -0.12331377 1.0837681 0.65345329 0.054688599 0.75498867 0.059426084
-0.17268433 -0.054705426 1.2601688 0.33701527 0.92122233 0.19434537 0.013393665
-0.16527896 -0.098458827 1.1359565 0.30462846 -0.4039478 0.86257035 0.1327264
-0.25293443 -0.16850749 1.1765109 0.25747955 0.76309937 0.59277624 0.076666303
-0.18195012 -0.35807219 1.3829842 0.83280128 -0.28609124 0.47391343 0.069051944
-0.11931418 -0.22671232 1.2355691 0.82235777 0.31911668 0.4710544 0.028328462
-0.22020733 -0.2027849 1.347928 0.87353677 0.4460848 0.1947867 0.056854397
-0.12718946 -0.35676992 1.2783004 0.8473624 -0.16551881 0.50455964 0.044734668
-0.03205701 -0.31961355 1.0930576 0.96110851 -0.012922848 0.27586862 0.017750178
-0.23319212 -0.087993443 1.3233106 0.96840167 -0.17536236 0.17733087 0.17445247
-0.25246072 -0.099919707 1.4009775 0.37805322 0.24155012 0.89371657 0.10407289
-0.22098966 -0.055453762 1.3441325 0.76327455 0.46132013 0.45232263 0.15063721
-0.12435274 -0.23547386 1.2458431 0.8549372 0.18069229 0.48624346 0.0099874139
-0.090134047 -0.30279821 1.2011917 0.87310725 0.13404085 0.46873963 0.00092882401
-0.077774525 -0.24447781 1.157699 0.81173515 0.37425902 0.44834819 0.023608577
-0.10158037 -0.26649898 1.2113053 0.86975533 0.14402239 0.47199926 0.00053330016
-0.12467285 -0.29103681 1.2597989 0.87270427 0.13226281 0.46999347 0.00070616812
-0.11501422 -0.057350241 1.1698434 -0.2749801 0.91454798 -0.29662746 0.13254395
-0.20117743 -0.32808545 1.4085524 0.77974761 0.017683387 0.6258443 0.03772616
-0.058012556 -0.35999131 1.1406446 0.83632082 -0.40155175 0.37326083 0.086884797
-0.24512653 -0.16295557 1.1303613 -0.17402819 0.96156526 0.21238256 0.1191684
-0.22842754 -0.17584653 1.154573 0.34409925 0.65803534 0.66976506 0.064308889
-0.17163397 -0.28632429 1.3444889 0.86188871 0.14917137 0.48466048 0.0012440446
-0.089684218 -0.26463827 1.1917012 0.88168287 0.20150624 0.42665029 0.010648165
-0.13820265 -0.24434382 1.2699667 0.82787549 0.25825724 0.49792105 0.021239046
-0.20213312 -0.26244885 1.3963841 0.76952022 0.23102464 0.59537065 0.025246842
-0.21270823 -0.32230678 1.4240618 0.60704345 0.090224363 0.78953004 0.048122264
-0.18518741 -0.050148245 1.2762349 0.19946611 0.93983406 0.27735391 0.066572249
-0.082597613 -0.27434868 1.1773598 0.87179619 0.19836283 0.44791034 0.0089871846
-0.36110419 -0.36406532 1.4021508 -0.42526993 -0.22598881 0.87639868 0.075971417
-0.077741429 -0.24250944 1.1572183 0.80972308 0.37820965 0.44867131 0.02333045
-0.14604011 -0.30650455 1.3083001 0.87897706 0.12932876 0.45899171 0.0017929625
-0.15322897 -0.3338525 1.3296959 0.87977147 -0.086998895 0.46736839 0.032626737
-0.23424082 -0.095957689 1.3724279 0.79399991 0.23821709 0.55930018 0.14828241
-0.19541518 -0.37859848 1.4018294 0.73468256 -0.46153289 0.4972212 0.097777113
-0.033564392 -0.25089025 1.0736294 0.97596669 0.21126693 0.053434044 0.044480152
-0.2003915 -0.25259072 1.3880087 0.79382199 0.24666886 0.55587864 0.021796811
-0.12553471 -0.31839868 1.2707253 0.88116485 0.049458221 0.47021532 0.012092802
-0.076318495 -0.23069991 1.142148 0.79126626 0.37955976 0.47940809 0.023005292
-0.25562134 -0.18423475 1.1943866 0.28015447 0.87662798 0.39119926 0.078940757
-0.12811886 -0.12310152 1.1184448 0.42129686 -0.11148462 0.9000445 0.023146626
-0.22425076 -0.035766326 1.1413106 0.072178431 0.99630612 -0.046522304 0.012565383
-0.53868198 -0.091604121 1.2365141 -0.40223119 0.17363331 0.89892244 0.15141939
-0.29030985 -0.30583939 1.4271624 -0.28075767 0.15971522 0.94639641 0.015872858
-0.16783202 -0.057264477 1.2570237 0.32337531 0.9238717 0.20466919 0.013096267
-0.066036172 -0.31457677 1.1636308 0.89239711 0.068616524 0.4460035 0.0076915952
-0.13703263 -0.31764308 1.2925441 0.88049722 0.064325318 0.46966678 0.0080340803
-0.13023101 -0.32051554 1.2801288 0.88175076 0.024337098 0.47108737 0.015437469
-0.24563673 -0.11329337 1.2880349 0.32964876 -0.63214469 0.70123094 0.20202941
-0.24366528 -0.18561229 1.1717355 0.29056898 0.7499252 0.59429115 0.070201069
-0.11758293 -0.054745629 1.1702396 -0.2200879 0.95012307 -0.22096947 0.12176598
-0.087176964 -0.32900321 1.2050276 0.89209682 -0.0080063222 0.45177341 0.025890734
-0.20636016 -0.2019867 1.3061298 0.65457374 0.75581145 0.016799418 0.049891684
-0.13845442 -0.039524578 1.1154786 0.098287567 0.99065173 0.094597235 0.10810862
-0.070771486 -0.18152755 1.1045561 0.71426672 0.31195599 0.62650335 0.034477483
-0.24512708 -0.19450974 1.1836632 0.2529445 0.86351168 0.4363102 0.062100075
-0.18086807 -0.32467365 1.374637 0.84241891 -0.00049999438 0.53882301 0.02145987
-0.16191606 -0.31756127 1.3427645 0.86803401 0.079015262 0.49017712 0.0076064654
-0.13512407 -0.33502832 1.2929856 0.86659628 -0.10367999 0.48812026 0.03188685
-0.12103141 -0.33117914 1.2656335 0.86767721 -0.044644792 0.49511921 0.02210658
-0.23817296 -0.12280494 1.3202176 0.92305672 -0.13752584 -0.35923946 0.19377337
-0.50267547 -0.033361655 1.1610339 -0.23161858 0.96330065 -0.13566355 0.082189232
-0.24874802 -0.13855119 1.2865456 -0.41312975 -0.48121539 0.77314657 0.19298503
-0.24322833 -0.27344361 1.4323845 0.2346236 0.21709377 0.94753468 0.055258773
-0.19760735 -0.29279026 1.3918338 0.79085648 0.12229683 0.59965789 0.0082495334
-0.15351953 -0.2450808 1.3019816 0.79171681 0.3645283 0.49020773 0.035712004
-0.14622056 -0.27598593 1.2949773 0.87812334 0.14185591 0.45692047 0.0010533611
-0.16089211 -0.33055645 1.3445934 0.87225425 -0.010679502 0.4889361 0.018336561
-0.20555124 -0.20182379 1.2978336 0.6079272 0.79245222 0.049436085 0.03674807
-0.24565087 -0.19730473 1.2363985 0.49253389 0.86889857 -0.04925039 0.048138268
-0.11507387 -0.26638648 1.2358 0.86834872 0.13567077 0.47703671 0.00069518742
-0.077671729 -0.25052518 1.1448045 0.82028234 0.35417509 0.44910675 0.022117797
-0.25199953 -0.37133765 1.4481577 -0.013591166 -0.31682867 0.94838536 0.14377178
-0.046511497 -0.30512708 1.0981278 0.94842482 0.054549366 0.3122735 0.022075849
-0.18644162 -0.34591264 1.3894082 0.8431108 -0.12911089 0.52201009 0.046583213
-0.091532484 -0.2920405 1.1996478 0.8713398 0.14148003 0.46984079 0.00054466585
-0.18710743 -0.30186337 1.3810413 0.82927638 0.13297392 0.54278779 0.0037462655
-0.33988681 -0.035616089 1.1046766 0.030771755 0.99886858 -0.036258776 0.0014872154
-0.41723239 -0.38254806 1.3784598 -0.43174905 -0.26515579 0.86213988 0.077619843
-0.21573679 -0.068546943 1.3259184 0.87177438 -0.15534937 0.46462461 0.14134897
-0.29586416 -0.26176658 1.416404 -0.3044199 0.26553646 0.91477805 0.012160665
-0.079745352 -0.12813585 1.09471 0.60125381 0.045016911 0.79778904 0.050891656
-0.22725992 -0.13534923 1.368413 0.96704811 0.11090142 0.22916979 0.10852676
-0.22814879 -0.048582286 1.3612193 0.53268415 0.73278391 0.42340925 0.15393649
-0.18094139 -0.14154007 1.1369148 0.23301347 0.3019194 0.92441845 0.043233793
-0.12338279 -0.045314737 1.1647457 -0.1765417 0.97349268 -0.14541361 0.11338925
-0.22358911 -0.18651791 1.3857775 0.74830383 0.42245191 0.51144469 0.11035869
-0.18327673 -0.22420293 1.3386931 0.77246535 0.57936245 0.26006991 0.048554122
-0.16194017 -0.32953385 1.3445899 0.87225425 -0.010679502 0.4889361 0.018336561
-0.071995661 -0.32484788 1.1739398 0.8980788 0.010065303 0.43971947 0.020989999
-0.10941731 -0.334465 1.2457137 0.88053769 -0.031605147 0.47292131 0.022233451
-0.20221777 -0.2721017 1.3973269 0.76323968 0.18768287 0.61825591 0.022424951
-0.23404685 -0.13534471 1.3881899 0.91448259 0.13072146 0.38292763 0.1146051
-0.26520628 -0.16259557 1.194641 0.78496236 0.49640146 0.37070155 0.13689516
-0.1960492 -0.25339398 1.3698549 0.82488632 0.28896543 0.4858616 0.024611039
-0.11206498 -0.27601638 1.2327349 0.86781055 0.13683201 0.47768387 0.00069328834
-0.39389271 -0.035360236 1.2359492 -0.050715528 0.99584818 0.075592704 0.004914057
-0.35920617 -0.3810024 1.396811 -0.36202198 -0.46604961 0.80730277 0.093672827
-0.24527754 -0.37912053 1.4468482 0.18748294 -0.49022061 0.85119557 0.1532376
-0.22510894 -0.28643 1.4302418 0.36469179 0.19091941 0.91134489 0.051581841
-0.1204369 -0.13205263 1.1163999 0.3876614 0.089757167 0.91742146 0.022821138
-0.11243085 -0.12431675 1.1112517 0.44988844 -0.046189286 0.89188957 0.039001346
-0.26873481 -0.17616072 1.2097906 0.55115664 0.83405244 0.024142697 0.12353477
-0.24206074 -0.19139698 1.3079201 0.67746854 0.73466784 0.036050521 0.15698786
-0.078196965 -0.33186913 1.1892111 0.89883041 -0.030582974 0.43722826 0.032768834
-0.1118464 -0.31591371 1.2463164 0.87547022 0.074132487 0.47755235 0.0068309382
-0.2037885 -0.20691423 1.3230593 0.67637217 0.73302609 0.072065949 0.052110597
-0.20931013 -0.34241083 1.42723 0.69159597 -0.042484596 0.72103399 0.078637265
-0.12669617 -0.20627488 1.1451858 0.33055964 0.54798794 0.76840061 0.029784083
-0.25556141 -0.10883497 1.2539638 -0.44655445 0.44192389 0.77800542 0.13247171
-0.0435628 -0.28201136 1.108465 0.89509684 0.15412964 0.41838461 0.0066078152
-0.16878521 -0.19290642 1.1545594 0.27631387 0.57883412 0.76720387 0.055334393
-0.24095452 -0.11164425 1.3098109 -0.80054158 0.53912157 0.26168916 0.19614632
-0.09921924 -0.21338014 1.1400301 0.46161151 0.60226339 0.65130144 0.035477497
-0.15375435 -0.066850588 1.1728187 -0.10741792 0.79423058 -0.59804606 0.16136123
-0.22781368 -0.35588446 1.4442639 0.45694456 -0.10001259 0.88385475 0.12446519
-0.061589308 -0.187481 1.0929885 0.80703044 0.25723982 0.53153503 0.039350498
-0.22982095 -0.17972371 1.1586773 0.3405987 0.69466251 0.63359016 0.063993096
-0.22578946 -0.15595889 1.3592442 0.95412457 0.21579489 0.20755444 0.13995844
-0.096318938 -0.25994381 1.2015493 0.87611073 0.18735191 0.44421762 0.0076322281
-0.056099825 -0.34915704 1.150076 0.88107389 -0.25669685 0.39725998 0.067310579
-0.12091903 -0.3600229 1.2702131 0.84879094 -0.1628826 0.50301409 0.042530928
-0.13484739 -0.30104747 1.2851349 0.88041872 0.13204159 0.45544249 0.00098415429
-0.11343228 -0.32656503 1.2511463 0.876311 0.022332365 0.48122782 0.012118895
-0.085858747 -0.31979766 1.195065 0.89024824 0.041159563 0.45361227 0.01267503
-0.060598157 -0.34103471 1.1531826 0.8959741 -0.19147263 0.40071011 0.055369046
-0.11649902 -0.33157417 1.2585697 0.87049347 -0.032713432 0.49109161 0.018914567
-0.12200914 -0.34589115 1.2726617 0.85411441 -0.11546828 0.50710511 0.033541221
-0.11879561 -0.31735808 1.2593434 0.88052142 0.064069539 0.46965644 0.0084070917
