# .PCD v0.7 - Point Cloud Data file format
VERSION 0.7
FIELDS x y z
SIZE 4 4 4
TYPE F F F
COUNT 1 1 1
WIDTH 1433
HEIGHT 1
VIEWPOINT 0 0 0 1 0 0 0
POINTS 1433
DATA ascii
-0.54744542 -0.20972291 1.063989
-0.53223097 -0.2038613 1.03126
-0.55363828 -0.32910019 1.044269
-0.49235171 -0.2104954 0.95702517
-0.43923751 -0.19771311 0.96483529
-0.51269168 -0.3021774 0.97543329
-0.52415049 -0.30176869 1.000707
-0.50340772 -0.33643639 0.93851948
-0.5084399 -0.33062401 0.9529109
-0.50616598 -0.31228071 0.95661318
-0.40754631 -0.15598419 1.0203021
-0.41402081 -0.1552441 1.002189
-0.41085121 -0.1413397 0.97556961
-0.53590369 -0.1774563 1.1606981
-0.5032438 -0.1426461 1.149404
-0.41465881 -0.1252837 0.99294251
-0.4662683 -0.20074099 0.96973699
-0.40321311 -0.12631419 1.093304
-0.53980821 -0.31228349 1.023931
-0.52005309 -0.2410026 0.99817449
-0.4971554 -0.1975752 1.017048
-0.41882369 -0.1365415 0.97770357
-0.40744859 -0.16867609 1.0227129
-0.51189792 -0.04684291 1.048275
-0.43020269 -0.1777302 1.122804
-0.49813381 -0.197809 1.120158
-0.56104672 -0.33147529 1.058509
-0.51426631 -0.1975653 1.036275
-0.58420187 -0.31267589 1.101413
-0.28206971 -0.033376459 1.022577
-0.55248088 -0.198383 1.161975
-0.58393812 -0.24298149 1.120765
-0.55777419 -0.3299728 1.050233
-0.5367161 -0.24112131 1.032374
-0.41573161 -0.19742849 1.0268101
-0.40792561 -0.156161 1.036029
-0.41382101 -0.123145 0.99302483
-0.41134039 -0.1446746 1.015156
-0.54687202 -0.3246814 1.032339
-0.55344552 -0.059344292 1.118927
-0.39402121 -0.1912417 1.080312
-0.57195401 -0.047961961 1.155484
-0.4346492 -0.1904109 1.078815
-0.49867901 -0.1679703 1.14755
-0.6049087 -0.2220943 1.160423
-0.55386519 -0.3127709 1.0507751
-0.48720771 -0.1628307 1.14441
-0.57102692 -0.20601051 1.169112
-0.4733189 -0.1312221 1.141083
-0.62637192 -0.31779829 1.2398649
-0.61944473 -0.29483899 1.178385
-0.40130579 -0.131189 1.094668
-0.53047031 -0.31734961 1.0015399
-0.61504662 -0.30454329 1.150516
-0.48478761 -0.1425862 1.144833
-0.44580451 -0.14983881 1.1334161
-0.4047164 -0.1719806 1.040361
-0.4117673 -0.1669291 1.011524
-0.54519248 -0.2071722 1.043334
-0.54295492 -0.31059521 1.029904
-0.42664301 -0.1305044 1.12455
-0.50875819 -0.32671851 0.95257592
-0.4283253 -0.12914 1.12348
-0.52326208 -0.31289911 0.98985821
-0.52831823 -0.32781321 0.9968555
-0.51290828 -0.05600895 1.046451
-0.42310479 -0.1955485 1.022835
-0.46471289 -0.19255979 1.091422
-0.53600132 -0.2389088 1.0339
-0.55164278 -0.3157852 1.043673
-0.47603619 -0.19762941 1.070994
-0.41107821 -0.1439473 1.018496
-0.52567321 -0.060817551 1.072829
-0.51977372 -0.312181 0.98054332
-0.54985291 -0.2088179 1.064088
-0.4122518 -0.1573538 1.018889
-0.4962959 -0.064993449 1.006417
-0.44407231 -0.19494881 1.083485
-0.55030102 -0.23401301 1.055905
-0.5923245 -0.32603431 1.101673
-0.50078171 -0.30044559 0.94809061
-0.4923138 -0.059558731 1.0068721
-0.4862482 -0.1976888 1.063903
-0.52302212 -0.31054321 0.9891966
-0.51726252 -0.30867761 0.97632939
-0.54108149 -0.34459779 1.014372
-0.48538819 -0.064981617 0.99751461
-0.52260298 -0.04902941 1.055709
-0.50543308 -0.051962659 1.038686
-0.47059861 -0.200442 0.94784689
-0.56623739 -0.33544379 1.059733
-0.4404262 -0.1972463 0.96605492
-0.47740671 -0.1982172 1.023978
-0.53931361 -0.2420188 1.032829
-0.51224637 -0.31889349 0.96119761
-0.49995041 -0.2166592 0.95703763
-0.51951271 -0.3188211 0.97868258
-0.54379791 -0.32959709 1.023569
-0.55122411 -0.3283655 1.03786
-0.50056797 -0.050341979 1.028989
-0.54505932 -0.31413379 1.035575
-0.54211128 -0.2390241 1.037521
-0.40723431 -0.17271329 1.021687
-0.53621101 -0.32358781 1.007039
-0.53558928 -0.31035951 1.0123219
-0.4377417 -0.1966949 1.017942
-0.51122302 -0.330282 0.95935732
-0.54289651 -0.33385229 1.019262
-0.54908597 -0.33326831 1.03093
-0.53718698 -0.30790901 1.018275
-0.56221682 -0.31266761 1.066029
-0.57197398 -0.33184329 1.076427
-0.53202581 -0.3334257 0.996346
-0.41061211 -0.032124288 0.98492062
-0.54693162 -0.3137531 1.037362
-0.56026381 -0.3166382 1.064099
-0.56547612 -0.3154507 1.07038
-0.41317469 -0.18760499 1.099615
-0.5248732 -0.35524091 0.97786379
-0.51250333 -0.30482751 0.97535461
-0.49302539 -0.2158591 0.95376909
-0.41756019 -0.18410259 1.099806
-0.4369348 -0.1888897 0.87467992
-0.44466111 -0.1191429 0.9050898
-0.46270141 -0.24171349 0.89092058
-0.40394089 -0.1732109 1.040892
-0.43498579 -0.188309 0.87647772
-0.51819187 -0.35611129 0.97046357
-0.48239771 -0.21376149 0.93241972
-0.43980971 -0.125287 0.89658457
-0.4392198 -0.093797773 0.89890838
-0.5277704 -0.29924041 0.99846202
-0.49079221 -0.060138941 1.005584
-0.50763541 -0.2003852 1.035777
-0.45896861 -0.34536159 0.86862409
-0.4333888 -0.3012155 0.83246428
-0.50778359 -0.2622647 0.96063221
-0.50534809 -0.3759197 0.93491203
-0.4148263 -0.1752705 1.010869
-0.52995378 -0.3352578 1.017009
-0.44000849 -0.1975868 0.97179341
-0.45268899 -0.202994 0.96095639
-0.50138003 -0.33577359 0.93887949
-0.50634748 -0.3241578 0.95391828
-0.54939532 -0.2118362 1.06343
-0.47422451 -0.34259129 0.87368393
-0.41105911 -0.1458766 1.014405
-0.53352028 -0.2088342 1.0366
-0.51830071 -0.24172559 0.9996298
-0.4138802 -0.1566022 1.0028729
-0.41903669 -0.13756239 0.97264838
-0.46237561 -0.047175512 0.9525519
-0.40884861 -0.1591858 1.018142
-0.4916642 -0.2014105 1.020496
-0.4382959 -0.29323131 0.83793819
-0.40733749 -0.17172401 1.023713
-0.41992691 -0.13742749 0.97782052
-0.4076491 -0.1585446 1.030038
-0.45306039 -0.057542041 0.93254769
-0.47560641 -0.2087421 0.92311049
-0.5600726 -0.2417541 1.078872
-0.45912319 -0.1942005 1.076351
-0.46327761 -0.28233069 0.89207399
-0.47704509 -0.1993608 1.026785
-0.46335801 -0.2004337 0.97491938
-0.44437721 -0.1949272 1.081161
-0.41452119 -0.1398173 0.99767327
-0.41746259 -0.1242929 0.98945642
-0.43272331 -0.2005432 1.020119
-0.4654049 -0.2037008 0.94533533
-0.53569198 -0.24188679 1.03334
-0.41127759 -0.092484877 0.87783372
-0.4353486 -0.189566 0.93788397
-0.40385589 -0.1727661 1.041299
-0.46094459 -0.19453929 1.049999
-0.57230848 -0.32095721 1.087919
-0.43314269 -0.19588999 1.0312949
-0.49171981 -0.26619971 0.92029822
-0.50776631 -0.1993978 1.025195
-0.44079009 -0.094455443 0.89604092
-0.42486379 -0.14974131 0.86249161
-0.42109939 -0.3027595 0.83500218
-0.41711491 -0.2388611 0.84220707
-0.44518849 -0.2060184 0.86788702
-0.44294149 -0.18686859 1.072427
-0.46167019 -0.2594687 0.87988949
-0.46654719 -0.26548111 0.87343782
-0.44584471 -0.28264731 0.85976052
-0.4362295 -0.19018359 1.034745
-0.43764281 -0.12678809 0.88251978
-0.4999125 -0.31884629 0.93818438
-0.44011351 -0.087978713 0.93549031
-0.45837229 -0.25169989 0.86108953
0.44853061 -0.3343038 1.071481
-0.43302089 -0.087905928 0.92657882
-0.44440669 -0.079995111 0.89501441
-0.51265448 -0.038057819 1.048146
-0.39413819 -0.02697761 0.92045522
-0.4809674 -0.1868667 1.063333
-0.4549655 -0.294283 0.85799348
-0.44978979 -0.23424371 0.86214793
-0.43080971 -0.28558639 0.84518272
-0.44761989 -0.1962257 0.92562681
-0.52538478 -0.30282921 1.0005161
-0.53420693 -0.3009381 1.017589
-0.53371638 -0.3277128 0.99934888
-0.44219229 -0.2791006 0.85672188
-0.57134682 -0.2978048 1.0474941
-0.54894418 -0.2413972 1.057767
-0.50762552 -0.3349975 0.97315508
-0.41984639 -0.2240341 0.84983528
-0.4187682 -0.19398031 1.033759
-0.57394218 -0.27799511 1.090376
-0.43793929 -0.18676659 0.87182182
-0.43753371 -0.29545629 0.84364003
-0.49685341 -0.1457351 1.147199
-0.46963379 -0.2153457 0.92620093
-0.42670119 -0.29336271 0.83767092
-0.4532595 -0.26070091 0.87748742
-0.46123731 -0.049159311 0.95905662
-0.53598261 -0.1764072 1.164741
-0.55659193 -0.20624369 1.131567
-0.51556373 -0.14528731 1.155979
-0.4376187 -0.30384699 0.83452898
-0.48435581 -0.1947127 1.08803
-0.42031479 -0.089896113 0.88060141
-0.42325449 -0.1734221 0.86480123
-0.55284882 -0.14771029 1.169113
-0.4125734 -0.28076109 0.83650309
-0.41433781 -0.2911728 0.83623058
-0.42073461 -0.133797 0.87169617
-0.44645289 -0.2066486 0.87444472
-0.2408423 -0.21324991 0.95086712
-0.2456664 -0.2645666 0.92319793
-0.3174122 -0.2639963 0.88751239
-0.1724285 -0.2036422 1.0104899
-0.40609071 -0.29515901 0.83548957
-0.50885808 -0.04997414 1.050415
-0.56167263 -0.14848 1.179733
-0.36871371 -0.053168319 0.90022659
-0.21555039 -0.35131371 0.93687588
-0.33953729 -0.2046465 0.93500161
-0.3764798 -0.3644793 0.8443135
-0.26826581 -0.34576631 0.89847523
-0.14145391 -0.1486454 1.041839
-0.14245281 -0.1362153 1.042132
-0.15686969 -0.1506498 1.043063
-0.1521439 -0.1108913 1.047017
-0.28229901 -0.26131761 0.90316522
-0.46217519 -0.34637839 0.86320812
-0.2590726 -0.2691758 0.91607022
-0.36730611 -0.35220271 0.84702933
-0.2865493 -0.3430469 0.89028531
-0.55051702 -0.1464168 1.163525
-0.48009461 -0.35636979 0.88694048
-0.48987579 -0.20408431 1.011234
-0.52541173 -0.30424601 1.002337
-0.55032003 -0.28581339 1.048633
-0.3458257 -0.2065272 0.92141229
-0.29539549 -0.052090731 0.93534958
-0.49859369 -0.2074901 0.97157669
-0.1739791 -0.14077111 1.053633
-0.60603982 -0.18348759 1.1985461
-0.36050671 -0.3137275 0.85747838
-0.20739339 -0.28845099 0.94288099
-0.51270431 -0.30365741 0.97609383
-0.2259156 -0.3302646 0.93121338
-0.25352201 -0.28085539 0.91737598
-0.3685652 -0.2421765 0.86544132
-0.1613085 -0.1564924 1.048434
-0.57815713 -0.2347623 1.11423
-0.42058811 -0.12784921 0.87357467
-0.27908099 -0.35899761 0.88895941
-0.1979679 -0.2419368 0.95719349
-0.2273263 -0.3555831 0.92242467
-0.4896614 -0.215664 0.94680488
-0.1658569 -0.063617371 1.005962
-0.2316834 -0.052540611 0.97205538
-0.39940289 -0.34552971 0.83315551
-0.36769569 -0.25234789 0.86309719
-0.31695861 -0.288638 0.88107622
-0.3361375 -0.36005339 0.85791808
-0.33518559 -0.31805089 0.86318332
-0.4326559 -0.13244949 0.87904322
-0.62229508 -0.2113554 1.214309
-0.39405799 -0.27032509 0.85227948
-0.60837853 -0.17257071 1.212877
-0.2889044 -0.2481869 0.90795243
-0.3433685 -0.32439259 0.85945982
-0.215413 -0.36172059 0.93154877
-0.59166598 -0.31058291 1.120574
-0.52708149 -0.21063299 1.0476789
-0.3150357 -0.051657949 0.9282943
-0.3539938 -0.33122239 0.8548311
-0.23212171 -0.034253981 1.223801
-0.3553108 -0.061350491 0.9070859
-0.39838931 -0.1535531 0.87140357
-0.28451681 -0.1940569 1.037495
-0.27358061 -0.25376999 0.90968078
-0.350012 -0.31854299 0.85885668
-0.176137 -0.238732 0.96979129
-0.34679449 -0.30594251 0.86448997
-0.61774129 -0.2137731 1.211777
-0.50224137 -0.20048051 1.069953
-0.65841079 -0.38545239 1.2200561
-0.26254189 -0.34779111 0.89663231
-0.29861069 -0.1972788 1.039929
-0.27058941 -0.19746821 1.035436
-0.28500831 -0.2017241 1.013203
-0.41446459 -0.2464461 0.84548271
-0.45429891 -0.2952314 0.85836542
-0.2363703 -0.0474797 0.97598863
-0.2526862 -0.27163741 0.91941851
-0.234392 -0.1718484 1.075157
-0.1852653 -0.2384935 0.96103758
-0.29080391 -0.2048897 1.004687
-0.50143081 -0.057855301 1.028598
-0.62641519 -0.1382293 1.275537
-0.30101991 -0.1532706 1.073649
-0.29726619 -0.15949529 1.072358
-0.29691851 -0.1827088 1.066185
-0.25895149 -0.19806381 1.0427279
-0.390131 -0.1144185 0.89129078
-0.5324198 -0.2101604 1.040807
-0.2430079 -0.057548542 0.96584141
-0.3333002 -0.35220051 0.86266911
-0.29216689 -0.19498131 1.067742
-0.4593401 -0.063543037 0.93653458
-0.54699123 -0.2115394 1.056034
-0.5563252 -0.36595681 1.041995
-0.29049501 -0.24650981 0.90748149
-0.2098017 -0.30137259 0.93849349
-0.51455718 -0.065962844 1.050142
-0.39094979 -0.2257743 0.85700703
-0.41566461 -0.24716941 0.84660268
-0.4054645 -0.2374389 0.85044289
-0.38013491 -0.25365809 0.85916382
-0.3606005 -0.2050388 0.90588439
-0.2152957 -0.052182861 0.98827291
-0.2582902 -0.06242713 0.95665669
-0.44697791 -0.20838 0.87166321
-0.27880281 -0.068128496 0.95040089
-0.29272351 -0.34762681 0.89090419
-0.3652178 -0.20177861 0.91286349
-0.5084492 -0.3310549 0.95295352
-0.4644402 -0.2319321 0.89758658
-0.30227569 -0.12618791 1.0736851
-0.2259209 -0.04702533 0.97957212
-0.38944349 -0.3565844 0.83498472
-0.4863551 -0.2726317 0.92510152
-0.41429639 -0.225427 0.85054642
-0.33967891 -0.24400599 0.87807888
-0.36199149 -0.32163489 0.85433197
-0.32003081 -0.2861034 0.87923902
-0.27876511 -0.3397184 0.90774769
-0.59650958 -0.26559621 1.138533
-0.31293941 -0.06400355 0.91645533
-0.1568097 -0.1351331 1.047348
-0.29346621 -0.2570703 0.9037863
-0.1548124 -0.1069902 1.042684
-0.39693561 -0.1409325 0.87196618
-0.27028319 -0.27123621 0.90643489
-0.49840569 -0.3806797 0.93861121
-0.35665649 -0.2023983 0.9090569
-0.4499642 -0.27707019 0.85780847
-0.36238569 -0.050730672 0.89326841
-0.34623331 -0.2456377 0.87643093
-0.33931771 -0.31367221 0.86396849
-0.39847299 -0.3517122 0.83284098
-0.48437029 -0.2009823 0.95353961
-0.36803669 -0.34925869 0.84481782
-0.51052588 -0.21038391 1.009275
-0.35899219 -0.064573281 0.89708191
-0.46449849 -0.2732031 0.88110149
-0.42333049 -0.1534197 0.86450338
-0.15603191 -0.3722271 0.95461619
-0.2095491 -0.31196269 0.93782532
-0.3286733 -0.194988 0.91508812
-0.4659144 -0.33288479 0.874874
-0.50648922 -0.3448014 0.94996822
-0.2259461 -0.3302128 0.93685448
-0.43379629 -0.3092103 0.8331272
-0.27345499 -0.039223861 1.045254
-0.35204309 -0.2384897 0.87446958
-0.3346253 -0.063579552 0.91713798
-0.33338869 -0.1910602 1.002753
-0.21136691 -0.068625428 0.98624891
-0.31110799 -0.22114959 0.89641458
-0.1994561 -0.25123939 0.95270813
-0.3651194 -0.039524771 0.95866472
-0.31725359 -0.027734 1.158525
-0.40431839 -0.15082809 0.86829442
-0.33209029 -0.36462721 0.86491883
-0.28683269 -0.2641232 0.90376902
-0.35432529 -0.2020601 0.91887039
-0.232291 -0.21590491 0.93296897
-0.41351691 -0.2808634 0.83625078
-0.39088669 -0.3493394 0.83908743
-0.59938902 -0.12835141 1.2126499
-0.17143241 -0.1428051 1.052976
-0.1582154 -0.37972069 0.94730711
-0.26594561 -0.19493391 1.037541
-0.55762982 -0.1997676 1.1606359
-0.39655629 -0.24671081 0.84864217
-0.35476169 -0.04947 0.9056747
-0.65946072 -0.3673802 1.228768
-0.4076497 -0.1554193 0.86888582
-0.49644101 -0.2019089 1.036373
-0.32176891 -0.062767953 0.91943347
-0.1520575 -0.13562401 1.047703
-0.2427434 -0.066440709 0.96260291
-0.2287294 -0.22435381 0.93309939
-0.34239891 -0.35527369 0.85134542
-0.21017051 -0.31546959 0.93600869
-0.2375226 -0.2001206 1.0369149
-0.4635714 -0.2037584 0.9386887
-0.48217821 -0.2066994 0.94585901
-0.2295876 -0.36545071 0.92996478
-0.2011368 -0.3001729 0.94033092
-0.47445151 -0.21276741 0.98786008
-0.25800449 -0.25829431 0.9233911
-0.460695 -0.22453751 0.8838042
-0.19486199 -0.192587 1.024591
-0.53717899 -0.27709481 1.032804
-0.2830734 -0.1384995 1.0695601
-0.2494735 -0.3127251 0.91957313
-0.36550021 -0.1224619 0.9346872
-0.37779221 -0.035956249 0.93016583
-0.30715269 -0.1408684 1.065863
-0.18834379 -0.1213391 1.060169
-0.2880342 -0.1399975 1.071741
-0.33851951 -0.27342841 0.86959761
-0.17012011 -0.1865859 1.0498821
-0.41209319 -0.2307926 0.84359848
-0.1932791 -0.1225011 1.066672
-0.43456361 -0.2050025 0.86029398
-0.1828735 -0.25151351 0.95634162
-0.3557089 -0.3188583 0.85913211
-0.4234426 -0.072350971 0.90217072
-0.3552933 -0.25682241 0.8798961
-0.31874871 -0.3726249 0.87386942
-0.1199691 -0.25381851 0.99408191
-0.25506791 -0.311575 0.91458571
-0.26415971 -0.29847091 0.90601021
-0.2488573 -0.30184001 0.91629112
-0.25872141 -0.25609171 0.91298622
-0.2475557 -0.26482609 0.92231667
-0.27914181 -0.36404979 0.88510698
-0.24200641 -0.22340269 0.92798811
-0.23439389 -0.2156793 0.93218148
-0.2252453 -0.32820129 0.9238171
-0.22826999 -0.35399741 0.91961008
-0.24305689 -0.2176577 0.93149298
-0.2242025 -0.37262681 0.92948151
-0.2213839 -0.28783339 0.93289798
-0.25820699 -0.069281451 0.95733202
-0.31469679 -0.14169431 1.0622931
-0.2456893 -0.30854601 0.91414207
-0.2807557 -0.36528951 0.8858521
-0.2812857 -0.36560959 0.88661629
-0.1703313 -0.06420289 1.0075181
-0.16419961 -0.3353757 0.96132332
-0.17702369 -0.23612539 0.96116281
-0.1659399 -0.2430657 0.97415018
-0.14679191 -0.32104319 0.96567261
-0.1570386 -0.2100548 0.97691089
-0.19438919 -0.1191902 1.039505
-0.1631735 -0.1522207 1.045059
-0.16935921 -0.2449442 0.96376401
-0.1943291 -0.1219014 1.052779
-0.1756545 -0.068549253 1.0001791
-0.2479244 -0.068288103 0.96065998
-0.24817879 -0.067696527 0.95747411
-0.30532381 -0.1261771 1.070982
-0.30316851 -0.19836549 1.040401
-0.31461069 -0.1402424 1.0588681
-0.30792919 -0.1398644 1.05571
-0.3369427 -0.24164741 0.88197261
-0.33686399 -0.2421744 0.88203472
-0.33713841 -0.2419689 0.88185197
-0.57623821 -0.040017299 1.185293
-0.1379623 -0.05058489 1.01659
-0.169962 -0.064035617 1.007413
-0.08254993 -0.092328019 1.041151
-0.1909544 -0.093946993 1.034435
0.1304325 -0.35738611 1.429414
-0.078664593 -0.12771989 1.039217
-0.22864629 -0.046632331 0.94845271
-0.37060601 -0.051224321 0.89698172
-0.29488531 -0.0506608 0.9340297
-0.35690999 -0.06040566 0.90779883
-0.31678641 -0.051718231 0.92585927
-0.31398311 -0.04995019 0.92363381
-0.29310441 -0.05210451 0.93660557
-0.21673051 -0.050187271 0.97607982
-0.32396489 -0.060932491 0.92233872
-0.245637 -0.056142379 0.96298802
-0.22876111 -0.047165342 0.97742081
-0.27723619 -0.03566109 1.016763
-0.1568291 -0.055509411 1.0070159
-0.17541049 -0.06741561 0.99563152
-0.27762309 -0.03415614 1.157743
-0.1829107 -0.066676266 0.99977171
-0.3635844 -0.050942529 0.90792489
-0.071397804 -0.28738189 1.013828
-0.047921341 -0.3213971 1.026419
-0.1088711 -0.25630519 0.99716532
-0.1079728 -0.2615554 0.99692369
-0.061810739 -0.29090279 1.001704
-0.1392768 -0.28463909 0.97429317
-0.1508256 -0.30862829 0.96756083
-0.13591459 -0.310938 0.96541339
-0.1417197 -0.28771949 0.97305733
-0.089472257 -0.2446221 1.005375
-0.21283381 -0.28795359 0.9389118
-0.28972581 -0.1962135 1.0438451
-0.2355487 -0.1724499 1.067139
-0.2155381 -0.24496961 0.94547838
-0.2240514 -0.332739 0.93474352
-0.1457092 -0.32427311 0.96422333
-0.21873569 -0.36728531 0.91974628
-0.17861301 -0.1424067 1.043609
-0.1764174 -0.140009 1.046527
-0.1556177 -0.1241937 1.042441
-0.157116 -0.1247968 1.0441329
-0.2448817 -0.057851601 0.96355152
-0.1478477 -0.1065976 1.04287
-0.15359829 -0.1086943 1.033944
-0.16890851 -0.063609973 1.0012881
-0.19391181 -0.1203984 1.047657
-0.1938393 -0.1027891 1.05014
-0.1984407 -0.1206525 1.048103
-0.1822183 -0.069351003 1.000935
-0.2448979 -0.2180092 0.93173343
-0.2482619 -0.26571241 0.92333633
-0.2708149 -0.1999048 1.043679
-0.2414293 -0.2234055 0.92873901
-0.2996709 -0.1978845 1.034393
-0.2189126 -0.053003129 0.97772563
-0.16460329 -0.2115362 0.97556138
-0.2408935 -0.200957 1.030121
-0.23633809 -0.049474001 0.96506298
-0.28858799 -0.19080579 1.072296
-0.2306118 -0.32499769 0.92520392
-0.2353629 -0.35731909 0.91648442
-0.32673031 -0.034306731 1.168817
-0.2005762 -0.105437 1.0618531
-0.2351069 -0.20180731 1.007044
-0.2891607 -0.1423416 1.0733
-0.2099601 -0.030314149 1.1761349
-0.28917569 -0.2008369 1.008451
-0.27295369 -0.19758309 1.030843
-0.2453686 -0.26458049 0.92417097
-0.15789589 -0.2116698 0.9787569
-0.26598471 -0.3016246 0.90961641
-0.280247 -0.35985529 0.89075953
-0.3038303 -0.246104 0.89847249
-0.30535379 -0.19616289 0.96714687
-0.28975219 -0.34644619 0.89098787
-0.35855901 -0.14744 0.96397388
-0.23364849 -0.054676648 0.97006482
-0.3605313 -0.035287261 1.067988
-0.3516058 -0.1351511 0.97868788
-0.1731879 -0.1056471 1.047224
-0.387243 -0.03833057 1.162481
-0.29895431 -0.03971808 0.97076702
-0.2929523 -0.054709911 0.93965602
-0.32221341 -0.061131392 0.92122072
-0.3522898 -0.1149258 0.99010187
-0.2872341 -0.26600051 0.90247381
-0.27984911 -0.3560223 0.89054048
-0.3585526 -0.2039047 0.92342049
-0.31752229 -0.26428139 0.88366753
-0.31062049 -0.18891411 1.059791
-0.14569689 -0.15152501 1.039449
-0.35555109 -0.058155499 0.90761727
-0.317462 -0.055294629 0.92952091
-0.31543091 -0.051568311 0.92752731
-0.30770549 -0.2282524 0.8984462
-0.32078031 -0.2871092 0.8801384
-0.36582229 -0.1429899 0.92955858
-0.30789921 -0.2463764 0.8965404
-0.36328429 -0.2034483 0.89676249
-0.33575901 -0.20316529 0.92830992
-0.34017101 -0.31593251 0.86432928
-0.31957209 -0.26444459 0.88401359
-0.37733781 -0.1571392 0.89450842
-0.36616191 -0.1253462 0.94444138
-0.3431761 -0.2995657 0.86087298
-0.32646611 -0.29327679 0.87315512
-0.3401258 -0.065909117 0.91422242
-0.38518569 -0.1492901 0.89110589
-0.34632859 -0.24433281 0.87151963
-0.36894959 -0.2548542 0.86537999
-0.33736131 -0.32430699 0.86774498
-0.40097561 -0.34542829 0.83252782
-0.3607415 -0.31663191 0.85427731
-0.21893629 -0.35666099 0.92095488
-0.293639 -0.24818771 0.90574223
-0.35693669 -0.124092 0.96067637
-0.29085371 -0.2103176 0.9102453
-0.338866 -0.064062521 0.91284519
-0.4150677 -0.2935431 0.83628869
-0.39325589 -0.1356065 0.88017982
-0.38779551 -0.1655284 0.87444621
-0.3543517 -0.3333979 0.85278851
-0.37076119 -0.24377351 0.8662436
-0.35386509 -0.32939121 0.85213763
-0.3930158 -0.2247899 0.85154241
-0.39470911 -0.3572332 0.8334446
-0.3931419 -0.2251872 0.85086811
-0.39784309 -0.24688549 0.84912598
-0.4076027 -0.2372271 0.84649408
-0.4024336 -0.2488751 0.84917891
-0.3580673 -0.1983503 0.89347619
-0.36153051 -0.1152055 0.95020992
-0.30266529 -0.127131 1.062606
-0.28440729 -0.19518749 1.032606
-0.29206401 -0.2003137 0.99333447
-0.2462389 -0.056775391 0.96155888
-0.4364334 -0.043290351 0.90906978
-0.3690699 -0.05292546 0.89582688
-0.41122091 -0.29726359 0.83761227
-0.357862 -0.065943614 0.89883989
-0.35966751 -0.25005791 0.86700159
-0.3284454 -0.318618 0.86440319
-0.37677571 -0.1249632 0.91624498
-0.2163537 -0.26271391 0.93809807
-0.42112371 -0.037514359 1.017581
-0.1721938 -0.03978616 1.069733
-0.34936151 -0.20757151 0.91740018
-0.42945269 -0.03611438 0.98853242
-0.4194845 -0.2292638 0.85256362
-0.2189748 -0.35668659 0.92471379
-0.2430463 -0.20197511 1.035392
-0.62104321 -0.2109177 1.210073
-0.44787559 -0.2081015 0.87190771
-0.42147431 -0.088909432 0.87748748
-0.42101541 -0.1302806 0.86886781
-0.42527631 -0.1736685 0.86370718
-0.60294169 -0.18534601 1.203038
-0.65423173 -0.38468659 1.226387
-0.65839243 -0.38562611 1.217615
-0.55553561 -0.2062992 1.1290981
-0.57602572 -0.20561831 1.1751961
-0.52329707 -0.3801783 0.95101249
-0.60874522 -0.17217989 1.210812
-0.47087011 -0.2133245 0.92501283
-0.52608758 -0.2106337 1.043669
-0.54597628 -0.14834671 1.159747
-0.53566438 -0.17674869 1.163129
-0.42096621 -0.1553416 0.86813128
-0.48324591 -0.203977 1.022384
-0.44185451 -0.2960009 0.8428219
-0.45965081 -0.053704549 0.95457679
-0.61512947 -0.2121539 1.208037
-0.41325521 -0.29151461 0.83410472
-0.4922767 -0.34975779 0.91239959
-0.43811619 -0.30382359 0.83227372
-0.46288311 -0.050280191 0.96064663
-0.43989161 -0.1891551 0.87449002
-0.55320251 -0.1481989 1.167172
-0.54654169 -0.098907366 1.172897
-0.41239139 -0.28279731 0.83907223
-0.4382084 -0.13081761 0.87402231
-0.4825477 -0.2000837 1.05316
-0.46546459 -0.34391469 0.85816067
-0.4675023 -0.33196631 0.87357628
-0.57017428 -0.2816053 1.0944099
-0.65105432 -0.35312489 1.225656
-0.51396048 -0.19534419 1.120522
-0.58652699 -0.3195748 1.113287
-0.51397562 -0.3040702 0.97573352
-0.4982655 -0.1476016 1.150378
-0.4856368 -0.1544355 1.147649
-0.51437682 -0.30375031 0.97433978
-0.49222001 -0.34527531 0.91193962
-0.54902577 -0.05949543 1.1308
-0.43725419 -0.1719587 1.122524
-0.4583784 -0.2018732 1.065612
-0.48902789 -0.2116973 0.92211199
-0.52708411 -0.35360119 0.97656453
-0.5590089 -0.2026713 1.066475
-0.58226597 -0.3102262 1.105473
-0.51193428 -0.19357321 1.045347
-0.36534709 -0.19915061 0.89194572
-0.51391947 -0.067761026 1.049587
-0.57054842 -0.079207003 1.181959
-0.51037967 -0.1963903 1.0377589
-0.54619539 -0.2939088 1.063316
-0.4892292 -0.1366183 1.145898
-0.60586721 -0.2248147 1.1667531
-0.4642767 -0.30129191 0.89734358
-0.50953442 -0.051241271 1.060412
-0.4948653 -0.21590631 0.96052611
-0.5601356 -0.1477477 1.173926
-0.50411427 -0.38243589 0.94780242
-0.53080952 -0.2111748 1.043103
-0.42080781 -0.0334782 1.264194
-0.36785999 -0.03209627 1.076598
-0.64512068 -0.3843807 1.227666
-0.2379089 -0.03230653 1.20634
-0.58708858 -0.31568411 1.130888
-0.60182267 -0.16229659 1.208938
-0.43063459 -0.1776996 1.127241
-0.43853861 -0.1985309 0.96962929
-0.4556613 -0.28756049 0.86620098
-0.50954068 -0.2029413 1.129264
-0.48093951 -0.28907859 0.93638408
-0.36871359 -0.03473777 1.2592109
-0.45471749 -0.058233831 0.92275989
-0.48306921 -0.1975558 1.090801
-0.44524071 -0.21079271 0.87532908
-0.4560616 -0.1558208 1.14511
-0.44168699 -0.20423619 1.0148931
-0.57722342 -0.2349752 1.112401
-0.51599902 -0.26176259 0.95652407
-0.4422355 -0.03791251 1.0863
-0.47684789 -0.20891009 1.028133
-0.42058811 -0.200424 1.0285619
-0.61817878 -0.30183399 1.19302
-0.55559212 -0.20683929 1.083534
-0.60446018 -0.23127639 1.170994
-0.54580557 -0.28849939 1.049835
-0.65777338 -0.37479469 1.248894
-0.58495623 -0.081127457 1.184426
-0.52507389 -0.30449989 1.005522
-0.45723411 -0.20280769 0.98129147
-0.40785429 -0.043954019 0.9830724
-0.4776246 -0.1982363 1.044651
-0.45548651 -0.03679556 1.104305
-0.44573611 -0.1211436 0.90385431
-0.5481022 -0.2117496 1.0485981
-0.41199869 -0.1531437 0.86476678
-0.4425827 -0.1235911 0.89581537
-0.49851641 -0.20537131 0.97044671
-0.57046378 -0.050910961 1.16159
-0.60469949 -0.18169831 1.187912
-0.62993258 -0.26119339 1.191233
-0.61085922 -0.2402474 1.164902
-0.64061928 -0.27489379 1.194016
-0.54099017 -0.09683229 1.154389
-0.46808681 -0.3390719 0.85865527
-0.44022709 -0.094806463 0.90020448
-0.54333937 -0.065951452 1.139695
-0.4499006 -0.042949442 1.0452501
-0.50282252 -0.3179085 0.93864572
-0.42266071 -0.032511398 1.214725
-0.50008649 -0.31766751 0.94755042
-0.4092721 -0.1957134 1.0999939
-0.47420409 -0.34639031 0.87758499
-0.43349361 -0.13178471 1.124788
-0.4995304 -0.053268511 1.0329961
-0.43366539 -0.3121531 0.83633119
-0.57046932 -0.05407818 1.112856
-0.59841633 -0.1284624 1.220816
-0.63962579 -0.2170133 1.227505
-0.37397361 -0.1245761 1.093987
-0.41949919 -0.044928581 1.1569541
-0.48629501 -0.2239648 0.96825588
-0.4968453 -0.33976671 0.8739894
-0.4725517 -0.061971381 0.93144721
-0.45825231 -0.034039121 0.93738681
-0.48516181 -0.34969369 0.87719369
-0.43002251 -0.037655611 0.90236181
-0.40824661 -0.17946211 1.092784
-0.42368349 -0.1316099 0.98566222
-0.54818249 -0.32254589 1.031777
-0.41875771 -0.14811949 0.99884468
-0.43731871 -0.1664035 0.86793751
-0.4331229 -0.2041841 1.078509
-0.51596987 -0.3608807 0.97819608
-0.45437619 -0.28362301 0.85197121
-0.52057689 -0.37572011 0.93749338
-0.45406601 -0.2037863 0.96553242
-0.46514079 -0.2472178 0.88430542
-0.44698921 -0.1507906 1.1377439
-0.4062354 -0.1277234 1.093735
-0.49302071 -0.36782971 0.89939368
-0.44760939 -0.2449688 0.87308961
-0.50788391 -0.33273 0.95679301
-0.43682599 -0.095533423 0.93867099
-0.4712888 -0.070253886 1.023252
-0.46180809 -0.2383628 0.87250757
-0.41958681 -0.18599249 1.0966949
-0.43456891 -0.1714783 0.98349231
-0.4367151 -0.131207 1.12474
-0.4595204 -0.24743959 0.90192848
-0.48550859 -0.2009376 1.0710731
-0.3606638 -0.32111239 0.85158992
-0.3393048 -0.32294011 0.85616469
-0.3645263 -0.25102249 0.85979122
-0.35897779 -0.31437641 0.85250998
-0.33409059 -0.31810871 0.85972369
-0.3357279 -0.3129327 0.85993969
-0.3449015 -0.3046909 0.86107773
-0.34503999 -0.24497931 0.8716988
-0.2339485 -0.17015301 1.06194
-0.2859112 -0.188511 1.0434819
-0.290618 -0.34556329 0.885535
-0.35197419 -0.33024451 0.85038638
-0.2863594 -0.26537171 0.90211803
-0.40012261 -0.1502087 0.8638429
-0.3010473 -0.2443818 0.89498621
-0.22724199 -0.35310781 0.91695899
-0.39357281 -0.34753871 0.83501732
-0.2465685 -0.26501849 0.92009741
-0.3970696 -0.14105821 0.86751658
-0.22525831 -0.3283619 0.92362732
-0.2149649 -0.050944511 0.97566062
-0.27725869 -0.35792181 0.8864978
-0.25304961 -0.27135089 0.91561627
-0.2324235 -0.2161925 0.92997831
-0.2394722 -0.22358911 0.92540097
-0.30472621 -0.24454729 0.89207512
-0.2845996 -0.3420327 0.88654637
-0.26861659 -0.19982439 1.034984
-0.36561081 -0.31424731 0.8501879
-0.2779873 -0.3554942 0.88878441
-0.26391849 -0.3483867 0.89615989
-0.26782361 -0.34577939 0.89637512
-0.21086919 -0.3014909 0.93239558
-0.2413315 -0.21662819 0.92784733
-0.31220561 -0.05124044 0.92345679
-0.2072233 -0.2428478 0.9456358
-0.2273289 -0.32446599 0.9215433
-0.29214859 -0.1770208 1.0541691
-0.23192181 -0.354451 0.91406387
-0.3158263 -0.26238161 0.87944818
-0.1981743 -0.2405387 0.94696939
-0.36658761 -0.26166651 0.85624993
-0.25158671 -0.30945891 0.90872908
-0.20263299 -0.2506558 0.94365603
-0.2164259 -0.363527 0.91559041
-0.3774991 -0.25107759 0.85363209
-0.1946013 -0.102192 1.05257
-0.2130184 -0.2442771 0.94362807
-0.2322408 -0.2234441 0.92907888
-0.38020611 -0.1454968 0.88797998
-0.2102173 -0.28610989 0.93435693
-0.2131083 -0.3131322 0.93034732
-0.21600039 -0.35494211 0.92037529
-0.36379221 -0.14442541 0.92801768
-0.1468053 -0.153809 1.032382
-0.17624301 -0.1441468 1.043136
-0.28984979 -0.2456314 0.90041578
-0.2754758 -0.33429009 0.89490491
-0.20295639 -0.29996529 0.93625587
-0.41464981 -0.2311805 0.8421483
-0.3783325 -0.36357811 0.83893907
-0.39061421 -0.2240434 0.8503291
-0.32289219 -0.36453629 0.86183733
-0.2465031 -0.301395 0.91261458
-0.1343658 -0.2558212 0.98045337
-0.1347314 -0.3123934 0.96825689
-0.1955125 -0.2374244 0.94750428
-0.1375705 -0.30215359 0.96383941
-0.1785529 -0.23865411 0.95669091
-0.35322541 -0.1273845 0.95467877
-0.17478921 -0.29596981 0.94777077
-0.172546 -0.29209039 0.9506532
-0.33332881 -0.26993439 0.86033058
-0.2973626 -0.15646011 1.059965
-0.2211975 -0.34380129 0.92070222
-0.2547332 -0.30511969 0.907915
-0.3544915 -0.1484305 0.95397788
-0.1525189 -0.293349 0.9608587
-0.33301449 -0.2401797 0.8767606
-0.35024759 -0.1150127 0.98486018
-0.36358649 -0.124812 0.94165027
-0.1685313 -0.36424011 0.93298
-0.25662291 -0.2692228 0.91277277
-0.35591471 -0.31095821 0.85238218
-0.12500399 -0.35814339 0.96038008
-0.17505489 -0.23592611 0.95837897
-0.1438071 -0.1056274 1.0314111
-0.14196371 -0.1350307 1.0283639
-0.141009 -0.14734019 1.028476
-0.15210509 -0.1094735 1.027233
-0.1495983 -0.1440303 1.0302939
-0.1420151 -0.2102896 0.97552729
-0.1710811 -0.1046097 1.041311
-0.16754159 -0.054815441 0.99732918
-0.17645 -0.067174837 0.98930669
-0.1718926 -0.2018667 1.0008661
-0.16543899 -0.3409397 0.94675457
-0.17071439 -0.09982492 1.0394911
-0.1620031 -0.23371109 0.9623729
-0.19646899 -0.1215472 1.047722
-0.25647399 -0.068326011 0.95272338
-0.3074263 -0.14068151 1.054906
-0.3080979 -0.18712039 1.056088
-0.24949969 -0.05574679 0.96206492
-0.2842336 -0.1400536 1.0641119
-0.30961981 -0.1406188 1.053879
-0.33989349 -0.1091161 0.99159992
-0.34450021 -0.13312849 0.96933317
-0.35687631 -0.1131343 0.96076667
-0.32548791 -0.29275051 0.87229681
-0.37033981 -0.1200417 0.92040688
-0.35686451 -0.1077383 0.96443689
-0.37233591 -0.1246071 0.94414443
-0.3999916 -0.233467 0.83935452
-0.1427176 -0.31555349 0.95707482
-0.32305899 -0.053370491 0.91814297
-0.15015049 -0.1231604 1.035349
-0.1383031 -0.28491041 0.96635509
-0.1583277 -0.15309291 1.0289381
-0.14635371 -0.22035921 0.96862233
-0.1438297 -0.32133439 0.95977151
-0.14582729 -0.30387849 0.95624697
-0.15972739 -0.2094613 0.96648252
-0.30093691 -0.1254849 1.062175
-0.30401611 -0.2190941 0.89117157
-0.38411441 -0.13631169 0.87431628
-0.39478391 -0.071593083 0.86300462
-0.38803539 -0.2243381 0.84721333
-0.3948296 -0.1653579 0.88002348
-0.1430447 -0.2223132 0.97684801
-0.1223731 -0.25018319 0.97951359
-0.1655612 -0.2321586 0.95682818
-0.1245394 -0.2479188 0.97329801
-0.21226449 -0.2510694 0.94370198
-0.1645942 -0.2420959 0.9686169
-0.2189737 -0.2295198 0.93718702
-0.26059851 -0.25306329 0.91438758
-0.1655212 -0.2429979 0.95682722
-0.2595391 -0.29689649 0.90069139
-0.28809801 -0.053960789 0.93213439
-0.38615701 -0.1497113 0.90074742
-0.39593729 -0.1580563 0.86210579
-0.4042834 -0.154658 0.85834068
-0.3725464 -0.1508621 0.93578708
-0.37006071 -0.14024679 0.9005006
-0.34530249 -0.30742341 0.86294872
-0.1857103 -0.23632351 0.94914871
-0.1461831 -0.2136218 0.9691695
-0.1428528 -0.3664901 0.94395691
-0.1611997 -0.13981681 1.038723
-0.2436582 -0.056954831 0.96067429
-0.35446951 -0.1160796 0.99951679
-0.35244429 -0.3534357 0.84739
-0.23729511 -0.1752018 1.064104
-0.21748459 -0.2204608 0.93486792
-0.15602569 -0.2102509 0.97427022
-0.3882443 -0.19961651 0.86577141
-0.1743511 -0.068085536 0.99656218
-0.1398164 -0.1059721 1.032689
-0.37812391 -0.14006139 0.89006168
-0.2972337 -0.066413902 0.91433382
-0.32735291 -0.1143414 0.98705959
-0.36292449 -0.1116748 0.89625412
-0.3150571 -0.28366989 0.87350792
-0.3776578 -0.13238449 0.89038098
-0.3514685 -0.051377941 0.89613962
-0.2017972 -0.28585359 0.94092143
-0.35667601 -0.304481 0.8544597
-0.35682619 -0.30449209 0.85437018
-0.35359111 -0.3538233 0.84775889
-0.2198544 -0.36724949 0.92078412
-0.2036698 -0.2508944 0.94496852
-0.1348616 -0.25637099 0.98231208
-0.2019953 -0.28601071 0.94086868
-0.2923604 -0.05284556 0.93622679
-0.1602601 -0.1357462 1.038151
-0.29109231 -0.1922632 1.038101
-0.2333809 -0.1698166 1.067396
-0.30235589 -0.1218924 1.064587
-0.2997919 -0.1589261 1.061291
-0.1576013 -0.1086461 1.037909
-0.2451621 -0.065276958 0.95625162
-0.2469659 -0.06669578 0.95525992
-0.1427411 -0.1464676 1.031148
-0.1766804 -0.1422741 1.0428751
-0.26415971 -0.19557659 1.024183
-0.1681992 -0.062952012 1.001415
-0.2347739 -0.2234336 0.92995828
-0.2136223 -0.2443136 0.94548458
-0.2109663 -0.28577831 0.93503553
-0.1503454 -0.2208619 0.97433299
-0.16014481 -0.37216139 0.95143759
-0.1638038 -0.23312449 0.96513557
-0.25781101 -0.27156779 0.91876292
-0.2145831 -0.31384519 0.93275547
-0.1247327 -0.25010169 0.98294008
-0.16456041 -0.33556011 0.95395052
-0.2180026 -0.35585889 0.92311299
-0.14003161 -0.2861169 0.97046012
-0.25421849 -0.2724385 0.91823262
-0.1491522 -0.30555579 0.96111113
-0.2422304 -0.22352 0.92647338
-0.1246896 -0.36007091 0.96813202
-0.13849241 -0.28366131 0.97231352
-0.2351577 -0.2157394 0.93048543
-0.1351483 -0.31510419 0.97376442
-0.20743871 -0.2424024 0.94807881
-0.1701985 -0.2331766 0.96307158
-0.2300653 -0.32564139 0.92400539
-0.1266422 -0.35931721 0.96355098
-0.2124048 -0.2506679 0.94586092
-0.1446797 -0.22342031 0.98158407
-0.15036421 -0.2155976 0.97672611
-0.089080058 -0.2434787 1.002382
-0.063626297 -0.28490999 1.00477
-0.19744711 -0.2366174 0.94904822
-0.1077637 -0.25892329 0.99464208
-0.2047274 -0.30059519 0.93787891
-0.23401821 -0.3557035 0.9162631
-0.1646217 -0.2421695 0.97087979
-0.1393242 -0.30343989 0.96768367
-0.1771351 -0.2361766 0.961384
-0.1807909 -0.2400606 0.96145338
-0.14481761 -0.32170999 0.96102059
-0.2125649 -0.3008455 0.93388629
-0.2287253 -0.35412371 0.91885722
-0.1081212 -0.25659561 0.99776572
-0.1981765 -0.23963501 0.94671839
-0.2482987 -0.26543489 0.92192841
-0.2230691 -0.2321478 0.94457722
-0.2483094 -0.2439068 0.8920331
-0.22080401 -0.2206822 0.93849587
-0.14639769 -0.3186321 0.96366823
-0.2460801 -0.26559019 0.92483139
-0.1468147 -0.2134539 0.98761499
-0.2412682 -0.2155218 0.92680401
-0.1058677 -0.3155143 0.9811852
-0.1709217 -0.2463924 0.96735841
-0.1772877 -0.29772809 0.95230758
-0.29396549 -0.050733268 0.932962
-0.35480559 -0.058229011 0.90747982
-0.35774139 -0.1494333 0.9599306
-0.37193921 -0.1225208 0.92855531
-0.4481912 -0.20616829 0.86868632
-0.30095419 -0.1977907 1.041312
-0.422355 -0.1727352 0.86155558
-0.61401153 -0.20715301 1.229956
-0.65091628 -0.37556791 1.197773
-0.58806127 -0.206616 1.148736
-0.60734957 -0.18240499 1.19196
-0.59794289 -0.26720861 1.134148
-0.36895651 -0.079485908 0.89738709
-0.33905879 -0.064425662 0.91628289
-0.28645641 -0.1984455 1.041171
-0.51792389 -0.1935827 1.059512
-0.64166361 -0.37185851 1.179518
-0.4638471 -0.1970603 0.92046839
-0.53913128 -0.191183 1.080297
-0.57337707 -0.27458531 1.079908
-0.44146979 -0.189932 0.87072718
-0.4776822 -0.065126933 0.9748919
-0.36618009 -0.05123359 0.88996458
-0.61202592 -0.214351 1.199685
-0.4740262 -0.2087895 0.91935861
-0.59840733 -0.27070579 1.13872
-0.29682791 -0.19664159 1.0728199
-0.53050983 -0.3751643 0.97329378
-0.58648932 -0.041200042 1.213449
-0.4901669 -0.1951196 0.94864732
-0.30529961 -0.22507881 0.89097393
-0.35929671 -0.31377679 0.84997058
-0.36232871 -0.2424238 0.84339648
-0.31795791 -0.28127709 0.87271291
-0.34827241 -0.2489704 0.87936741
-0.33138251 -0.30781251 0.84150541
-0.39996889 -0.34221411 0.82775807
-0.30902031 -0.24925891 0.90365863
-0.2937142 -0.3521049 0.89406061
-0.3038902 -0.2439981 0.89660603
-0.34849581 -0.31531799 0.85105348
-0.2877329 -0.34247971 0.88571209
-0.34372541 -0.30104011 0.85678202
-0.2674101 -0.34527051 0.89370769
-0.31752241 -0.26568839 0.88573718
-0.35145321 -0.32579121 0.84119469
-0.49194899 -0.36231521 0.90872931
-0.50550568 -0.38390759 0.91404909
-0.43517569 -0.28601921 0.82461131
-0.40820709 -0.29485279 0.8340894
-0.4115456 -0.28810099 0.82691038
-0.43602791 -0.3009358 0.82620013
-0.43861669 -0.3040089 0.8226096
-0.4907316 -0.3411648 0.89944363
-0.45704651 -0.29334351 0.85522968
-0.42722669 -0.29519269 0.8351773
-0.41610849 -0.24714831 0.84736562
-0.3645983 -0.34206119 0.82912779
-0.3920801 -0.35094759 0.82448059
-0.3928791 -0.2261135 0.85413671
-0.37894291 -0.36509451 0.84098989
-0.31764069 -0.2260291 0.9045313
-0.30032539 -0.14977109 1.058954
-0.34104171 -0.27075791 0.86425412
-0.41402969 -0.22007351 0.83778417
-0.36972341 -0.31975871 0.85765457
-0.44220269 -0.2894285 0.86402798
-0.427755 -0.2132073 0.83846051
-0.47258249 -0.29755071 0.88159603
-0.42753229 -0.2899251 0.8307274
-0.3867135 -0.13873009 0.82953662
-0.41208291 -0.14594939 0.85886049
-0.54835099 -0.2098016 1.050669
-0.59157592 -0.3092365 1.1141551
-0.38978589 -0.1489311 0.87305522
-0.51799262 -0.26777971 0.97850931
-0.3637349 -0.034235269 0.90027678
-0.3017188 -0.1286726 1.063192
-0.60750729 -0.3131339 1.12008
-0.42956451 -0.078639053 0.90868312
-0.42831221 -0.1910715 0.85004532
-0.3804594 -0.38026369 0.85044992
-0.5489943 -0.26395041 1.04652
-0.35702571 -0.30466631 0.85412079
-0.51236528 -0.065911859 1.0440969
-0.55732882 -0.1457544 1.163955
-0.54550183 -0.096088529 1.159471
-0.49749431 -0.14679711 1.1506079
-0.57135367 -0.049562812 1.159762
-0.54679573 -0.063470528 1.11824
-0.56030083 -0.1965773 1.133762
-0.44049019 -0.1697761 1.126739
-0.51647788 -0.1998758 1.117617
-0.49019691 -0.13764711 1.1425281
-0.43146789 -0.1758101 1.1221679
-0.55919743 -0.14665391 1.167995
-0.54215682 -0.1738236 1.156878
-0.4790338 -0.1695113 1.136187
-0.59913999 -0.1901488 1.152794
-0.60458332 -0.1916403 1.1835459
-0.576581 -0.20108999 1.162053
-0.4372305 -0.13180991 1.126129
-0.5167343 -0.1411517 1.157138
-0.5065906 -0.19444031 1.116518
-0.59008998 -0.075264439 1.165378
-0.57501709 -0.2083617 1.153414
-0.58550388 -0.060060829 1.21794
-0.62645352 -0.2401171 1.217243
-0.63814908 -0.2436284 1.2201509
-0.58355403 -0.081602126 1.174229
-0.36058599 -0.036616001 1.159446
-0.57622337 -0.040474679 1.219967
-0.60691619 -0.1854627 1.200806
-0.47545981 -0.1540826 1.127535
-0.61707151 -0.2138114 1.186854
-0.4595435 -0.1461035 1.126263
-0.48246881 -0.1605771 1.13811
-0.62372053 -0.217143 1.211603
-0.50777632 -0.1998363 1.128211
-0.46757159 -0.1924513 1.133903
-0.56866157 -0.1442 1.172884
-0.59079129 -0.07232143 1.217684
-0.48805201 -0.16679411 1.145406
-0.6159538 -0.2178769 1.183724
-0.50051492 -0.045876611 1.025124
-0.4715164 -0.1317087 1.141313
-0.55882198 -0.06069769 1.1388071
-0.46269229 -0.049480241 0.95124471
-0.47299799 -0.04659446 0.95575398
-0.49289709 -0.2161026 0.95179939
-0.48447081 -0.21628579 0.93484408
-0.4158558 -0.089841157 0.87742013
-0.4027012 -0.1761039 1.042901
-0.43962821 -0.1241723 0.8958233
-0.50381792 -0.37666431 0.93469822
-0.44433331 -0.097223014 0.90051383
-0.54045898 -0.21162421 1.043207
-0.43478659 -0.1896022 0.93838948
-0.43588519 -0.1900239 0.87433702
-0.4840903 -0.3538053 0.89242512
-0.4956837 -0.2124086 0.95560759
-0.44636649 -0.19671071 0.96683031
-0.40803269 -0.16004591 1.01921
-0.51718521 -0.37603369 0.91380042
-0.43747309 -0.18814971 0.87478191
-0.4811559 -0.19913781 1.0923049
-0.52543992 -0.3613345 0.98011881
-0.49890521 -0.32138169 0.94027072
-0.43520889 -0.094566181 0.93962657
-0.4805381 -0.2054804 0.95662087
-0.43952349 -0.089763299 0.93788868
-0.4376584 -0.29540879 0.83840948
-0.43895531 -0.122835 0.91157711
-0.49330759 -0.20682929 0.97065687
-0.42603469 -0.19679929 1.0168639
-0.44151881 -0.123753 0.90475261
-0.41372529 -0.1376864 1.002058
-0.5285145 -0.2091022 1.039929
-0.50739491 -0.3071883 0.9811486
-0.48895049 -0.1977721 1.0045789
-0.41716051 -0.136802 0.96506029
-0.45392209 -0.28649709 0.86355269
-0.48704481 -0.33824721 0.91190428
-0.47987911 -0.2043473 1.017967
-0.4156515 -0.1388222 0.97730643
-0.5693987 -0.2798475 1.090147
-0.63523757 -0.26961899 1.212247
-0.54887569 -0.21172281 1.058604
-0.6084699 -0.2419776 1.165772
-0.62754542 -0.26349789 1.1933711
-0.63185853 -0.3336308 1.190973
-0.58792198 -0.27097121 1.091401
-0.57131171 -0.276557 1.079541
-0.63826972 -0.32456619 1.1860501
-0.62845212 -0.2681739 1.1927789
-0.55163223 -0.32201901 1.033084
-0.55765718 -0.206615 1.077695
-0.58116388 -0.34280011 1.080326
-0.58029872 -0.31524941 1.08604
-0.63443732 -0.2901248 1.217923
-0.54968661 -0.33211291 1.038313
-0.63301152 -0.2895177 1.172783
-0.5541743 -0.33117819 1.044636
-0.64571738 -0.33854139 1.2247469
-0.5617854 -0.33188221 1.0581599
-0.55728692 -0.33174971 1.052014
-0.58224559 -0.32166091 1.099695
-0.62082738 -0.2945089 1.178726
-0.58708578 -0.3234742 1.092329
-0.42500931 -0.1066944 1.018185
-0.41655219 -0.1800313 1.00836
-0.52287102 -0.26309231 0.96603072
-0.51834679 -0.2051978 1.023156
-0.55585271 -0.23002981 1.1214221
-0.5636431 -0.32595429 1.073712
-0.4048053 -0.1803447 1.094106
-0.55733812 -0.31560671 1.058149
-0.41499269 -0.1595358 1.002481
-0.48222211 -0.2047527 0.91619289
-0.5465734 -0.31633779 1.038048
-0.5221436 -0.30565071 1.003462
-0.54731578 -0.2431989 1.0597529
-0.47694391 -0.3574076 0.88650501
-0.55131829 -0.31863019 1.044585
-0.53590828 -0.2435874 1.034206
-0.53361988 -0.2080843 1.0344729
-0.48888871 -0.3706322 0.90118688
-0.41461781 -0.1464705 1.017198
-0.4468365 -0.2080842 0.86945158
-0.47544369 -0.2077655 0.91979921
-0.54121882 -0.16396829 1.15722
-0.41193819 -0.117466 0.99502373
-0.44890699 -0.28637871 0.85476589
-0.46638799 -0.19997419 0.97236061
-0.40223721 -0.1365564 1.095162
-0.54337662 -0.33075321 1.025353
-0.5027861 -0.337253 0.93791878
-0.57323372 -0.2406933 1.124558
-0.1005663 -0.043030601 1.046616
-0.4329538 -0.30452219 0.8341217
-0.57917029 -0.2298176 1.096339
-0.4938893 -0.1993261 1.019678
-0.40452409 -0.1751835 1.022532
-0.45935041 -0.24440929 0.89370781
-0.51000822 -0.32089439 0.96172321
-0.4690758 -0.35025629 0.87787348
-0.52226311 -0.3441855 0.97283179
-0.40388289 -0.1610465 1.036063
-0.3241291 -0.039867859 1.131932
-0.51521719 -0.36001289 0.96902949
-0.35180819 -0.042004559 1.016319
-0.58254361 -0.2423317 1.120214
-0.46309891 -0.1990032 1.107499
-0.5491972 -0.20596071 1.170324
-0.52598679 -0.3308101 0.98962277
-0.39877319 -0.1307109 1.098336
-0.59353751 -0.3736406 1.101981
-0.4202148 -0.1896749 1.009976
-0.464351 -0.2360557 0.88174438
-0.5996331 -0.38082919 1.132529
-0.51380169 -0.38181171 0.94405311
-0.46074501 -0.2493436 0.88637221
-0.39714471 -0.2119458 0.85857087
-0.53841031 -0.33036229 1.0116431
-0.45617831 -0.2412551 0.87592739
-0.41301939 -0.1900951 1.103458
-0.41645101 -0.18463311 1.108511
-0.43073449 -0.1094441 0.94326448
-0.5070321 -0.26748279 0.96427852
-0.58310479 -0.1163443 1.1976089
-0.62775558 -0.37114629 1.15476
-0.60868651 -0.3097592 1.152698
-0.5138014 -0.3164646 0.96494639
-0.56181413 -0.21978369 1.091231
-0.52323598 -0.33135059 0.99092042
-0.62198353 -0.31455019 1.163234
-0.44519839 -0.06578289 0.91972911
-0.46217781 -0.1980899 1.052798
-0.57334358 -0.050360709 1.159523
-0.55144471 -0.1493285 1.166854
-0.43474069 -0.1881161 0.87324041
-0.49489471 -0.2128288 0.94900948
-0.43648979 -0.200919 0.96797723
-0.54117352 -0.1754434 1.158828
-0.50024009 -0.1975484 1.11817
-0.48170221 -0.2019785 1.007653
-0.55567712 -0.2003749 1.131039
-0.4150584 -0.2009072 1.024377
-0.43261269 -0.31086311 0.83598417
-0.51707572 -0.04949129 1.05545
-0.52432811 -0.36015281 0.98040152
-0.51117349 -0.30463311 0.97618508
-0.4317733 -0.17505661 1.124591
-0.49531829 -0.14820769 1.152831
-0.54717863 -0.2121089 1.084728
-0.50902402 -0.1440617 1.159976
-0.55451512 -0.094084278 1.1619689
-0.52486932 -0.21067619 1.034575
-0.43346441 -0.1336273 1.126672
-0.49967489 -0.31838191 0.93968362
-0.4328891 -0.1738925 1.126762
-0.51695931 -0.3570765 0.96776062
-0.55610353 -0.05709805 1.123471
-0.51033241 -0.066721469 1.045274
-0.47736421 -0.2062704 0.95793319
-0.53492242 -0.209273 1.0349081
-0.44299519 -0.1202262 0.91595697
-0.46921089 -0.35026249 0.87607181
-0.4591682 -0.204739 0.97521693
-0.4448719 -0.2085299 0.86773151
-0.55055088 -0.2424947 1.057465
-0.53977978 -0.2128966 1.044436
-0.55692512 -0.20901559 1.060359
-0.51101309 -0.20164651 1.121925
-0.4355233 -0.12915321 0.88465142
-0.45764819 -0.23974781 0.88328427
-0.4494234 -0.14979731 1.129747
-0.4730269 -0.1610503 1.138942
-0.4734998 -0.16861451 1.1378
-0.4140467 -0.1893961 1.1034991
-0.58259791 -0.074533753 1.170622
-0.4343541 -0.091542207 0.9427191
-0.43891639 -0.1221214 0.89498311
-0.56036639 -0.06017001 1.138432
-0.47716209 -0.35993239 0.89368927
-0.57344627 -0.27853799 1.091964
-0.54664677 -0.32697061 1.031638
-0.40329769 -0.1746053 1.042854
-0.41540059 -0.1598905 0.99994212
-0.4081215 -0.1470073 1.020692
-0.4290975 -0.1341261 1.128898
-0.41542491 -0.1833026 1.109169
-0.55637938 -0.20108999 1.16167
-0.4242529 -0.13925581 0.98064029
-0.4343144 -0.1873735 0.87448353
-0.4315798 -0.093802392 0.9452225
-0.57635891 -0.27881771 1.093195
-0.41716379 -0.14283749 0.99628103
-0.62934852 -0.29427549 1.174299
-0.40949929 -0.1608889 1.022324
-0.54978359 -0.3323842 1.0382791
-0.57553881 -0.31984231 1.086004
-0.51518542 -0.38274431 0.94396538
-0.46687901 -0.19406641 1.1344759
-0.64656973 -0.34089819 1.2268341
-0.4385058 -0.1217942 0.91039228
-0.42719439 -0.13924091 0.96796161
-0.63251662 -0.33485001 1.188329
-0.41978431 -0.1776738 1.005314
-0.4399974 -0.19618361 1.063309
-0.53710079 -0.2420758 1.034194
-0.4023039 -0.15194841 1.036908
-0.46600059 -0.24944641 0.89167172
-0.40318111 -0.1599084 1.036695
-0.54649872 -0.3173252 1.037734
-0.56135148 -0.3328881 1.058226
-0.52678972 -0.32828131 0.98717678
-0.4286471 -0.1933831 1.0847631
-0.59860277 -0.1050856 1.220091
-0.46204859 -0.1570363 1.13162
-0.59667611 -0.3246761 1.117474
-0.47356251 -0.2029205 0.92493749
-0.4791964 -0.2059442 0.91690028
-0.4114219 -0.17377999 1.024809
-0.50248438 -0.33587271 0.93769169
-0.55818689 -0.31689829 1.057869
-0.58446032 -0.2351388 1.116663
-0.56030208 -0.3311567 1.050997
-0.52709728 -0.33129659 0.98887438
-0.58240902 -0.2434959 1.120559
-0.59975219 -0.36827859 1.107192
-0.60851151 -0.37084711 1.131961
-0.49991459 -0.2129761 0.9528451
-0.52081811 -0.30763641 1.0031379
-0.60972118 -0.2422937 1.167147
-0.56643653 -0.28077251 1.082467
-0.42465651 -0.29880819 0.8344326
-0.40932089 -0.14256421 0.99951231
-0.5792591 -0.33118179 1.092791
-0.43766001 -0.2042304 1.013956
-0.41402769 -0.1251267 0.99571651
-0.56994891 -0.23560651 1.103826
-0.54024231 -0.3300848 1.0111851
-0.58197719 -0.082338341 1.18248
-0.57261223 -0.050281469 1.156582
-0.57831228 -0.33108759 1.084713
-0.56916618 -0.32347199 1.069998
-0.59040618 -0.32581341 1.105872
-0.64242882 -0.38172841 1.181489
-0.59416592 -0.07743676 1.204401
-0.50248438 -0.27161151 0.96716309
-0.1307451 -0.042557701 1.0414751
-0.42484519 -0.18735901 0.9749499
-0.3938376 -0.1498391 0.87287247
-0.40707651 -0.24068969 0.84561741
-0.45512751 -0.28563619 0.86164528
-0.61418432 -0.1811489 1.1919301
-0.60396463 -0.1394514 1.222019
-0.64049977 -0.30829161 1.233001
-0.57905519 -0.31257209 1.0913399
-0.4978599 -0.2081285 0.97240871
-0.52150482 -0.31733319 0.98974317
-0.55335408 -0.2072719 1.165857
-0.40437061 -0.1847724 1.071643
-0.4674103 -0.29829681 0.88033438
-0.44135469 -0.230064 0.855856
-0.4441134 -0.1990061 0.93237358
-0.2819142 -0.035189029 1.022772
-0.57627481 -0.2054728 1.156827
-0.40850171 -0.21020649 0.85218918
-0.64126819 -0.37950581 1.164073
-0.53585058 -0.3151502 1.011575
-0.43647301 -0.1947764 1.036921
-0.4262673 -0.32099491 0.83544368
-0.46634841 -0.050397739 0.95527202
-0.46431479 -0.33881181 0.87147301
-0.60611922 -0.2251928 1.1611069
-0.46459749 -0.2033134 1.074894
-0.57566601 -0.064193368 1.228497
-0.61672878 -0.31331339 1.158398
-0.47690779 -0.13405409 1.1400239
-0.40151429 -0.18904451 1.081053
0.58306062 -0.18438341 0.89046037
0.57002759 -0.34789169 0.88112497
-0.44804719 -0.059764519 0.92840248
