# .PCD v0.7 - Point Cloud Data file format
VERSION 0.7
FIELDS x y z normal_x normal_y normal_z curvature
SIZE 4 4 4 4 4 4 4
TYPE F F F F F F F
COUNT 1 1 1 1 1 1 1
WIDTH 582
HEIGHT 1
VIEWPOINT 0 0 0 1 0 0 0
POINTS 582
DATA ascii
0.15485308 -0.15016115 0.89244181 0.028477043 0.95161682 0.30596492 0.0021174159
0.094294943 -0.33418322 0.92624009 -0.027049838 0.28767028 0.95734739 0.0023427871
0.2331465 -0.28022718 0.87609851 0.81467921 0.28014097 0.50775868 0.038334571
0.18786742 -0.16102058 0.55663943 0.72607136 0.68712425 0.02608889 0.038238425
0.18824829 -0.28920034 0.80308646 0.23213348 0.9361434 -0.26410115 0.013887868
0.23910445 -0.4248628 0.58182192 0.99235809 0.12181158 -0.019682556 0.00045491772
0.25075126 -0.37935922 0.81135333 0.99388939 0.081943147 -0.07395386 0.00019240117
0.2341646 -0.34022766 0.73599911 0.84719497 0.52722818 -0.065506883 0.039283805
0.26638961 -0.49270445 0.77462894 0.90844756 0.41262579 -0.066806518 0.010217002
0.25173134 -0.44583687 0.75405872 0.98419052 0.16597556 -0.061815802 0.00098439248
0.22333817 -0.34558576 0.52618366 0.9627431 0.26076961 -0.071588084 0.010395263
0.26352429 -0.48600286 0.77373338 0.92033166 0.38398847 -0.074448794 0.0099893352
0.24264897 -0.43946344 0.62376297 0.98640054 0.16015494 -0.03693755 0.00080721849
0.23817985 -0.48524928 0.46649888 0.71132076 0.33925879 -0.61556983 0.036711004
0.24985605 -0.4816404 0.51666605 0.94144201 0.28334132 -0.18276946 0.0002155284
0.23134682 -0.33850551 0.61302924 0.99013621 0.11085747 -0.085679166 0.00032561537
0.070500873 -0.30436707 0.91392332 0.10035925 0.51276034 0.85264575 0.01101588
0.1942775 -0.1848451 0.56642431 0.9495371 0.31326875 -0.01555846 0.023555357
0.24767783 -0.41497239 0.74706733 0.99172783 0.11354786 -0.059855826 0.0002089451
0.20367023 -0.16890469 0.64755267 0.75717056 0.64284086 -0.1159666 0.077700756
-0.13245854 -0.13949983 0.58746845 -0.019115688 0.99684739 -0.077004969 0.0018316944
0.081135549 -0.36175764 0.93274587 -0.00069187093 0.2442549 0.96971083 0.0020984553
0.19385199 -0.30781728 0.69030112 -0.14461663 -0.98868048 0.039962173 0.0036720827
0.17055891 -0.13798837 0.82879359 0.21678202 0.97534716 0.041272901 0.013991291
0.19474255 -0.18646158 0.55337185 0.97156531 0.22874469 -0.06112808 0.012781179
0.21517852 -0.22368859 0.88510734 0.98264205 0.03712865 0.18175803 0.02715292
0.14022188 -0.15326904 0.89338374 -0.0021718098 0.9246453 0.38082331 0.0037943493
0.097588018 -0.16152214 0.90094757 0.046197943 0.89431298 0.44505084 0.0059890579
0.098499864 -0.14952588 0.8906908 0.033519339 0.90346926 0.42734018 0.0033713225
0.10411078 -0.15583676 0.89725971 0.034546658 0.89348376 0.44776478 0.0047781635
0.09593451 -0.15170272 0.89486682 0.043672878 0.90836138 0.41589937 0.0045990776
0.012549954 -0.21787755 0.78908044 0.45642102 -0.20502491 0.86582023 0.0063380077
0.06890323 -0.15007801 0.89695656 0.056761272 0.93517691 0.34960312 0.0075001461
0.10670655 -0.15113366 0.89163411 0.028206404 0.90716767 0.41982275 0.0042490805
0.016214596 -0.2096343 0.79258376 0.53758681 -0.36154667 0.76176399 0.0019099333
0.076782599 -0.28220761 0.82506508 0.31922525 -0.94022572 0.11862069 0
0.11349698 -0.24127939 0.84721273 -0.58608824 0.10272108 0.80370951 0
0.092851982 -0.20933177 0.82807106 -0.58624315 0.10281257 0.80358487 0.00012863049
0.10226478 -0.22856469 0.83739543 -0.58624315 0.10281257 0.80358487 0.00012863049
0.096086033 -0.22947158 0.83300579 -0.58624315 0.10281257 0.80358487 0.00012863049
-0.10914487 -0.15194854 0.89883 0.090506166 0.76702172 0.63520575 0.079248413
0.0098651601 -0.14811629 0.89775229 0.055505645 0.94634259 0.31836268 0.0080409683
0.13429224 -0.30099145 0.86988205 -0.090213247 -0.98844826 0.12178519 0.014676053
-0.018775893 -0.14928366 0.89576173 -0.031844012 0.76200432 0.64678848 0.050978839
-0.068230227 -0.16088584 0.9029808 -0.045642138 0.62732965 0.77741522 0.046593539
-0.099518985 -0.23309025 0.87558204 0.64159101 0.076079316 0.7632646 0.0055760448
-0.074519016 -0.1965583 0.85173517 0.70366776 -0.21720447 0.676516 0.073712252
-0.047580644 -0.26543513 0.82046235 0.44028947 0.80766493 0.39220211 0.021780467
-0.10086247 -0.20523344 0.8776316 0.68626207 -0.024344381 0.72694689 0.0094533972
0.11269434 -0.29740378 0.89215499 0.18783937 0.81343204 0.55049497 0.03975229
0.011895983 -0.29138467 0.80697519 0.16509408 0.87024361 0.46413365 0.033958681
-0.10711338 -0.23404819 0.88375449 0.62362993 0.073873959 0.77822125 0.0047206627
-0.071878836 -0.21819389 0.84620196 0.71533197 -0.015358418 0.69861597 0.0032956426
-0.10412399 -0.21867269 0.87903953 0.65536982 0.023249755 0.75495017 0.0035935559
-0.075106494 -0.21874858 0.84919757 0.71679389 -0.014902178 0.69712591 0.0030974722
0.023274256 -0.31929344 0.92547786 0.013783875 0.23620787 0.97160476 0.0063794302
-0.0030895581 -0.34445444 0.93091708 0.044450283 0.17433766 0.98368222 0.0034063223
0.10643848 -0.32314456 0.92108697 0.10536175 0.49149939 0.86448091 0.023187913
-0.074143708 -0.32583705 0.92595792 0.011332126 0.61133379 0.79129171 0.013750702
-0.058490496 -0.33371612 0.93121427 0.011400856 0.62546575 0.78016829 0.011267094
0.12461498 -0.38082263 0.93736207 0.067106754 0.26781848 0.96112949 0.001551104
0.14690702 -0.41277245 0.9450593 0.15631859 0.23727243 0.95878375 0.0088385455
-0.097107902 -0.3452588 0.93891418 0.067857623 0.38320401 0.92116773 0.010686475
0.060669623 -0.36481738 0.93200755 0.023230804 0.16767873 0.98556799 0.0018116808
-0.10120878 -0.34649754 0.93879223 0.088755429 0.30920586 0.9468444 0.0087304637
0.00099039718 -0.38295937 0.93700194 0.048078533 0.1604711 0.98586881 0.001204718
0.083269738 -0.36244476 0.93292886 -0.00069187093 0.2442549 0.96971083 0.0020984553
-0.15319785 -0.33001694 0.93522358 -0.13533272 0.26450375 0.95484185 0.012039877
-0.049971152 -0.43206197 0.94793433 0.057332844 0.17056662 0.98367673 0.0025106152
0.0054261182 -0.41239402 0.94080478 0.085112303 0.1787606 0.98020434 0.00099357904
-0.082052134 -0.3823007 0.94378871 0.050060064 0.16303827 0.98534894 0.00040182701
0.084371127 -0.45615825 0.94911176 0.13110122 0.25358334 0.95838827 0.0027917402
0.14623791 -0.46386495 0.94312 0.70637822 -0.44875985 -0.54739785 0.0034846172
-0.068115696 -0.39937386 0.94757271 0.066503517 0.12461784 0.98997355 0.00066851912
-0.05199331 -0.42788008 0.94767165 0.066576637 0.17400579 0.98249149 0.002312189
0.012473337 -0.45647848 0.95068461 0.091765806 0.21220489 0.97290707 0.001508483
0.11871071 -0.36179188 0.93191731 0.054071177 0.25954679 0.96421564 0.0036335411
0.10104717 -0.34220394 0.92822701 0.0041459817 0.26844609 0.9632858 0.0028725038
-0.1407011 -0.3405416 0.93873781 -0.051139433 0.2178832 0.97463411 0.013140115
-0.12243905 -0.3535794 0.94063777 0.029572837 0.2034182 0.97864521 0.011410258
0.091946304 -0.44446883 0.94355583 0.14827521 0.28106353 0.94816548 0.0021836243
0.096625812 -0.44709042 0.94273096 0.14721124 0.29064444 0.94543892 0.0070524118
-0.078762032 -0.39888638 0.9458788 0.05974149 0.14996232 0.98688507 0.00039875321
0.16297522 -0.41504464 0.94171685 0.17430577 0.23764332 0.95558524 0.011554094
-0.12125125 -0.35841382 0.94079322 0.0011609178 0.13139126 0.99132991 0.0021376638
0.067741096 -0.44666982 0.94619644 0.020524954 0.22916496 0.97317111 0.0017121227
0.15641797 -0.4008317 0.93876177 0.15997636 0.24429229 0.95641452 0.0069849975
0.024551297 -0.45496029 0.94800091 0.031290509 0.20851481 0.97751856 0.0011716929
-0.043844499 -0.33451098 0.93143982 0.1214617 0.69024706 0.71330637 0.0090449648
0.040453445 -0.3603425 0.93273741 0.021920254 0.18315637 0.98283941 0.0012002524
0.17355563 -0.41360706 0.93754864 0.069171108 0.2058544 0.9761349 0.0091525726
0.17130187 -0.41025788 0.93730098 0.17430577 0.23764332 0.95558524 0.011554094
0.16928233 -0.43084675 0.93959904 0.12389406 0.01383679 0.99219894 0.010369363
0.054575857 -0.39650181 0.93733746 -0.0019751769 0.15214056 0.98835695 7.2513518e-05
-0.0105298 -0.40135804 0.94021237 0.088853896 0.1547811 0.98394501 0.00090260961
-0.089009121 -0.19944297 0.87095338 0.69070679 -0.21321335 0.69098783 0.061011441
-0.02030761 -0.33128637 0.93202615 0.018225864 0.35373807 0.9351669 0.0079194522
-0.087569311 -0.23663871 0.86328799 0.67189932 0.11022128 0.73239505 0.0090419352
-0.065876588 -0.31919715 0.91771209 0.093402617 0.73574251 0.67078978 0.015105404
-0.040574819 -0.33875683 0.93184412 0.11789881 0.65966451 0.74225491 0.0093570333
0.12975128 -0.30142274 0.89118713 -0.093130037 0.86072332 0.5004819 0.039847661
-0.1158088 -0.41369668 0.95063311 0.034119602 0.15749912 0.98692954 0.00078951981
0.012150653 -0.30135161 0.84685707 0.063418485 0.98343664 0.16979526 0.0033670375
0.19319679 -0.49768203 0.98090023 0.061253227 -0.91636765 -0.39562404 0.0012391872
0.12616853 -0.20781524 0.85217202 -0.58631361 0.10289419 0.80352294 0.00024670176
-0.010893303 -0.34869772 0.93193823 0.061425544 0.17713948 0.98226702 0.0032990521
0.051566545 -0.4067831 0.93936831 0.011166837 0.15036935 0.98856688 0.00027420456
0.062314618 -0.39612505 0.93738192 0.0095797293 0.14441189 0.98947132 0.00034737014
-0.0048284233 -0.28117105 0.79540735 0.33162439 0.65812969 0.67593688 0.031387813
0.060638037 -0.40844899 0.93890166 0.0052099563 0.15787031 0.98744607 0.00061887829
-0.15173195 -0.23453017 0.91281849 -0.19133793 0.27055684 0.94349813 0.11341923
-0.14334673 -0.32505167 0.93769699 -0.099724613 0.26372102 0.95943022 0.014259838
-0.15946802 -0.38389638 0.94329023 -0.14554003 0.18361339 0.97216463 0.0029196267
-0.1216452 -0.33676219 0.93879855 0.12112521 0.36805919 0.92187917 0.016397292
-0.13845928 -0.33199802 0.94270414 0.017245235 0.25469458 0.96686769 0.014443406
0.14658479 -0.49627233 0.96979976 -0.15231043 0.62309378 0.76717371 0.00054330862
0.13204738 -0.38905144 0.93991435 0.16520329 0.28241074 0.94496137 0.0010373689
-0.13647099 -0.23746374 0.90784234 0.30105874 0.19343744 0.93378025 0.074270904
0.12630185 -0.21901922 0.85370255 -0.58631361 0.10289419 0.80352294 0.00024670176
-0.16825368 -0.17187607 0.89693171 -0.5728178 0.35117927 0.74064356 0.060505025
-0.088586047 -0.23726191 0.86453712 0.67189932 0.11022128 0.73239505 0.0090419352
-0.20875485 -0.34975955 0.92227697 -0.53621089 0.29164454 0.79209936 0.0076338747
-0.12202584 -0.1751307 0.89661545 0.20613581 0.20906121 0.95592958 0.075889923
0.11439288 -0.2449418 0.84833455 -0.58608824 0.10272108 0.80370951 0
0.12160295 -0.36016193 0.93161702 0.054071177 0.25954679 0.96421564 0.0036335411
0.0011680743 -0.15479344 0.90368575 0.087012634 0.895751 0.43595761 0.017120214
0.057448931 -0.13918686 0.86571735 0.044681747 0.98853654 0.14421837 0.0031731948
0.1811154 -0.4973461 0.97579348 -0.026134754 -0.99947286 -0.019262353 6.2375009e-05
0.10604104 -0.34098217 0.92751729 0.028982896 0.28132695 0.95917422 0.0036455619
0.1684306 -0.42651659 0.9398393 0.12389406 0.01383679 0.99219894 0.010369363
-0.071024358 -0.40080819 0.94642073 0.064393103 0.13414523 0.98886734 0.00060547871
-0.17965797 -0.26035193 0.90147996 -0.68182594 0.36092255 0.6362769 0.057144605
0.00035859155 -0.299288 0.83021224 0.12198554 0.95781314 0.26021811 0.0052701007
-0.18824039 -0.29383996 0.91210747 -0.79668617 0.37688529 0.47249189 0.020899652
0.03335068 -0.1369767 0.84703553 -0.008191538 0.99853438 0.053497985 0.0025678603
-0.13571711 -0.43817139 0.95384622 -0.052689295 0.1727584 0.98355401 0.00096464233
0.080200113 -0.36174476 0.93255055 -0.00069187093 0.2442549 0.96971083 0.0020984553
0.016625674 -0.44433254 0.94449782 0.060482003 0.19661927 0.97861266 0.00130454
-0.11165563 -0.41265661 0.95039016 0.04067808 0.14161138 0.98908621 0.00056358456
-0.17417984 -0.25319386 0.90792686 -0.65634167 0.3401916 0.6734131 0.069564655
-0.054729905 -0.30897018 0.89887613 0.29246467 0.80014455 0.5236727 0.011255873
0.047770865 -0.37227574 0.9339062 0.015788129 0.14045735 0.98996079 0.00020813294
0.082614593 -0.45188421 0.94867557 0.13368139 0.25178298 0.95850641 0.0017782365
-0.13836993 -0.14370291 0.89834666 -0.048848622 0.64801186 0.7600621 0.074090876
0.13663289 -0.33068809 0.92779362 0.14793223 0.43565828 0.88787282 0.013733542
-0.11528954 -0.22735977 0.89105225 0.572689 0.07637582 0.81620711 0.0068060085
0.083243988 -0.30791724 0.91703165 0.28219077 0.53817141 0.79419136 0.017728919
-0.072051987 -0.27781433 0.86983007 0.59350556 0.52918154 0.60639757 0.023887871
-0.13281597 -0.15035601 0.89693898 0.0046787243 0.68201703 0.73132139 0.083090387
-0.1615206 -0.16756259 0.89967597 -0.44561976 0.37701532 0.81196213 0.065980695
-0.055470418 -0.29914123 0.87978202 0.32985222 0.82416099 0.46038702 0.016898779
0.14281696 -0.14985782 0.88849521 -0.0031039729 0.94561517 0.32527286 0.0037387519
0.053438667 -0.37104371 0.93375069 0.019767644 0.16716678 0.98573047 0.0019094747
-0.078342244 -0.14039785 0.8759954 -0.12024622 0.93293226 0.33937925 0.087213382
-0.12574345 -0.33632162 0.93940806 0.064436607 0.2575953 0.96410197 0.012710525
0.0130371 -0.29294398 0.81041837 0.16868509 0.87045825 0.46243677 0.030618252
0.092149206 -0.33807558 0.92695856 -0.027049838 0.28767028 0.95734739 0.0023427871
-0.17649497 -0.1457779 0.55554909 -0.28496164 0.91299748 -0.29194611 0.021646865
0.0002962971 -0.14022028 0.64896804 0.025648234 0.99948174 -0.019452557 0.00065931468
-0.17844495 -0.30334118 0.92423183 -0.46300414 0.29041538 0.83742827 0.041702528
-0.036143545 -0.38854778 0.94190246 0.091067411 0.14849909 0.98471045 0.00045939028
-0.15705431 -0.13958569 0.5689798 -0.060523476 0.98346251 -0.17069986 0.0063663619
-0.054047186 -0.13757226 0.8161571 -0.0049148551 0.99889493 0.046742704 0.011955669
0.079688646 -0.14710163 0.89262766 0.094229162 0.94862258 0.30205306 0.0080225458
0.23125929 -0.43451875 0.92949915 0.83487743 0.093766242 0.5423907 3.9695668e-05
0.20537356 -0.24512014 0.89576507 0.8507297 0.21543913 0.47942135 0.029992238
0.0013008472 -0.13678296 0.78266209 -0.00066399318 0.99997729 0.0067143119 0.0006390835
-0.016829016 -0.13731307 0.80954194 0.0040271925 0.9999035 0.013295133 0.0010125308
0.24214013 -0.30450761 0.87297958 0.87659919 0.2882534 0.38533595 0.043057363
-0.032083489 -0.13685378 0.79658765 -0.0081663923 0.99996513 -0.0017972901 0.0005727458
-0.090395667 -0.13732038 0.71617562 -0.016512591 0.99982715 -0.0085475193 0.00056093192
0.022056412 -0.14125131 0.64336908 -0.0076150429 0.99872923 -0.049820177 0.0008208222
-0.13311772 -0.1399737 0.57512331 -0.019571472 0.99509192 -0.096999995 0.0020752056
0.16286412 -0.13889489 0.85035008 0.1051119 0.98252177 0.15363085 0.013074205
0.050138544 -0.14338005 0.59796953 -0.015172811 0.99084425 -0.13415508 0.031868394
0.078874364 -0.13961993 0.63468206 -0.053201091 0.99736208 -0.049381215 0.0028910411
-0.11334047 -0.13983631 0.56724983 -0.0054165465 0.99509877 -0.098737225 0.0019670061
-0.031075826 -0.1369673 0.80919349 -0.0011796023 0.99999636 0.0024089401 0.00040041574
0.16638811 -0.13742435 0.78085506 0.12613042 0.99191332 -0.014116133 0.0081172008
0.16936976 -0.13857964 0.7667309 0.12944506 0.99127817 -0.024727235 0.0066832402
0.16832615 -0.1377971 0.77284354 0.12288706 0.99227399 -0.01706301 0.007143266
0.037823599 -0.13667329 0.77590847 -0.00073265901 0.99999887 -0.0013243603 0.0012171714
-0.039586429 -0.13911213 0.61857891 0.018994188 0.9998188 -0.0012635556 0.00049570674
0.0034198735 -0.14123727 0.58550447 0.05983087 0.99770379 -0.031738952 0.00049329002
0.090388134 -0.13900633 0.72494572 0.012502152 0.99977571 -0.017094888 0.00024203508
-0.080377191 -0.13969262 0.59789526 -0.0022385821 0.99989927 -0.014012488 0.00011861757
-0.06981115 -0.13939303 0.58511907 -0.007321835 0.99963576 -0.025973419 0.00037578458
-0.14323816 -0.32731798 0.93731838 -0.091793671 0.26921609 0.95869523 0.013388764
-0.0076412312 -0.14970374 0.8953737 0.045313738 0.87817025 0.47619709 0.029356264
-0.0024497521 -0.13775177 0.81275082 0.0002758741 0.99990332 0.013902575 0.00082015019
0.16180435 -0.14289567 0.56120253 0.25509471 0.96689218 -0.0067975009 0.022305928
-0.0150698 -0.13925573 0.68290251 0.01839371 0.9992919 -0.032824885 0.00043063713
0.0065794354 -0.14102298 0.59566557 0.053816799 0.99846345 -0.01320657 0.00030350703
0.2096688 -0.14980289 0.85714084 0.72108072 0.69030637 -0.059327364 0.090858571
-0.051900506 -0.13711353 0.72847998 0.011305007 0.99990278 -0.0081653809 0.00042915085
-0.15137371 -0.13897249 0.61374992 -0.092485286 0.9956798 -0.008251952 0.0043142308
-0.11423713 -0.13615452 0.69976807 -0.029459065 0.99954021 0.007175074 0.00085682585
-0.041257065 -0.13484666 0.88244927 -0.11098047 0.87108147 0.47843528 0.058452077
-0.032215718 -0.14134632 0.87301648 0.0033874298 0.98147571 0.1915563 0.032708023
0.22566317 -0.26758531 0.88252234 0.73537272 0.22391231 0.63960165 0.018770458
0.22349116 -0.34594938 0.91690886 0.5571419 0.3051987 0.77229953 0.043962158
0.12423748 -0.13899942 0.59528017 0.028369581 0.9966442 -0.076782167 0.004427183
0.045555342 -0.13727517 0.82575756 -0.0047685443 0.99963766 0.026490437 0.0014598903
0.16632828 -0.14455006 0.58259636 0.35136169 0.93431598 -0.059987731 0.018891038
0.15442534 -0.14257269 0.58377749 0.22609271 0.96685457 -0.11863505 0.014117495
-0.047404699 -0.13858493 0.88098317 -0.13534023 0.89774072 0.41921905 0.059787478
0.083244771 -0.13766342 0.83166426 0.029136261 0.9993493 0.021262022 0.00069506088
-0.017564034 -0.13706118 0.78364921 -0.011288704 0.99993289 -0.0026312517 0.00048550963
-0.011808937 -0.13794197 0.67775726 0.016904624 0.99928045 -0.03395256 0.00039630866
0.037935764 -0.13667823 0.77671367 -0.00022640769 0.99999952 -0.00097359589 0.0011533214
0.061775886 -0.13803929 0.75230908 0.017025512 0.99951482 -0.026082458 0.00027889869
0.065958008 -0.13678117 0.77726656 0.023844332 0.9996587 -0.01067279 0.0002936337
-0.015254584 -0.30084768 0.86808556 0.084842145 0.98498756 0.15033738 0.0024331347
0.15353453 -0.14217244 0.56216913 0.18733223 0.98132122 -0.043762408 0.018638631
0.13596757 -0.13905491 0.72303224 0.02902294 0.99905062 -0.032490812 0.00077969756
0.060922548 -0.143925 0.59750837 -0.023888156 0.99733394 -0.068952024 0.0022958366
0.090584777 -0.13942541 0.63695431 -0.04321225 0.99836606 -0.037388522 0.0035321284
-0.012654792 -0.14621526 0.53162342 -0.036642481 0.9423511 -0.33261356 0.010614847
0.049329069 -0.14225949 0.61103433 -0.016771514 0.99804312 -0.060237631 0.0017531916
-0.0055577978 -0.14454742 0.53860241 0.015272492 0.96241736 -0.27114493 0.012121058
0.090930656 -0.13921715 0.62339443 -0.059434742 0.99693245 -0.050922528 0.0035157932
0.1128198 -0.13881575 0.61887324 -0.023145173 0.99917018 -0.033513393 0.0036632814
0.12370501 -0.13791099 0.75812167 -0.0094958916 0.99988103 -0.012156975 0.00036595241
0.21901116 -0.23558488 0.87588543 0.9765771 0.14159386 0.16201307 0.030973854
0.21315746 -0.1901163 0.88513374 0.97719765 0.17611293 0.11861306 0.0053691817
0.21271285 -0.17460378 0.87426168 0.96494973 0.24460986 0.095069297 0.015609151
0.10861182 -0.13912761 0.66571438 0.022181394 0.99973923 -0.0054360209 0.0011326448
-0.027150663 -0.1391369 0.62097943 0.026240058 0.99965382 0.001942486 0.00046814876
-0.062849022 -0.13962111 0.60000175 -0.0055140276 0.99991566 -0.011759749 0.00010139636
0.017455392 -0.13957112 0.5828492 0.054275531 0.99843991 -0.013112534 0.00028579318
0.1676292 -0.1446985 0.51117468 0.39689761 0.72915286 -0.55750191 0.10935621
0.046846271 -0.13804474 0.74933732 0.01291147 0.99937373 -0.032945119 0.00019164606
0.15579183 -0.13711374 0.77151483 0.026145086 0.99853033 -0.047472466 0.0022500637
0.033627581 -0.1451332 0.57170486 0.094327025 0.99312985 -0.069250025 0.036474433
-0.01999284 -0.13976353 0.56739068 0.062015999 0.99361533 -0.09424711 0.0035351266
-0.028887803 -0.13854399 0.69634008 0.01838902 0.99936676 -0.03046043 0.00028345588
0.042139072 -0.13755044 0.7526418 0.013155052 0.99936688 -0.033058681 0.0002008267
0.038113147 -0.14104888 0.63984895 -0.026521364 0.99758601 -0.064176932 0.00075987569
-0.084495023 -0.13978565 0.58441621 0.0015199188 0.99933118 -0.036536641 0.00046525471
0.20296316 -0.14518325 0.87424004 0.44837466 0.81144017 0.37486652 0.077845871
-0.060708739 -0.13866054 0.65559316 0.031623166 0.99941599 -0.012949886 0.00044099375
-0.017858436 -0.14159451 0.88048297 0.081285454 0.95085704 0.2987701 0.030353868
0.0021924011 -0.13755351 0.82971478 0.00058004149 0.99976516 0.021660661 0.0010264985
0.12051846 -0.13970181 0.66460651 0.016399 0.9998455 0.0063310252 0.00099773449
-0.13644765 -0.13877952 0.8067593 -0.087959632 0.99432147 -0.059899438 0.017111283
-0.077749655 -0.13690808 0.7165212 0.00051928632 0.99999148 -0.0041046496 0.00065675162
0.17401645 -0.13937005 0.64775044 0.56570494 0.81651467 -0.11524583 0.015958771
0.22908978 -0.34812132 0.91017896 0.76811063 0.21216345 0.60414624 0.013544011
0.17466097 -0.1415377 0.73772693 0.28927162 0.95571476 -0.054141127 0.016468791
0.18122686 -0.15055296 0.58761245 0.51224756 0.8568778 -0.057988819 0.02107927
-0.089961641 -0.13711371 0.81350112 -0.0064327605 0.99997622 0.0025064608 0.00073495152
-0.11358985 -0.13918433 0.585841 0.0045155655 0.99894202 -0.045767184 0.0010605765
-0.089922398 -0.13688093 0.80217689 -0.01219301 0.9998644 -0.011070302 0.00031075344
0.0065055881 -0.13894945 0.68716347 0.0093264785 0.99930549 -0.036077939 0.0004615759
-0.082236104 -0.13670926 0.73927146 -0.0085072657 0.99994993 0.0052712378 0.0007246561
0.038267463 -0.13724071 0.84767544 -0.0081968326 0.99831229 0.057492103 0.0027233502
-0.12214909 -0.13835135 0.71803981 -0.042257603 0.99909151 0.0055203638 0.00084042171
-0.0031930043 -0.14032517 0.66729933 0.012713316 0.99932337 -0.034513362 0.00058582256
-0.0016194065 -0.13867748 0.68724197 0.011693561 0.99930543 -0.035380512 0.00041563957
0.078580789 -0.13709545 0.78070611 0.025718745 0.99962991 -0.0088705337 0.00030369521
6.6872381e-05 -0.13734998 0.79966336 0.0018621556 0.99988389 0.015122883 0.00080415333
0.025964389 -0.1394127 0.69391382 0.0027256988 0.99940491 -0.034387738 0.00034822203
-0.034871545 -0.13978584 0.55913997 0.014983896 0.99420416 -0.10645981 0.0038360881
0.013664535 -0.13890752 0.70801562 0.0095838821 0.99949425 -0.03032109 0.00016083408
0.028603079 -0.13691539 0.80201417 -0.005275507 0.99992263 0.011267124 0.00078593288
0.057881523 -0.1365163 0.83149701 0.0049663777 0.99923652 0.038750842 0.0017922156
-0.050221026 -0.30452576 0.89160484 0.26198015 0.8245092 0.50154859 0.013272136
-0.054118063 -0.34081072 0.93373185 0.015512452 0.58155161 0.81336153 0.0097772134
0.14710316 -0.15049401 0.89028221 0.012886749 0.95021158 0.31133884 0.0020383787
-0.15013622 -0.37811691 0.94366342 -0.090481266 0.13634653 0.98652053 0.0025605669
-0.13558644 -0.35689318 0.94025815 -0.0030862486 0.12350588 0.99233907 0.0023632159
0.16298673 -0.14080109 0.6992057 0.18587276 0.98248535 -0.013185496 0.009542305
0.16787729 -0.14243104 0.70654136 0.18431158 0.98184001 -0.044937912 0.009799201
0.17697562 -0.41099882 0.94309843 0.047837164 0.21159473 0.97618604 0.0099723339
0.23411767 -0.39177144 0.91728342 0.83449489 0.19260845 0.51625603 0.0098304609
0.20921902 -0.19195014 0.89263332 0.97196269 0.18351145 0.14701031 0.0089055616
0.02605732 -0.13745771 0.83331513 -0.003320324 0.99968827 0.024743827 0.0017951764
0.07459987 -0.14090388 0.86486644 0.070041172 0.98204708 0.17515047 0.0052956697
-0.047430068 -0.29952058 0.86886287 0.32405472 0.86648834 0.37971899 0.021168929
0.13000417 -0.30188796 0.86263895 -0.1380574 -0.98610461 0.092400633 0.015808916
0.034496378 -0.13995852 0.66079539 -0.012446244 0.99891686 -0.044834711 0.00056012545
0.078613259 -0.4366259 0.94536138 0.1345305 0.24913567 0.95907927 0.0014874438
0.098878063 -0.13862042 0.80680311 0.030336851 0.99953872 -0.0014451222 0.00059014821
-0.15293404 -0.13962452 0.67750823 -0.25997409 0.96481204 0.039384395 0.0090768784
-0.14763439 -0.35669267 0.93970174 -0.10847998 0.14360167 0.98367202 0.0056143394
-0.031824492 -0.14049461 0.5503878 0.016814955 0.9823392 -0.18635188 0.0087568182
0.097750939 -0.13870369 0.79827404 0.03055818 0.99953234 -0.0011902314 0.00065052719
-0.049441297 -0.13848872 0.67916399 0.027091499 0.99929851 -0.025856599 0.0003164004
0.17004655 -0.297079 0.89710295 -0.19169682 0.90449816 0.38096625 0.047189701
0.18175034 -0.14272445 0.65104741 0.55260706 0.82781202 -0.096709862 0.016001452
0.0031275556 -0.13837571 0.71596712 0.008794833 0.99952316 -0.029598128 0.0001684594
-0.11308713 -0.41877687 0.95091188 0.036828473 0.15701088 0.98690999 0.00084737246
0.16480333 -0.13892101 0.62312603 0.26412177 0.95844495 -0.10780976 0.010139935
-0.036007773 -0.39930245 0.94349003 0.092427887 0.12240821 0.98816669 0.00025610486
-0.13384438 -0.13930617 0.80213445 -0.083585605 0.99457389 -0.061937377 0.015629156
-0.033973802 -0.49244156 0.96417046 0.18214054 0.35723415 0.91608328 0.0014418467
0.17832559 -0.1423184 0.74993742 0.32878762 0.94354117 -0.040356223 0.012201159
0.18483269 -0.14534608 0.73776281 0.35431388 0.93401557 -0.045571163 0.015050433
0.037212741 -0.1360433 0.76939762 -0.00091641332 0.99996632 -0.0081526805 0.001411814
0.063406035 -0.49296543 0.96008062 -0.011443971 0.28342876 0.95892501 4.0495706e-05
-0.024282029 -0.13986434 0.88417321 -0.003740482 0.86323214 0.50479323 0.031723879
-0.15906815 -0.14338839 0.75585186 -0.17640358 0.98290288 0.05276091 0.025551273
0.060605049 -0.13847855 0.857728 0.016949935 0.99148315 0.12912755 0.0030088539
0.21203543 -0.35744369 0.9157483 0.49791169 0.33515579 0.79984653 0.052151043
-0.16516463 -0.14189112 0.77161634 -0.22907372 0.97169316 0.057772949 0.026480649
-0.12753531 -0.13663591 0.64377511 -0.013000249 0.99971145 -0.020196166 0.0013451218
-0.11561472 -0.49604884 0.96999973 -0.018611193 0.35455957 0.93484819 0.038478177
-0.052412223 -0.13841185 0.68121743 0.025337256 0.99935579 -0.025416845 0.00035394335
0.061354052 -0.14034873 0.87268007 0.045060657 0.98715651 0.15326935 0.0029911341
-0.045688521 -0.13793801 0.82163906 -0.020175571 0.99841547 0.052531146 0.01585239
0.0025257247 -0.49070823 0.95884621 0.1112404 0.23975663 0.96443892 0.0017571122
-0.092513874 -0.13722648 0.6793462 0.0057694349 0.99996173 -0.0065765837 0.00049355254
-0.1796111 -0.15727656 0.53593314 -0.35327193 0.81307369 -0.46272045 0.01968994
0.20207743 -0.29953846 0.89932996 0.23798014 0.10935872 0.96509385 0.052734453
-0.098624989 -0.29234383 0.90145874 0.3920916 0.63280618 0.66769791 0.02517819
0.19723096 -0.1472965 0.87087297 0.45536152 0.81905335 0.34899503 0.07192497
0.21241842 -0.34270304 0.91283673 0.49305511 0.34018958 0.80072951 0.036664352
-0.068091109 -0.40664831 0.9473123 0.071095474 0.10566697 0.99185681 6.269903e-05
-0.14854313 -0.14339186 0.87985247 -0.17796761 0.88165253 0.43705419 0.083201766
-0.10197648 -0.15132059 0.89915979 0.014195606 0.78535002 0.61888909 0.077890009
-0.016831174 -0.13990496 0.57952744 0.044356331 0.99787718 -0.047681417 0.0018126538
-0.08556857 -0.13697965 0.80457336 -0.0079205893 0.99994296 -0.0071602608 0.00031487684
-0.10149352 -0.13981989 0.85344517 0.0014462861 0.97547895 0.22008809 0.044690657
0.02779655 -0.13877293 0.70725322 0.0064671696 0.99958885 -0.027932104 0.00014668451
-0.12659205 -0.13749698 0.83257526 -0.037063647 0.99805588 0.050106801 0.0028763702
-0.13535364 -0.14080521 0.56243283 -0.0051212711 0.97694647 -0.21342297 0.0055208672
-0.15722598 -0.14416479 0.87264591 -0.3810603 0.88322073 0.27333888 0.077049769
0.044810567 -0.13797443 0.73632586 0.012000562 0.99927884 -0.036026556 0.00013759556
-0.14258775 -0.14358602 0.89105409 -0.15732944 0.81478512 0.55800778 0.087115489
0.056771267 -0.36054277 0.93129826 0.01756122 0.17846404 0.98378974 0.0015944052
0.15390426 -0.34190574 0.92169863 0.14161493 0.31543863 0.93831956 0.0077276067
0.10660668 -0.32949769 0.91871822 0.081962802 0.4767758 0.87519532 0.020940581
0.13564831 -0.29800928 0.88579953 -0.12981606 -0.988029 0.083344929 0.015276242
0.014153956 -0.40737647 0.93918544 0.018623214 0.15132625 0.98830843 0.00015992507
0.11153197 -0.35020009 0.92938948 0.035258185 0.27712145 0.96018779 0.0034912876
0.12519772 -0.3596198 0.93153745 0.058879811 0.26227537 0.96319503 0.0038906364
-0.13277896 -0.35881341 0.94060957 -0.0030862486 0.12350588 0.99233907 0.0023632159
0.15080571 -0.37575135 0.93206429 0.14391296 0.26480293 0.95350337 0.0033952238
-0.0090493858 -0.14917681 0.52232796 -0.088417888 0.90295583 -0.42053914 0.0065479106
0.14600101 -0.13877232 0.77812684 -0.0033500437 0.99981511 -0.01893484 0.0018101338
0.11053873 -0.13830371 0.76889068 0.011361956 0.99990374 -0.0079614464 0.00048752426
0.21313605 -0.1925526 0.88352197 0.97891206 0.18686979 0.082527801 0.0053666122
0.15787508 -0.30058166 0.89229715 -0.082202829 -0.9936772 0.076474197 0.012076159
0.17623778 -0.35783091 0.92130214 0.16513509 0.1668804 0.97205007 0.0029685872
-0.041479021 -0.13782668 0.82014066 -0.023088977 0.9984526 0.050590534 0.016395207
0.15739264 -0.14831701 0.88738412 0.14711766 0.92597735 0.34773898 0.018864656
-0.16036551 -0.19376385 0.90514141 -0.5222066 0.13961454 0.8413133 0.049774043
0.1802683 -0.14568837 0.53145558 0.76945943 0.63108349 -0.098315224 0.06359528
0.024232741 -0.42582873 0.94273078 0.021698214 0.17671546 0.98402286 0.00062563882
-0.042542033 -0.14061889 0.88886577 -0.090260305 0.73765445 0.66911811 0.04396509
0.16216706 -0.14918344 0.88459498 0.11986524 0.93642306 0.32976404 0.01586098
-0.11968814 -0.31204489 0.91587996 0.10903496 0.5494017 0.82841367 0.010902341
0.036542587 -0.35815704 0.93234318 0.019510705 0.17805932 0.98382628 0.001184193
0.083243474 -0.46330199 0.95107269 0.13110122 0.25358334 0.95838827 0.0027917402
0.017613938 -0.14049396 0.66034281 -0.0028124936 0.99916822 -0.040682632 0.00072436541
-0.13447455 -0.24015856 0.90420723 0.33132395 0.31982258 0.88765866 0.07068681
0.16199824 -0.13896723 0.62348592 0.14744896 0.98568547 -0.08174938 0.0039449716
0.079927601 -0.13882332 0.70761943 0.015177969 0.99981725 -0.011624882 0.00032956747
-0.18974796 -0.49798036 0.97338432 -0.29688215 0.29280093 0.90891618 0.058425676
0.014058902 -0.13725376 0.81083608 -0.0031522166 0.99989206 0.014347623 0.00086468965
-0.12890819 -0.1504782 0.89391941 0.056735594 0.68038696 0.73065364 0.076495782
-0.09800569 -0.13955419 0.57091171 0.0069356454 0.99696118 -0.077590615 0.0014409571
-0.16736601 -0.28169852 0.92480779 -0.71315378 0.36391103 0.5991497 0.023969058
-0.13958563 -0.2336725 0.9048363 0.18688646 0.27688602 0.9425537 0.12264147
0.10013534 -0.14444305 0.88127917 0.038956057 0.95631111 0.28974366 0.0045173676
-0.0314558 -0.30735308 0.8868466 0.22116522 0.90147412 0.37206244 0.010881305
-0.044382419 -0.13795216 0.70260495 0.01942322 0.99958909 -0.021083238 0.00013512951
-0.11073613 -0.13811661 0.77462894 -0.11977608 0.99278617 0.0054224529 0.015088964
-0.091997951 -0.1369466 0.74241227 -0.018308356 0.99977535 0.010686191 0.00082920067
0.025164207 -0.14050706 0.64898401 -0.012423584 0.99860609 -0.051299304 0.00073817343
-0.16901858 -0.1441617 0.7546708 -0.30625203 0.95183903 -0.014562616 0.01153088
-0.01388258 -0.13821095 0.71542543 0.010439849 0.99961716 -0.025623193 0.00017416588
-0.032802366 -0.13707301 0.78410184 -0.0094407592 0.9999541 -0.0016193513 0.00055129576
-0.036353741 -0.13794899 0.75437492 0.0021989078 0.99999189 -0.0033895103 0.00047346589
0.029304702 -0.1370789 0.81116349 -0.0073406999 0.99988264 0.013446181 0.00098109257
-0.15305804 -0.13891819 0.57543433 -0.058862586 0.99282819 -0.10405461 0.0036840648
0.0081139486 -0.14913663 0.89567131 0.063374877 0.94331664 0.32578722 0.0083286529
0.07781893 -0.27670792 0.86586457 0.26661357 0.95928931 0.093173169 0.010156811
0.072567321 -0.3578963 0.93153387 0.0052193031 0.23733404 0.97141409 0.0023456083
0.019905817 -0.45041397 0.94721037 0.034562383 0.2058592 0.97797102 0.001060979
0.10404664 -0.14801632 0.88820052 0.041825276 0.90120095 0.4313786 0.0029267536
0.1131327 -0.29258907 0.88342488 0.1830887 0.89536345 0.40595922 0.03856232
-0.045133475 -0.29956561 0.86349982 0.32327831 0.86637777 0.38063189 0.018607477
0.12267961 -0.3003718 0.88708091 -0.1297126 0.88611764 0.4449383 0.048587821
-0.048140287 -0.4303053 0.94749326 0.066576637 0.17400579 0.98249149 0.002312189
0.014269836 -0.46694943 0.95240921 0.10321821 0.22819383 0.96812892 0.0020171546
0.15171415 -0.14199001 0.57565552 0.20802543 0.97121131 -0.11607715 0.012264268
0.12487417 -0.14052902 0.57779115 0.01679814 0.99583608 -0.089600891 0.0047915601
0.17170691 -0.13734189 0.80422926 0.27029878 0.96277505 0.0016890906 0.022113256
0.1785067 -0.14308475 0.70227605 0.3345609 0.94231844 -0.010244799 0.0079482254
0.1779723 -0.14374544 0.51357883 0.70124882 0.63188285 -0.3301124 0.085729308
0.16834792 -0.42081979 0.94122165 0.056640096 0.13186902 0.98964763 0.012589874
0.14740922 -0.36051536 0.92867702 0.13051526 0.25439498 0.95825315 0.0039540553
0.15945108 -0.37761429 0.92991483 0.15686028 0.28672603 0.94508362 0.0018572173
0.21170235 -0.20936704 0.88756782 0.96744746 0.05171651 0.24773133 0.022414457
0.1250744 -0.13819906 0.70955414 0.021777734 0.9994188 -0.026227647 0.00047573852
0.083273917 -0.13745362 0.67501664 0.015059146 0.99985909 -0.0074237594 0.0011056213
-0.018393403 -0.13689491 0.76520455 -0.0093820486 0.99994218 -0.0052483599 0.00041901722
-0.084117696 -0.16127685 0.8836965 -0.19921653 0.59974539 0.77499563 0.20395836
-0.029215857 -0.13761464 0.71814233 0.014014201 0.99977028 -0.016219255 0.00043166964
-0.0084853619 -0.13732177 0.73244399 0.0040560956 0.9996779 -0.025053879 0.00018803641
-0.15525673 -0.14520045 0.88524604 -0.23832376 0.81415528 0.5294838 0.10286176
0.16756389 -0.14029534 0.72994292 0.17192395 0.98343915 -0.05735508 0.015252252
-0.012105579 -0.13689779 0.83019048 0.0045003528 0.99967617 0.02504495 0.0012647328
-0.064735197 -0.13747001 0.76949173 0.00035739128 0.9999947 0.0032230637 0.00040097727
-0.16041155 -0.16115034 0.89743418 -0.4456301 0.37698975 0.81196833 0.065994129
0.23221655 -0.3401151 0.90275353 0.81941754 0.16866407 0.54782039 0.014087993
-0.15076292 -0.14700198 0.54873741 -0.076302156 0.94395822 -0.32112435 0.015657218
-0.01522974 -0.1399582 0.55109358 0.053754225 0.99057335 -0.12599574 0.0066955993
-0.10361818 -0.14051904 0.86303777 0.022463357 0.98056018 0.19492888 0.032868344
0.091596551 -0.35007945 0.92977256 -0.022265589 0.27343485 0.96163273 0.0021490657
0.089557208 -0.43470657 0.94092065 0.1346962 0.2527006 0.95812273 0.0019598571
-0.14338858 -0.14368357 0.89114636 -0.15732944 0.81478512 0.55800778 0.087115489
-0.043487661 -0.13791543 0.87488276 -0.11082482 0.95865113 0.26211792 0.051246751
-0.14079174 -0.3883346 0.94568849 -0.048232544 0.15152764 0.98727554 0.00041762131
-0.059636544 -0.14087945 0.8858375 -0.091375612 0.8525964 0.5145191 0.037865005
-0.14750099 -0.18569885 0.90674281 -0.21844827 0.22162749 0.9503482 0.029439155
0.070511475 -0.14170413 0.61914086 -0.06071201 0.99558669 -0.071562007 0.0034148458
0.11164535 -0.13836887 0.73908103 0.0052131107 0.99974817 -0.021827899 0.00046587709
0.1037467 -0.13840346 0.74839038 0.010888699 0.99980712 -0.016345916 0.00037189623
0.17756306 -0.13836515 0.78148544 0.17763847 0.98409569 -0.0004738287 0.0083729355
0.19828092 -0.25331643 0.89678377 0.68719488 0.1518935 0.7104165 0.018531486
0.23965479 -0.2977531 0.87151146 0.86336637 0.32280967 0.38780451 0.050304998
0.15859425 -0.30287901 0.87970424 -0.082202829 -0.9936772 0.076474197 0.012076159
0.22968139 -0.29938808 0.84288448 0.68313074 0.70443553 -0.19262132 0.03829816
0.11870465 -0.29455471 0.87216902 0.27909151 0.95986909 -0.027555598 0.021715559
-0.11569237 -0.1389042 0.84088248 -0.016166713 0.99781328 0.064087756 0.002024187
0.073483109 -0.32747135 0.92018092 0.024564736 0.30439866 0.95222789 0.0035415536
-0.020318331 -0.32747769 0.91900426 -0.018661018 0.71042663 0.70352376 0.020970291
-0.097084604 -0.30650082 0.90810186 0.20047298 0.67865449 0.70656824 0.010557977
0.17353745 -0.30680838 0.90353984 -0.14403541 0.55678183 0.81807566 0.035890214
0.22992569 -0.36662808 0.90846598 0.82787651 0.18986507 0.52779895 0.012883252
-0.099571563 -0.1374041 0.82596409 -0.01558925 0.99906951 0.040213797 0.0016358107
0.20047946 -0.16713627 0.87459528 0.60797286 0.60102051 0.5187903 0.08169809
-0.073968507 -0.29604909 0.8872931 0.42337778 0.72569716 0.54232371 0.020004192
0.0054402733 -0.42348677 0.94221455 0.077322714 0.18565801 0.97956735 0.0010680006
0.16316894 -0.1429088 0.60360128 0.27404803 0.95823926 -0.081701957 0.020468863
-0.038163461 -0.13716304 0.73144406 0.015901789 0.99983174 -0.0091400072 0.00052017649
0.22442661 -0.48211268 0.95318162 0.67907983 -0.058266576 0.73174834 2.2528982e-06
-0.071486793 -0.13663326 0.73569554 0.0046512606 0.99998701 0.0020698204 0.00057348132
0.18581568 -0.14502311 0.68436921 0.44172817 0.89712948 -0.0059101935 0.017001899
0.17874037 -0.1419802 0.66321188 0.47202015 0.88119918 -0.026171917 0.017556248
-0.16043375 -0.13930285 0.80576098 -0.25417364 0.96684521 0.024617553 0.022288525
-0.083699122 -0.13744524 0.69452512 -0.0041553918 0.99975854 -0.02157574 0.000382089
-0.065740019 -0.13792871 0.68554175 0.016305767 0.99964583 -0.021033073 0.00024865501
0.018915899 -0.13590436 0.77697629 0.0037918359 0.99998337 0.0043546571 0.00079570367
-0.036694515 -0.13804117 0.61414707 0.020510532 0.99978775 -0.0019261169 0.00048246194
-0.098110512 -0.13894872 0.70230305 -0.022108484 0.99966437 -0.013506936 0.00054898445
-0.13348916 -0.13647281 0.83526266 -0.046714626 0.99699849 0.061738785 0.0028534718
-0.12659362 -0.14734533 0.55223787 -0.025796013 0.96399784 -0.26465583 0.0097797606
-0.025023166 -0.13880584 0.61486769 0.023906002 0.99970675 0.0038478724 0.00047730829
-0.015944935 -0.13866058 0.70018274 0.015132216 0.99938297 -0.031697001 0.00032200271
0.05537416 -0.41077897 0.93882543 0.011354099 0.14974484 0.98865944 0.00036786543
0.076366238 -0.28930548 0.90400761 0.19056034 0.73064196 0.6556288 0.030203631
0.052281298 -0.13638808 0.83083558 0.0020631994 0.99922615 0.039278053 0.0017791844
-0.10169492 -0.17313671 0.87603676 0.28317302 -0.012853901 0.95898271 0.20163681
0.087330073 -0.1348244 0.6338321 -0.042977028 0.99833453 -0.038485844 0.003312883
0.1998814 -0.23568784 0.55547482 0.99388427 -0.027486831 0.10695146 0.015290847
0.17319794 -0.13971114 0.52671701 0.58909589 0.78842181 -0.17707951 0.082276739
0.15670913 -0.14784697 0.52618182 0.22575191 0.9418031 -0.24908429 0.072113045
0.080464669 -0.13673234 0.77092588 0.022043182 0.999668 -0.013342478 0.00032494511
0.17298751 -0.13849649 0.83888406 0.19544442 0.9798314 0.041616756 0.021071207
0.2170679 -0.22622775 0.87360638 0.99129325 0.034928679 0.12695596 0.0306368
0.13673291 -0.29542512 0.90178561 -0.085238591 0.86629975 0.49219823 0.045725517
-0.12799214 -0.1369542 0.700059 -0.059196491 0.99808878 0.01773534 0.0013750822
-0.072324373 -0.1395373 0.87894022 -0.11061944 0.939017 0.32559246 0.064592756
-0.11063557 -0.22381252 0.88716781 0.60839665 0.032605972 0.79296309 0.0039887866
-0.16018315 -0.48500434 0.98385948 0.11933973 0.089908779 0.98877418 0.0317945
0.036699001 -0.14395823 0.52249998 0.041313082 0.89018512 -0.45372206 0.026122356
0.078699492 -0.13762407 0.67801863 0.005752869 0.99997848 -0.0031683925 0.0012645154
0.11110777 -0.12878701 0.61302048 -0.046067782 0.99753356 -0.052958533 0.0049591297
-0.073258907 -0.1444664 0.53658879 -0.041043341 0.94261378 -0.33135277 0.0091240332
-0.15390328 -0.25285304 0.91622078 -0.28378105 0.39259657 0.87483495 0.059920378
-0.14720041 -0.13790599 0.67693281 -0.1891121 0.98162347 0.025534129 0.0041568018
0.063421667 -0.13796526 0.66025406 -0.022911906 0.99910092 -0.035669699 0.0010099594
0.22579534 -0.48515871 0.95159602 0.67907983 -0.058266576 0.73174834 2.2528982e-06
-0.16027452 -0.14063476 0.57849967 -0.15534481 0.98321038 -0.095735982 0.012285147
0.25361803 -0.48395866 0.60137874 0.95991182 0.26626518 -0.087591328 0.0011653383
-0.16587824 -0.14288582 0.55852115 -0.18261938 0.94975287 -0.25420389 0.017913816
0.0053842566 -0.38179883 0.93607891 0.042273477 0.1584864 0.9864558 0.0010767579
0.22884387 -0.38015443 0.92215466 0.82024008 0.22472839 0.52602607 0.01385156
-0.1715997 -0.14623612 0.55110413 -0.24303535 0.91347516 -0.32633877 0.019256722
-0.15425184 -0.13897362 0.58429998 -0.080997333 0.99424875 -0.070063293 0.004984227
-0.045001537 -0.14279991 0.87683874 -0.16262285 0.95101643 0.26290992 0.073872238
-0.1959385 -0.16446665 0.73524439 -0.56616592 0.8217622 -0.064521417 0.0036380847
-0.17835625 -0.20001078 0.86074257 -0.961191 0.0074891639 0.27578211 0.019289091
-0.1304411 -0.14181669 0.6931414 -0.081539504 0.99635214 0.025172979 0.0020857225
-0.11538514 -0.1398069 0.5919283 0.0044548921 0.99894869 -0.045626793 0.0010153071
-0.10127241 -0.13969976 0.57331246 0.0035250955 0.99753147 -0.070132032 0.0013347082
-0.057605725 -0.14668714 0.53717893 -0.017936405 0.94016683 -0.34024209 0.0088948281
-0.082345366 -0.14058267 0.56940782 -0.02820565 0.99406552 -0.1050634 0.002276659
-0.028647076 -0.13901474 0.73022932 0.012094799 0.9998343 -0.013605362 0.00052845071
-0.075920746 -0.15001883 0.5252139 0.026571909 0.91863239 -0.39421904 0.0078477645
-0.018001914 -0.14438188 0.65337867 0.025951119 0.99954402 -0.015434627 0.00051368796
-0.024494544 -0.13674977 0.78422904 -0.010855395 0.99994034 -0.0012616648 0.00045822508
-0.094749376 -0.14562839 0.53562701 -0.043567177 0.95685577 -0.28727859 0.006216153
0.12747197 -0.14148621 0.57810599 0.034782268 0.9959451 -0.082966991 0.0045655612
0.1698872 -0.1472172 0.58479911 0.40405166 0.91190833 -0.071870834 0.027158702
0.16843326 -0.1419449 0.70514286 0.21033651 0.97742981 -0.019734826 0.010202642
0.19142357 -0.16483858 0.5665096 0.67970163 0.73163962 -0.052049812 0.037710894
0.097095601 -0.14028518 0.68972814 0.023724103 0.99967349 -0.0094983289 0.00057104375
0.16222304 -0.1498142 0.88593704 0.1224125 0.93614167 0.32962698 0.01679104
-0.16125944 -0.18114874 0.90103763 -0.5608924 0.26447153 0.78450906 0.049080346
-0.10069829 -0.15451169 0.89721841 0.032538868 0.76499599 0.64321256 0.07518737
-0.16479813 -0.23550503 0.90677786 -0.58926052 0.23662774 0.772515 0.099850178
-0.047379892 -0.29910326 0.8615098 0.32327831 0.86637777 0.38063189 0.018607477
-0.13870496 -0.35396555 0.94004065 -0.020814152 0.13330993 0.99085575 0.0037179322
-0.11681255 -0.36179137 0.94028634 0.0052732346 0.12736577 0.99184185 0.0021699956
-0.14279191 -0.33841655 0.93816316 -0.067089625 0.223997 0.97227794 0.012880526
-0.19839264 -0.36552987 0.93042505 -0.45411515 0.13698816 0.88034868 0.0084346803
-0.12631132 -0.35019886 0.9397065 0.027961196 0.20485041 0.97839379 0.01294706
-0.1441108 -0.35191476 0.93966395 -0.079853386 0.14894731 0.98561561 0.0062315743
-0.17684695 -0.27728444 0.91579801 -0.78653902 0.3890461 0.47958261 0.02460069
-0.053001393 -0.16668192 0.90402699 -0.063248657 0.64105958 0.76488048 0.033350937
-0.17170212 -0.14502575 0.75378948 -0.33100507 0.94357526 -0.010070024 0.011202871
-0.013989864 -0.30132428 0.85935622 0.084884621 0.98382556 0.15773949 0.0023426795
0.03053564 -0.28493023 0.78694928 0.17220302 0.69915509 0.6939224 0.064721353
-0.19170126 -0.31313989 0.61282808 -0.41552284 0.88131839 0.22498608 0.011189346
-0.011912512 -0.14966415 0.89598095 0.046115227 0.87788576 0.47664452 0.027922349
-0.062995479 -0.2997835 0.88144547 0.3432247 0.77058464 0.53702539 0.02167806
-0.069961421 -0.13707983 0.8044219 -0.0052187811 0.9999122 -0.012178208 0.00063612458
-0.017122613 -0.13778582 0.7221185 0.010150921 0.99972194 -0.021283947 0.00016191474
-0.16433822 -0.15369931 0.89083427 -0.50318336 0.42838791 0.75052667 0.066397555
-0.1855821 -0.31098169 0.61151624 -0.29686335 0.94044846 0.16561681 0.008711529
-0.18683265 -0.31412905 0.92019713 -0.43772653 0.32953438 0.83654201 0.044965517
-0.16476056 -0.19632362 0.90246171 -0.61024004 0.11767982 0.78342742 0.051962677
-0.10391462 -0.13813373 0.79997134 -0.026615836 0.99945378 -0.019583395 0.00054683851
-0.099209242 -0.13888973 0.6925267 -0.01257618 0.99982822 -0.013610956 0.00058319233
-0.20117949 -0.37472221 0.93036193 -0.48408693 0.082589969 0.87111354 0.0094327703
-0.22811489 -0.37440625 0.76148254 -0.9788838 0.19921611 0.045820583 0.001411924
-0.24466352 -0.49910635 0.47920761 -0.59069616 0.32650283 -0.73788476 0.031290863
-0.1935028 -0.30172563 0.90628135 -0.79129541 0.38878334 0.47191003 0.027513675
-0.22804506 -0.37584305 0.77213466 -0.97943145 0.19906239 0.032986648 0.0013637787
-0.19236565 -0.30985427 0.82757056 -0.84951371 0.52244627 -0.07332439 0.017048232
-0.1709851 -0.30979538 0.64248043 -0.31417775 0.94925535 0.014374948 0.0066221999
-0.17637372 -0.329786 0.92906302 -0.31820601 0.22258344 0.92152137 0.010984205
-0.19397198 -0.25385526 0.5136438 -0.61036348 0.060812667 -0.78978366 0.15340236
-0.22857401 -0.35028276 0.70194721 -0.97813624 0.18881321 0.087172769 0.00099297857
-0.18258901 -0.30110154 0.58669162 -0.53272176 0.53405648 0.65649915 0.054461077
-0.23919895 -0.43932 0.81672281 -0.98681468 0.16151401 0.010492244 0.00064824166
-0.1931925 -0.30618092 0.82128644 -0.87995315 0.47282422 0.046040852 0.024984159
-0.1619703 -0.30737069 0.64370203 -0.31417775 0.94925535 0.014374948 0.0066221999
-0.044157926 -0.30039737 0.86239117 0.32327831 0.86637777 0.38063189 0.018607477
0.00070723234 -0.39047137 0.93658465 0.06530261 0.15366392 0.98596299 0.00089925574
-0.13545461 -0.44863114 0.95426899 0.044416167 0.22418399 0.97353417 0.0086494153
-0.04981342 -0.33800179 0.93148977 0.050163109 0.61030108 0.79057968 0.010239347
0.021882838 -0.43224114 0.94298148 0.020430611 0.18430008 0.98265767 0.00056327204
-0.01977733 -0.34121761 0.9301554 0.063476607 0.18335563 0.98099518 0.0041665197
-0.014962366 -0.34387913 0.93013632 0.065603547 0.17163448 0.98297399 0.0037734015
-0.1113137 -0.42718512 0.95169842 0.034912355 0.17026652 0.98477948 0.00088076352
-0.12058929 -0.42103064 0.95196253 -0.0008375108 0.1869036 0.98237789 0.0015088469
-0.047409922 -0.43893158 0.94779205 0.059900712 0.1737192 0.98297179 0.0028080903
0.0027361698 -0.41794074 0.94090211 0.10580564 0.19013689 0.97603953 0.00069504522
-0.0026965092 -0.35070184 0.93181932 0.044973701 0.17196184 0.9840765 0.0032620502
-0.090021111 -0.46365565 0.95812035 0.02797517 0.3069956 0.95129973 0.0038136768
-0.073958866 -0.41944197 0.94812256 0.066561081 0.14614122 0.98702198 0.00085182232
0.045232754 -0.37115946 0.93410671 0.010972055 0.13888329 0.99024796 0.00037994696
0.017819684 -0.45123956 0.94751889 0.086256571 0.20839109 0.97423452 0.0014006636
-0.075308114 -0.49382907 0.97345978 0.084165782 0.44688654 0.89062256 0.0074675246
-0.046494957 -0.49599504 0.96851718 0.21080051 0.36932084 0.90507746 0.0019470707
-0.13044661 -0.45755717 0.95827532 0.10460461 0.27738175 0.95504832 0.012348864
-0.16928309 -0.50396693 0.97234941 0.040834561 -0.18841916 0.98123938 0.049602002
-0.19980365 -0.50083113 0.9693312 -0.37454221 0.37424576 0.84832662 0.029186962
-0.1518849 -0.50171882 0.97088182 0.10363908 0.020531952 0.994403 0.034858201
-0.029610921 -0.49464184 0.96451801 0.18214054 0.35723415 0.91608328 0.0014418467
-0.12828252 -0.4598774 0.95936382 0.084447913 0.26642355 0.96014947 0.011326286
-0.035121586 -0.4683018 0.95647883 0.11325987 0.31390482 0.94267493 0.0022009716
-0.2274294 -0.36988276 0.76743209 -0.97428483 0.21793783 0.057203066 0.0014094079
-0.22746879 -0.37012812 0.76722169 -0.97428483 0.21793783 0.057203066 0.0014094079
-0.22768232 -0.36736 0.75932139 -0.97570652 0.21307299 0.050956957 0.0015292321
-0.22748283 -0.37015817 0.76703793 -0.97428483 0.21793783 0.057203066 0.0014094079
-0.22768606 -0.3673788 0.75928211 -0.97570652 0.21307299 0.050956957 0.0015292321
-0.21457641 -0.33730641 0.91222531 -0.53988498 0.29953596 0.78663999 0.0074546193
-0.19604577 -0.32058468 0.91870451 -0.59846675 0.3747952 0.70807219 0.029816808
-0.19037458 -0.31656232 0.92021412 -0.47970033 0.34443071 0.8070038 0.038116269
-0.2099964 -0.33278671 0.91266733 -0.5652898 0.3252224 0.75807512 0.011411892
-0.19016124 -0.33043101 0.92597204 -0.37965137 0.28562704 0.879933 0.01555951
-0.18813066 -0.33368978 0.92688292 -0.34416214 0.23467466 0.90910953 0.011150093
-0.17926021 -0.2603032 0.90196276 -0.68182594 0.36092255 0.6362769 0.057144605
-0.17865022 -0.22314849 0.88303465 -0.91315752 0.023549234 0.40692598 0.072454378
-0.17532082 -0.27770546 0.91839111 -0.78658408 0.38903156 0.47952068 0.02462147
-0.16535386 -0.25432405 0.91250694 -0.54166174 0.43183213 0.72119582 0.077948935
