# .PCD v0.7 - Point Cloud Data file format
VERSION 0.7
FIELDS x y z normal_x normal_y normal_z curvature
SIZE 4 4 4 4 4 4 4
TYPE F F F F F F F
COUNT 1 1 1 1 1 1 1
WIDTH 582
HEIGHT 1
VIEWPOINT 0 0 0 1 0 0 0
POINTS 582
DATA ascii
0.0048505845 -0.31500393 0.49893907 -0.12167012 0.86124295 -0.49341351 0.072973065
0.00071053044 -0.16782504 0.50428921 -0.074559964 0.92026436 -0.38412803 0.015553588
-0.025373129 -0.48621276 0.45450658 -0.044795915 0.22607741 -0.97307879 0.0074499515
-0.10325824 -0.40748686 0.4736219 -0.014543308 0.099891841 -0.994892 0.017101042
-0.067153312 -0.35658243 0.47628394 -0.034509026 0.33755147 -0.9406743 0.054524794
-0.070592925 -0.35464668 0.47688186 -0.058329131 0.35633877 -0.93253446 0.058824778
0.059751239 -0.46645427 0.45834684 -0.12559818 0.31830066 -0.93963277 0.027912233
0.036724985 -0.44891083 0.45982373 -0.065771163 0.17678724 -0.98204911 0.009900284
0.018438414 -0.45763889 0.46085468 -0.071156241 0.16951062 -0.98295623 0.008765121
-0.15155855 -0.31135541 0.50290197 0.0067802472 0.53113723 -0.84725863 0.032382805
-0.0098592257 -0.45568928 0.46014515 -0.076414146 0.17166325 -0.98218763 0.0067450544
0.026742555 -0.43664467 0.46280307 -0.067604393 0.15616469 -0.98541474 0.0084617948
-0.048959985 -0.4065834 0.47342137 -0.05577581 0.050971363 -0.99714142 0.023831336
0.027574789 -0.47037035 0.45981345 -0.079694122 0.21676219 -0.97296607 0.009542875
-0.11968178 -0.47830555 0.46089625 -0.056387313 0.20579964 -0.97696829 0.0073164986
-0.14642264 -0.43958482 0.46949607 -0.085710622 0.1162905 -0.98951012 0.012459479
-0.16270034 -0.33269939 0.48608008 0.00013000537 0.48149031 -0.87645143 0.033533998
-0.17567945 -0.41566867 0.47607884 -0.15903571 0.074660376 -0.98444575 0.010429909
0.038230512 -0.30764127 0.55106348 0.068039417 -0.97842705 0.19506727 0.019476285
-0.062745742 -0.42653847 0.46933341 -0.027846048 0.13345779 -0.99066329 0.012578668
0.18232514 -0.25848299 0.49014574 0.13718621 -0.064201519 -0.98846251 0.087932944
0.0069173393 -0.31731319 0.49454382 -0.05280323 0.77090758 -0.63475448 0.076017313
0.15514123 -0.25954816 0.49101138 -0.022795497 -0.25355142 -0.96705323 0.080611825
-0.068009377 -0.25985837 0.59103805 0.41391689 0.72977412 -0.54415303 0.036957733
-0.10576358 -0.26720071 0.5596087 0.34755823 0.60900533 -0.71296263 0.024697738
-0.016974017 -0.30215147 0.57227474 -0.11286216 -0.96912181 0.21923731 0.02560558
-0.019693559 -0.31069708 0.51573616 -0.090039141 0.88638818 -0.45410222 0.04927177
-0.11535411 -0.4015373 0.47788739 -0.039118569 0.10427761 -0.99377865 0.017701609
0.091874287 -0.30931553 0.50641048 -0.20080717 0.75125992 -0.62871701 0.051949415
0.096431315 -0.50805807 0.39345539 0.29675594 -0.85718292 0.42091963 0.11681054
-0.09887889 -0.24248454 0.56380349 0.40596089 0.5511952 -0.72895801 0.018386645
-0.13008283 -0.15814345 0.50925374 -0.097892873 0.88723582 -0.45081005 0.03484026
-0.010032028 -0.42282659 0.4665055 -0.056788925 0.11517826 -0.99172026 0.0083020572
-0.043151021 -0.3005268 0.56073374 0.13043134 0.94141608 -0.31100392 0.039484341
0.093976431 -0.27160236 0.54252404 -0.60086817 0.49485174 -0.62775731 0.050175108
-0.14752445 -0.37994754 0.47213715 -0.11120814 0.22117761 -0.96887213 0.024086447
-0.083088368 -0.14226769 0.5274806 -0.068384238 0.96396238 -0.2570993 0.012236198
-0.14386223 -0.16369398 0.51356882 -0.21776316 0.85656327 -0.46784464 0.050752133
-0.067598917 -0.16643338 0.49457702 -0.0013558702 0.90900731 -0.41677809 0.013409884
-0.13614143 -0.17525996 0.5167343 -0.22238332 0.84693706 -0.48295277 0.051398512
-0.16682807 -0.37493709 0.47583398 -0.12104726 0.21646275 -0.96875769 0.020541191
-0.21107957 -0.47994232 0.47154433 -0.30677783 0.16204594 -0.93788505 0.025259636
-0.19398125 -0.2218319 0.51060879 -0.51140642 0.11927337 -0.85102135 0.06131785
0.20418087 -0.36663213 0.47183946 0.51987255 0.3168239 -0.79331905 0.057192691
0.0067657819 -0.30517593 0.57661462 -0.049051281 -0.98098892 0.18776269 0.013880218
-0.083005302 -0.41546017 0.46896777 -0.00840519 0.10459572 -0.9944793 0.017263664
-0.18883406 -0.51598513 0.45940158 -0.1920559 0.31264293 -0.93025208 0.0093265595
-0.14274438 -0.44095984 0.47037634 -0.094441481 0.11693915 -0.98863852 0.012934526
-0.20201863 -0.23090933 0.51951057 -0.67278749 0.15305741 -0.7238304 0.086043254
0.1535168 -0.40379718 0.45486635 0.15526773 0.1868958 -0.97003192 0.013159103
0.12577701 -0.34634185 0.46685559 0.0036875082 0.55307204 -0.83312523 0.036048986
-0.057046548 -0.1389866 0.65789336 0.019488966 0.99960613 -0.020193022 0.00057354651
-0.20370382 -0.42443091 0.47837785 -0.45221689 0.1543074 -0.87845832 0.03423918
-0.18374488 -0.4129107 0.472204 -0.18648557 0.06784153 -0.98011255 0.013603796
-0.11895377 -0.46153072 0.46203408 -0.048239652 0.18965705 -0.98066467 0.012233504
-0.02771778 -0.49315178 0.45757332 -0.04081272 0.22776178 -0.97286123 0.0084095364
-0.025446478 -0.36558035 0.47462675 0.13488217 0.31152025 -0.94061786 0.041935574
-0.24457018 -0.45587096 0.48677814 -0.68616432 0.29318902 -0.66574681 0.038769331
-0.19698259 -0.34817338 0.47978398 -0.33342397 0.32070792 -0.88655233 0.02829566
-0.1055975 -0.31267828 0.53327882 0.28183025 0.6722886 -0.68454343 0.017156571
-0.19726782 -0.15301321 0.56313276 -0.4497807 0.83205664 -0.32462159 0.054373346
0.17952089 -0.14513986 0.51536804 0.49688372 0.78252321 -0.37518534 0.10239339
-0.015681736 -0.29332486 0.61083668 0.20560254 0.89796954 -0.38907379 0.052029707
0.085260704 -0.48684117 0.45006067 -0.25792405 0.25327888 -0.93237597 0.046008788
-0.088153139 -0.15674263 0.50669229 -0.067710735 0.92293233 -0.37896073 0.01609852
0.14963244 -0.210079 0.49163851 0.38092852 0.2085036 -0.90078843 0.067728013
0.041082505 -0.4430497 0.46093416 -0.053225785 0.15864587 -0.98589981 0.010966106
0.23632942 -0.48797506 0.45760944 0.65424633 0.28726315 -0.69960099 0.064798266
0.14160652 -0.33524618 0.46462107 0.025239974 0.56000292 -0.82810616 0.030322867
0.05993728 -0.45020914 0.45568076 -0.19766384 0.15218645 -0.96838439 0.017903278
0.2144109 -0.35788465 0.47924414 0.66296208 0.2806631 -0.69405293 0.062286612
0.14110714 -0.23936418 0.49618056 -0.24995802 -0.015754526 -0.9681285 0.07092949
0.17166413 -0.23204598 0.4868314 0.54963487 0.15029916 -0.82177347 0.053050734
0.20592329 -0.30901411 0.69980299 0.20416011 0.9789238 0.0051855822 0.01781206
0.20184326 -0.3082644 0.72446734 0.26303512 0.96463519 0.017073995 0.026096134
0.24558024 -0.37701368 0.76160115 0.97545016 0.1740095 -0.13497293 0.0095145851
0.21023692 -0.30518338 0.73420042 0.32951033 0.94404376 0.014294752 0.029261224
0.18003081 -0.3054091 0.69398582 -0.14377131 -0.98941451 -0.019716229 0.012797503
0.25164974 -0.42665049 0.79390758 0.98818403 0.12478649 -0.088997774 0.0014535977
0.2564728 -0.40336546 0.8573423 0.99166709 0.12865582 -0.0066427584 0.0072902897
0.21963716 -0.31407368 0.71134037 0.29816669 0.95155871 0.075051129 0.033496823
0.1385285 -0.29944286 0.7547785 -0.33339217 -0.83880603 0.43041155 0.068306223
0.14964464 -0.26482126 0.78164035 0.60509807 0.49232692 -0.62567616 0.054628801
0.1909638 -0.18418229 0.50635475 0.68621767 0.36109999 -0.63143659 0.079165764
0.18487982 -0.16984342 0.50079769 0.67774504 0.40857562 -0.61133265 0.088918149
0.22950986 -0.31300285 0.69001001 0.33202508 0.94048882 -0.072388351 0.038582329
0.24841835 -0.34942502 0.87852949 0.98204106 0.1558699 0.10630106 0.014035215
0.23296469 -0.31287035 0.67618251 0.41437754 0.90318614 -0.11200877 0.036807481
0.26133507 -0.436874 0.87051976 0.98550153 0.16812074 -0.022850038 0.0072832769
0.25554484 -0.44924572 0.82902825 0.98294264 0.16686311 -0.077333108 0.0029313287
0.2524876 -0.37053084 0.81209219 0.98430842 0.15102656 -0.091257244 0.005101535
0.24683587 -0.33113539 0.88100278 0.96883714 0.24734868 0.013160621 0.035229914
0.25370157 -0.38098019 0.8671782 0.98965144 0.13907148 0.035344165 0.0082794568
0.11572772 -0.29284844 0.74985927 0.44566882 0.71650195 -0.53666025 0.049571715
0.24000283 -0.31888208 0.80411357 0.84419936 0.49522719 -0.20512795 0.046774216
0.11867411 -0.30975685 0.71452332 -0.16300938 -0.94080055 0.29719064 0.048535682
0.25115332 -0.42549908 0.77704298 0.98842168 0.1235438 -0.088088386 0.0016898289
0.10093876 -0.28463301 0.71450442 0.43872696 0.79701948 -0.4150646 0.078812808
0.11691062 -0.28695565 0.75417006 0.44333634 0.62995118 -0.63766319 0.05619818
0.12313131 -0.30083662 0.69727665 -0.16224481 -0.95388907 0.25253174 0.04076099
0.26304701 -0.4653179 0.84683746 0.96936399 0.22814249 -0.091018826 0.0034530531
0.24868792 -0.41815099 0.76857805 0.98838007 0.12234338 -0.090204358 0.0018156946
0.26177222 -0.43762162 0.885198 0.98552406 0.16793036 0.023272352 0.014820753
0.26397637 -0.45628396 0.88605213 0.98137379 0.18708551 -0.043640364 0.0072532943
0.15881462 -0.3055459 0.71545172 -0.1632517 -0.94026631 0.29874414 0.025992978
0.20165551 -0.30727944 0.71572417 0.20633334 0.97834903 0.016111957 0.013664724
0.25318334 -0.38214973 0.85394281 0.9916907 0.12806256 0.012231151 0.0081485994
0.24935661 -0.37823904 0.79938954 0.98574507 0.14023648 -0.09295366 0.0051201349
0.24985518 -0.38823062 0.79794234 0.98982298 0.10873071 -0.091804959 0.0018063686
0.24699144 -0.38111338 0.78658193 0.9847613 0.14233647 -0.099927858 0.0039441967
0.11996432 -0.2991575 0.71331072 -0.093433045 -0.90153539 0.4224976 0.061589617
0.26149088 -0.46349552 0.84009099 0.97112095 0.22205895 -0.087257832 0.0032044086
0.184761 -0.30145732 0.79832858 0.4661065 0.83532619 -0.29150441 0.043592393
0.16404167 -0.14017139 0.71430629 0.1102208 0.9905234 -0.081944175 0.0088956589
-0.010318319 -0.14092244 0.67643684 0.018115265 0.99956477 -0.023285067 0.00083086011
0.1184034 -0.13723966 0.73100477 0.013046128 0.9995172 -0.028197264 0.0011388757
0.23204768 -0.31554747 0.65979254 0.60952085 0.7893253 -0.073824145 0.064574108
-0.062926009 -0.13894153 0.8522048 -0.052088976 0.98815417 0.14435387 0.045561653
-0.0082826288 -0.14027725 0.59757107 0.028200455 0.99941844 -0.019167699 0.0011897532
0.12042954 -0.13796999 0.7654627 0.0016442287 0.99978119 -0.020852853 0.00088160287
-0.00064671144 -0.13855633 0.70208561 0.0093152402 0.99953389 -0.029073616 0.00072972354
0.15673195 -0.14001633 0.70819646 0.1071086 0.99165088 -0.071808003 0.0094923647
-0.16281413 -0.14283195 0.86818779 -0.46697709 0.84405154 0.26364625 0.11666702
0.052947927 -0.14380255 0.60735154 -0.013790278 0.99938923 -0.032109801 0.0042299554
-0.0068942783 -0.14037727 0.59958863 0.027486971 0.99949372 -0.016024642 0.0010437676
-0.072064564 -0.14007172 0.60481578 0.01081926 0.99971694 -0.021189496 0.00097443518
0.015943896 -0.31367955 0.5034045 -0.085438773 0.88990843 -0.44806615 0.050090775
-0.012698103 -0.3113845 0.51316738 -0.09216278 0.89741033 -0.43146354 0.055823706
-0.021725813 -0.31096748 0.53111142 -0.019833812 0.92961591 -0.3679958 0.048966672
0.17295043 -0.14110857 0.69770652 0.15300161 0.98688281 -0.05150523 0.013225384
-0.10000442 -0.14000705 0.59537643 0.0024601752 0.99901062 -0.044401642 0.00054758543
0.011285635 -0.15940396 0.50652015 -0.079876713 0.92524916 -0.37085545 0.020603104
0.21167506 -0.15253067 0.85369414 0.75957417 0.53591323 0.3685703 0.098349586
-0.18612416 -0.14700338 0.65270799 -0.37205777 0.92630357 0.05945427 0.029695246
-0.030887611 -0.1372755 0.73475695 0.0080388887 0.99978977 -0.018863415 0.00025267474
0.093959659 -0.30770829 0.51432252 -0.25481954 0.74320805 -0.61863458 0.05387222
-0.007757206 -0.13695744 0.74215007 0.0092505617 0.9998011 -0.017670007 0.00039248102
-0.021787202 -0.13964298 0.59499359 0.022388726 0.99954802 -0.020062193 0.0011821593
0.19683193 -0.18759678 0.53822839 0.87200737 0.40143463 -0.28009531 0.090357527
-0.18010612 -0.14631353 0.77083296 -0.25875479 0.96593708 -0.0033854186 0.015181133
-0.023263192 -0.13904589 0.68014735 0.018836372 0.9995839 -0.02184457 0.00070788036
0.11173058 -0.13994581 0.71318728 0.01680446 0.99971277 -0.017089838 0.00089261576
0.20645845 -0.13992369 0.86364967 0.54911989 0.77461904 0.31373984 0.10060763
-0.14788356 -0.13747795 0.84301913 -0.18234128 0.97044736 0.15806197 0.040399142
-0.058042493 -0.13642399 0.74929571 0.0018298558 0.99996132 -0.0086071827 0.00017901874
-0.071856424 -0.13685271 0.72736329 -0.0048506074 0.99986368 -0.015784688 0.0021756517
-0.020634022 -0.14062802 0.65161383 0.023645945 0.9995575 -0.018044606 0.0008093387
0.17493142 -0.13945256 0.52179277 0.42349064 0.851996 -0.30782893 0.089826465
-0.049388159 -0.13856328 0.62593573 0.012068212 0.9998644 -0.011202323 0.00064095639
-0.17916682 -0.14575669 0.75266242 -0.24064818 0.96941829 -0.048130769 0.015013574
-0.029013697 -0.13965511 0.57314575 0.0060424614 0.99443144 -0.10521279 0.0087633869
0.0076743662 -0.30941719 0.52873206 -0.020758966 0.95642602 -0.29123574 0.035321288
0.16542593 -0.22558677 0.4901402 0.45031077 0.15870585 -0.87865394 0.081400394
-0.031009866 -0.14006121 0.55015832 -0.0058727399 0.98863494 -0.15022132 0.011563662
0.16393727 -0.13709517 0.84824234 0.18570191 0.97904962 0.08352609 0.048036203
-0.097442701 -0.13760234 0.82060945 0.014534036 0.99457228 0.1030281 0.030160505
-0.049949978 -0.14057313 0.89244926 -0.11085249 0.98127586 0.15751009 0.070997424
-0.011665623 -0.14144109 0.87489104 -0.031822775 0.99250025 0.11802799 0.016627697
-0.071668305 -0.1435103 0.89355719 -0.059290804 0.97507763 0.21379486 0.098123111
0.017457817 -0.13892345 0.65782756 0.0057657994 0.99966186 -0.02535617 0.0010190849
0.12424266 -0.15439975 0.49750626 -0.027830197 0.73677844 -0.67556113 0.10273962
0.0058592679 -0.14157236 0.65037042 0.012567059 0.99969059 -0.021464871 0.00094953255
-0.16185749 -0.13867158 0.62141711 -0.17413239 0.98462486 0.013848978 0.021145953
-0.025553308 -0.13998565 0.55536389 0.0016828453 0.98926699 -0.14611004 0.011612301
0.11748652 -0.13877901 0.60109037 0.0044060843 0.99886268 -0.047475141 0.0060689226
0.083803557 -0.14403822 0.59490544 -0.020063685 0.99889535 -0.042489972 0.0050872937
0.011763947 -0.1403013 0.65340757 0.0088391295 0.99969125 -0.023222292 0.0010169839
0.065195806 -0.13857961 0.75716966 0.012697039 0.99983263 -0.013169242 0.00063330482
-0.10057361 -0.13780597 0.74819696 -0.032077368 0.99942923 -0.010600354 0.0034305369
-0.041608267 -0.13724691 0.79555768 -0.00054411509 0.99991387 0.013107726 0.0045337835
0.11574172 -0.14254557 0.54283696 0.014632395 0.99121326 -0.13146132 0.025685491
-0.13387573 -0.13825911 0.73382699 -0.088685244 0.99603343 -0.007241311 0.008108194
0.14957754 -0.14368102 0.57161146 0.23104207 0.97147512 -0.053438123 0.045049448
0.03522101 -0.13819337 0.8621673 0.0050461041 0.99624264 0.086459249 0.0062763263
0.06868542 -0.13720855 0.79184204 0.012652074 0.99991703 -0.0024273854 0.0031058246
0.043765713 -0.13632336 0.83568114 0.003870625 0.99794668 0.063933179 0.0047714538
0.0085288938 -0.3143416 0.50184304 -0.097038522 0.88068771 -0.46365157 0.061818812
0.021712022 -0.30988368 0.5197683 0.061284728 -0.96582365 0.2518509 0.030675652
-0.0037079337 -0.450349 0.45977035 -0.076053984 0.17165278 -0.98221743 0.0070977835
-0.038298957 -0.13925044 0.62659389 0.017752418 0.99975938 -0.01288675 0.00069180608
0.072731882 -0.13867678 0.6412577 -0.01510902 0.99952537 -0.026846876 0.0048759184
0.081845529 -0.13973671 0.63012946 -0.018298451 0.99938583 -0.02988532 0.004892604
0.04924709 -0.14025404 0.74062264 0.0081664724 0.9998039 -0.018041935 0.00048366864
0.059313722 -0.14024627 0.87574083 -0.01406406 0.99320716 0.11550617 0.0097212857
-0.030651573 -0.1395928 0.56992191 0.0078407964 0.99133044 -0.13115822 0.0096721463
0.084235378 -0.13909225 0.73948735 0.015846901 0.99968946 -0.019230869 0.0005752006
-0.044242613 -0.13974029 0.55933821 -0.0049285009 0.99000585 -0.14094023 0.010063801
0.022169663 -0.13754185 0.81879318 0.0050283493 0.99941283 0.033893172 0.0035238061
-0.0054674749 -0.30818155 0.5395788 -0.057713255 -0.97919244 0.1945544 0.017338609
0.0094562154 -0.13891786 0.66673881 0.0097092912 0.99964929 -0.024638128 0.00090645236
-0.0553305 -0.13665247 0.73608714 0.0060611744 0.9999091 -0.012041973 0.00023158702
0.040575843 -0.30989122 0.53847492 0.070786819 -0.9780553 0.19595172 0.022187896
0.08332064 -0.30568641 0.53646606 -0.18606481 0.84927148 -0.49408278 0.05401928
-0.021687789 -0.14118096 0.53564173 0.0025106 0.97936046 -0.20210564 0.01510227
-0.068295062 -0.13948834 0.60638547 0.009325848 0.99973589 -0.021004317 0.0010749925
0.029677596 -0.14058083 0.64866149 0.0033134902 0.99961591 -0.02751546 0.0012088883
0.071072325 -0.14049307 0.62760782 -0.016796337 0.99944741 -0.028683748 0.0048865546
-0.089426853 -0.14014496 0.59176886 0.0023236328 0.99907494 -0.042940326 0.00082528766
-0.0069653005 -0.13842049 0.72755051 0.0083400542 0.99961358 -0.026517719 0.00054265483
-0.040287666 -0.14065875 0.55615836 0.00024649579 0.98907083 -0.14744058 0.010285935
-0.030791976 -0.49152216 0.45644337 -0.036101125 0.22915137 -0.9727211 0.0073419306
0.040194381 -0.13714737 0.75178802 0.0081547033 0.99984628 -0.015521625 0.00044385303
-0.060590699 -0.13813381 0.69107997 0.0045429878 0.9997195 -0.023245433 0.0022418695
-0.0097953295 -0.1381889 0.69389868 0.015730403 0.99957085 -0.024713527 0.00068287086
0.070636682 -0.31010354 0.5395689 -0.15224658 0.91159636 -0.38185474 0.044581082
-0.16645399 -0.14359729 0.88150519 -0.49268499 0.80052125 0.3412143 0.12309273
-0.11211081 -0.14269938 0.87372684 -0.020504275 0.95502496 0.29581571 0.091512412
-0.13595711 -0.13705169 0.83784127 -0.13215145 0.98253894 0.13097027 0.033356011
-0.1656988 -0.14126495 0.55913854 -0.16932364 0.95701033 -0.23550086 0.033147551
0.1048845 -0.30551779 0.51432669 -0.52774835 0.55093724 -0.64649034 0.044606425
-0.14989325 -0.31402421 0.50153995 0.024015885 0.50920951 -0.8603074 0.031789221
-0.12593549 -0.47385076 0.46279478 -0.060898658 0.19483526 -0.97894359 0.007667596
-0.077024847 -0.15407892 0.51078832 -0.063305259 0.94261301 -0.32783106 0.015498778
-0.17099157 -0.13927835 0.62910235 -0.24621348 0.96890581 0.024502533 0.022230152
-0.13651706 -0.30935848 0.51394606 0.22232278 0.6646266 -0.71333301 0.031774886
-0.10594604 -0.13755493 0.73272747 -0.041328881 0.99914426 -0.0015789926 0.0031042248
0.089562349 -0.34165022 0.4677389 -0.2377695 0.59903306 -0.76460785 0.050164606
-0.10492979 -0.40829685 0.47605389 -0.016788511 0.10339358 -0.99449879 0.016148347
-0.098567508 -0.34825066 0.48415992 -0.017230693 0.46703285 -0.88407212 0.052237544
0.091747388 -0.13827501 0.80968028 0.0038763443 0.99997181 0.0064311693 0.0030582238
-0.09848202 -0.31610763 0.5284521 0.22702517 0.72208995 -0.65348727 0.018075224
0.053887099 -0.13689551 0.79209918 0.012732514 0.99991506 -0.0028042013 0.0028577065
0.062662572 -0.14137991 0.62430346 -0.011044954 0.99966246 -0.023514226 0.0044451929
0.1812745 -0.14642073 0.51737446 0.51068485 0.78609878 -0.34820935 0.1012122
0.18323861 -0.14206496 0.65609837 0.27305594 0.96177399 -0.020768967 0.012707287
0.020576712 -0.13776444 0.8195793 0.0039161509 0.99940854 0.034165099 0.003449311
-0.10265715 -0.14142397 0.86964577 -0.0030249883 0.96626842 0.25751922 0.074159697
0.09318658 -0.30492228 0.5280602 -0.27277166 0.78744441 -0.55274498 0.054076385
-0.005518036 -0.13732485 0.81890583 -0.011543817 0.99888992 0.045669366 0.0057592723
0.010839561 -0.3828994 0.46635616 0.0023325582 0.21943894 -0.97562349 0.013922746
-0.046057209 -0.13604964 0.82688195 -0.020936318 0.99758548 0.066217639 0.021548761
-0.016569201 -0.36067355 0.47371894 0.14888775 0.38300896 -0.91166693 0.047071315
0.14615613 -0.14072764 0.87789297 0.056810051 0.98671448 0.15220769 0.018697493
-0.15597062 -0.14128436 0.89129519 -0.28804216 0.87479889 0.38956204 0.098368511
0.042318892 -0.14336239 0.61158049 -0.0083366297 0.99981129 -0.017543051 0.0042452924
-0.010504808 -0.15223967 0.51449716 0.0014314727 0.95915014 -0.28289381 0.016735148
-0.025593607 -0.49344102 0.45655352 -0.032929193 0.22013228 -0.97491407 0.0089096297
-0.16523924 -0.14067239 0.73164022 -0.18732952 0.98182845 -0.030338624 0.015511802
0.15006259 -0.14079453 0.58815271 0.14042692 0.98909074 -0.044493895 0.024332399
0.041661769 -0.30947018 0.54491353 0.064417191 -0.98407125 0.16569331 0.018634088
-0.019505126 -0.13747662 0.7460503 0.0093563125 0.99981731 -0.016666371 0.00036527944
0.1608219 -0.13582416 0.78104132 0.077690005 0.99697644 0.0015273938 0.0074198316
0.080006629 -0.13790099 0.64068741 -0.013859748 0.99960661 -0.024382597 0.0045334441
-0.018724211 -0.30915487 0.51508945 -0.11111388 0.88682157 -0.44855461 0.05256892
0.11608254 -0.3807345 0.45662814 0.016608935 0.18854579 -0.981924 0.014133528
0.072016269 -0.13739917 0.67863423 0.0029592717 0.99966848 -0.025578137 0.0007376108
0.18609297 -0.26025268 0.48932397 0.40957308 0.032313209 -0.91170484 0.082608104
0.19015376 -0.21188967 0.49684244 0.67017287 0.21122514 -0.71151406 0.051287662
-0.14541423 -0.31214359 0.50838906 0.05262379 0.54025733 -0.83985275 0.033044253
0.10226359 -0.30567902 0.51774126 -0.51508057 0.57368135 -0.63685304 0.046258319
0.017552722 -0.1391893 0.71497834 0.0032093881 0.99953842 -0.030210188 0.00065351278
0.029867504 -0.1438303 0.61463445 0.014463802 0.99966085 -0.021656318 0.0015915354
-0.063441694 -0.13888651 0.6221053 0.015383772 0.99980021 -0.012765097 0.00070700113
-0.18638898 -0.14530742 0.61435837 -0.28378314 0.95863372 0.022100044 0.021775279
-0.020565078 -0.13900743 0.6921829 0.019224567 0.99956864 -0.022200964 0.00066208176
-0.12105957 -0.30311453 0.52549034 0.28983361 0.66017377 -0.69294083 0.018978482
0.040692579 -0.13799159 0.74464566 0.0073753507 0.99984986 -0.015682256 0.00044499594
-0.10952671 -0.49171144 0.45516363 -0.022937207 0.19544752 -0.98044586 0.0085185543
-0.16267671 -0.15984091 0.5223698 -0.41068953 0.79724067 -0.44242677 0.06823761
0.089037634 -0.13815144 0.8073709 0.0059956056 0.99996018 0.0065984176 0.0031554687
0.16948132 -0.1402138 0.65614635 0.21242978 0.97711217 -0.011193923 0.01120937
-0.067116663 -0.13717812 0.66165304 0.011195549 0.99979901 -0.016629349 0.0022978128
-0.19803038 -0.41193464 0.48096338 -0.42133409 0.11841651 -0.89914131 0.028378652
-0.13764238 -0.14519911 0.89421016 -0.12552787 0.85763997 0.4986949 0.12577997
0.10990859 -0.13933218 0.60430574 -0.0042832671 0.99904501 -0.043481927 0.0049137478
-0.01274064 -0.14002334 0.56882143 0.036783859 0.99371135 -0.10575815 0.0081966426
0.05732948 -0.45804864 0.45773795 -0.15071081 0.24662252 -0.95732111 0.024762822
-0.19468063 -0.36861554 0.48639065 -0.4640722 0.3062188 -0.83118415 0.03052509
-0.1537516 -0.13898262 0.56232792 -0.11409412 0.96802026 -0.22342628 0.023338418
0.17679642 -0.14866257 0.5946362 0.40876868 0.91027254 -0.06566602 0.029268067
0.016593993 -0.3085292 0.53602642 0.0098480256 -0.98187762 0.18926027 0.017516222
-0.1462083 -0.44356698 0.47149819 -0.064779721 0.15119369 -0.98637933 0.0065825614
-0.1463933 -0.13532974 0.81889892 -0.17686175 0.98362845 0.034568813 0.013174027
0.17090051 -0.13818002 0.8561275 0.29730895 0.94593942 0.12963808 0.066966325
-0.021739574 -0.13755111 0.76315165 0.0055420101 0.9999333 -0.010132737 0.00033947401
-0.13656098 -0.16549191 0.51326752 -0.17593905 0.8807478 -0.43969178 0.043019794
0.24211544 -0.31344423 0.88456702 0.95187038 0.30379015 -0.040672526 0.055624273
0.060427707 -0.46728104 0.4585079 -0.12559818 0.31830066 -0.93963277 0.027912233
0.21943133 -0.22799852 0.85041845 0.95344424 0.049041498 -0.29755515 0.044765156
-0.068635911 -0.36276296 0.48328337 -0.04722305 0.32647482 -0.94402552 0.058177482
0.16607186 -0.14169796 0.59387827 0.26149008 0.96348584 -0.057602666 0.03066656
-0.17736283 -0.14457637 0.57489997 -0.25094166 0.94920307 -0.18984668 0.042603597
-0.17730077 -0.14224127 0.78726643 -0.24427471 0.96953005 0.018473785 0.01356057
-0.12961763 -0.13700348 0.70694435 -0.11425454 0.99332476 -0.0158714 0.010968843
-0.13069025 -0.28097454 0.5332737 0.040984198 0.779939 -0.62451214 0.072688781
0.19810723 -0.14182203 0.85622913 0.46436414 0.86832994 0.17426746 0.091774061
-0.19653793 -0.23460394 0.5164814 -0.29533327 -0.032039352 -0.95485693 0.096311845
0.043176673 -0.13734744 0.75351244 0.0084297536 0.99982989 -0.016408909 0.00045334178
0.13479429 -0.16466016 0.49537286 0.12013364 0.56880879 -0.81364882 0.11288919
-0.09358722 -0.13747054 0.79160947 -0.0045246379 0.99992782 0.011136055 0.0030513022
-0.17977999 -0.14756988 0.6341725 -0.32034758 0.94696981 0.025013944 0.022667194
0.088484421 -0.14335802 0.59765738 -0.018132687 0.99895477 -0.041960165 0.0046189586
-0.023818564 -0.49265423 0.45612299 -0.044125661 0.22855611 -0.97253025 0.0094775502
0.0027627039 -0.13882835 0.68890101 0.012072287 0.99958885 -0.026008619 0.00082126341
0.15734918 -0.14364849 0.57386565 0.27256393 0.95933276 -0.07341285 0.046537947
0.0010629998 -0.31005996 0.51828402 -0.050847061 0.92481959 -0.37699223 0.049167957
-0.11748061 -0.33833897 0.48448095 -0.028600892 0.48098275 -0.87626344 0.049328685
-0.021412082 -0.14153153 0.53228903 0.0062040519 0.97685707 -0.21380323 0.015600678
-0.052099515 -0.29937446 0.55716372 0.17840135 0.90548152 -0.38506654 0.045707498
0.07269074 -0.31010497 0.54226238 0.17160793 -0.91931635 0.35413012 0.045409791
0.068490893 -0.137178 0.68037248 0.0024421166 0.99966687 -0.025693903 0.00071260089
0.022696024 -0.13949338 0.58499819 0.034938663 0.99834102 -0.045764282 0.0020071859
0.18663548 -0.17445794 0.50258148 0.66405088 0.39957041 -0.6319651 0.086463422
0.015599427 -0.1617243 0.50513613 -0.10119799 0.9030152 -0.41751942 0.020621989
0.016326355 -0.14224009 0.64295954 0.0072309542 0.99973685 -0.021768792 0.0011713427
0.16686177 -0.14581728 0.52079475 0.40884349 0.82521254 -0.38970658 0.1028177
-0.12331679 -0.1518818 0.50872749 -0.047927886 0.92239481 -0.38326332 0.027663767
0.14362891 -0.13872185 0.73212659 0.054790556 0.99680775 -0.058070909 0.0050317869
0.10933479 -0.14264022 0.53968459 -0.030635839 0.98891413 -0.14529413 0.021457713
-0.17386371 -0.1511136 0.88856727 -0.6842134 0.61952066 0.38476765 0.14641178
0.19797829 -0.15134971 0.68624294 0.341943 0.93947911 -0.021308223 0.014503932
0.12164992 -0.37846106 0.45792666 0.030525098 0.18966325 -0.98137456 0.013012452
0.1417298 -0.21465158 0.49194354 0.16115081 0.14837487 -0.97571266 0.10631882
0.12233543 -0.39763808 0.45413643 0.015436325 0.17810079 -0.98389119 0.011719263
-0.022488274 -0.36719221 0.47390151 0.1306268 0.2847898 -0.94964802 0.036674619
0.2268783 -0.28571549 0.88806581 0.94710612 0.26548675 -0.18029664 0.052722342
-0.15418564 -0.13855037 0.59119147 -0.13389298 0.98757374 -0.082284503 0.018722359
-0.20679858 -0.21175689 0.52530801 -0.73266566 0.26968899 -0.62487507 0.060566854
-0.23783886 -0.398325 0.70878237 -0.98370981 0.16121426 0.079529807 0.0057961531
-0.24851193 -0.485553 0.72995931 -0.95907378 0.28138676 -0.031605724 0.031871911
-0.20708571 -0.31390321 0.58590531 -0.8235817 0.42055604 0.38058597 0.049228173
-0.25701037 -0.44879636 0.5383988 -0.93001914 0.215919 -0.29739439 0.017627053
-0.22391722 -0.35288551 0.82764554 -0.93623716 0.35135195 0.0034400984 0.015519526
-0.19864908 -0.17657678 0.6524294 -0.49973348 0.8647235 0.050195944 0.02977461
-0.24464336 -0.41724879 0.66208225 -0.98415494 0.14834881 0.097116418 0.0076298434
-0.22375669 -0.35110861 0.83101785 -0.93610156 0.35153466 -0.011718359 0.014135376
-0.24973246 -0.42002907 0.52127546 -0.8899036 0.1813978 -0.41852883 0.03577311
-0.2058052 -0.33806106 0.92104602 -0.64163542 0.31400901 0.69978738 0.081454195
-0.21546534 -0.34089267 0.85036451 -0.91394979 0.40550423 0.016188154 0.00927258
-0.2365088 -0.34023258 0.56653768 -0.91385663 0.37291086 0.16063499 0.03408397
-0.22091962 -0.29524943 0.5282678 -0.74686897 0.22908556 -0.62426484 0.15310788
-0.23676117 -0.33502302 0.61540961 -0.75717491 0.62235814 0.19838449 0.04513653
-0.19099206 -0.15272556 0.79978722 -0.38638663 0.91643071 0.10421145 0.022367856
-0.21010406 -0.15908319 0.59250551 -0.55513769 0.83129698 -0.027701903 0.031546637
-0.19800077 -0.16382697 0.69212365 -0.43815345 0.89887768 -0.006361153 0.032055199
-0.2283171 -0.37541702 0.79917353 -0.96715212 0.25046062 0.043429878 0.011267116
-0.23273148 -0.35673138 0.66547042 -0.91011912 0.41055396 0.055934943 0.043246984
-0.24313749 -0.35425237 0.52771449 -0.91465086 0.25129455 -0.31664622 0.051933117
-0.25867334 -0.47481418 0.57795477 -0.99139982 0.12243737 0.046212487 0.0056956611
-0.2429992 -0.36512643 0.5227862 -0.87193865 0.20091099 -0.44649512 0.038087133
-0.1736515 -0.21898505 0.85673887 -0.50585604 0.1183103 0.85446608 0.15055996
-0.25046968 -0.41730744 0.52430087 -0.89808083 0.16864675 -0.40621325 0.038737256
-0.22518753 -0.29526561 0.552342 -0.92323828 0.31598037 0.21860366 0.038846891
-0.26207486 -0.47408813 0.57503527 -0.99102759 0.12791702 0.038748067 0.0056254603
-0.036305185 -0.50067574 0.45864555 -0.037826587 0.23323368 -0.97168469 0.010071266
-0.25489384 -0.49802279 0.72686243 -0.93870062 0.34422362 -0.018744575 0.043256044
-0.24318334 -0.47138888 0.86351758 -0.92797482 0.33542389 0.16233733 0.0041444893
-0.21170364 -0.24107279 0.55597389 -0.98065937 0.13463748 0.14205636 0.06375128
-0.23627259 -0.41797164 0.82659352 -0.98575324 0.16738825 -0.016484227 0.0025164867
-0.19790496 -0.15801688 0.78089941 -0.37596825 0.92467624 0.060180604 0.017687522
-0.20485227 -0.15887396 0.56568414 -0.56323475 0.77985424 -0.27311918 0.055227134
-0.12671569 -0.47795507 0.46114498 -0.077485159 0.20823784 -0.97500408 0.0075330986
-0.19768041 -0.29113019 0.88676286 -0.9007498 0.3192853 0.29446006 0.043397702
-0.2405934 -0.51354754 0.95498621 -0.6492523 0.65293229 0.39006522 0.017630029
-0.21113987 -0.33402589 0.91509414 -0.68955362 0.34179088 0.63850993 0.080490053
-0.22254403 -0.34776807 0.82576782 -0.93410963 0.35689852 -0.0079199104 0.014431761
-0.24416392 -0.37439284 0.55685103 -0.9719522 0.23286247 0.032922935 0.013426324
-0.22529247 -0.4931272 0.94723898 -0.75868016 0.5242219 0.38677603 0.018753693
-0.25075898 -0.42961472 0.62728459 -0.98435521 0.13779067 0.10981175 0.0066114268
-0.25488254 -0.43794581 0.58877599 -0.98355162 0.17241774 0.053836878 0.0037345975
-0.21435083 -0.35620716 0.91893125 -0.64716095 0.29063946 0.70477754 0.080744259
-0.24279743 -0.36377677 0.5627569 -0.95545405 0.29001087 0.054784227 0.022211827
-0.22522394 -0.34402978 0.80288279 -0.93839628 0.34059307 0.058383584 0.014850444
-0.24779591 -0.44931075 0.64393759 -0.98429739 0.12376369 0.12586185 0.0082020797
-0.24294457 -0.44545195 0.49284059 -0.71072108 0.32858017 -0.6220215 0.045797333
-0.24316271 -0.38076016 0.49695054 -0.75378215 0.20472227 -0.6244207 0.04761881
-0.21474235 -0.27644792 0.50761908 -0.44417831 0.17236379 -0.87920213 0.10588294
-0.20998137 -0.42762771 0.48081166 -0.50308961 0.18832754 -0.84346521 0.039264873
-0.18763076 -0.42055747 0.47637826 -0.29416898 0.092843749 -0.95123327 0.025714278
-0.1250315 -0.47546515 0.46201655 -0.072502978 0.2055548 -0.97595626 0.0069121947
-0.1928163 -0.28869072 0.88442826 -0.89511132 0.3379629 0.29078662 0.048423585
-0.24159823 -0.45132303 0.48522285 -0.6636377 0.28053555 -0.69345856 0.042237978
-0.24038692 -0.4053967 0.68366021 -0.98595262 0.14582133 0.081446782 0.0060624788
-0.15937619 -0.16467339 0.519041 -0.42086959 0.75952399 -0.49597582 0.06858746
-0.24019288 -0.41510263 0.69113541 -0.98574573 0.150729 0.074740618 0.005817316
-0.14422524 -0.15579157 0.51680273 -0.17761424 0.90217382 -0.39311007 0.041082442
-0.11519935 -0.33979127 0.48360747 -0.028176604 0.47407568 -0.8800332 0.052318957
-0.19830197 -0.17139012 0.69166499 -0.44025764 0.89744902 -0.027539842 0.037655503
-0.24249606 -0.51083732 0.94925475 -0.74133062 0.55057716 0.3837887 0.022810167
-0.22602293 -0.35715669 0.91314751 -0.87991285 0.29523993 0.37227243 0.042973455
-0.23033977 -0.37434617 0.74430513 -0.98445368 0.16863465 0.049125321 0.0044569247
-0.22596632 -0.36106193 0.82303786 -0.94984406 0.3107526 0.035057221 0.015500814
-0.1996876 -0.18463883 0.51933503 -0.6874637 0.44149467 -0.57660747 0.050572418
-0.083948873 -0.43074101 0.47080472 -0.022754973 0.13536364 -0.9905346 0.014856393
-0.22534323 -0.40784919 0.91507953 -0.81891423 -0.03645061 0.57275724 0.039558377
-0.24858212 -0.47083423 0.70234483 -0.9705379 0.24006781 0.020582229 0.021798497
-0.23629464 -0.43240783 0.79614079 -0.98033917 0.19640781 0.018950278 0.0027975501
-0.24590361 -0.39037219 0.55837715 -0.98630607 0.16408575 -0.01661895 0.0034544875
-0.052924316 -0.41632673 0.47193041 -0.047545861 0.098041378 -0.99404585 0.020567345
-0.23569767 -0.40726614 0.72399366 -0.98397899 0.16578621 0.065576456 0.0051090601
-0.18782602 -0.37060028 0.48311412 -0.33118379 0.30508316 -0.89288384 0.025447935
-0.18585031 -0.24347731 0.87847143 -0.77894348 0.22315311 0.58604586 0.12271692
-0.19728141 -0.29315609 0.89102066 -0.8772788 0.30555841 0.37015682 0.053678732
-0.22698757 -0.3501156 0.72650468 -0.98544216 0.15374011 0.072578728 0.0060249218
-0.25695637 -0.49107072 0.64882672 -0.96917778 0.23275588 0.080740981 0.010524602
-0.22884314 -0.3816064 0.78982502 -0.97666121 0.21190615 0.035050668 0.0067803208
-0.22670552 -0.36776605 0.78195071 -0.96747863 0.24985068 0.039492041 0.01037151
-0.25084689 -0.49045858 0.72928232 -0.94902414 0.31448245 -0.021305136 0.04075468
-0.22503279 -0.33581486 0.739429 -0.9770053 0.20173141 0.069029652 0.011831593
-0.2478784 -0.47004282 0.72837478 -0.96609271 0.25806761 -0.008120765 0.023279943
-0.25203022 -0.47732335 0.7084263 -0.96556747 0.26014119 0.0024510883 0.022636767
-0.2507354 -0.40961236 0.5663653 -0.98549294 0.16971122 0.0013628153 0.0039635752
-0.23750243 -0.34673622 0.63821954 -0.8009063 0.56333184 0.2029938 0.031490121
-0.18588702 -0.3850008 0.48093587 -0.3355397 0.10277114 -0.93640339 0.028957658
-0.044508234 -0.44388112 0.46728966 -0.031892959 0.14154854 -0.98941743 0.0088585326
-0.23128909 -0.35108605 0.70193279 -0.98281878 0.1531982 0.102945 0.0051490008
-0.2549018 -0.43877408 0.53612518 -0.9378618 0.18919823 -0.290894 0.020361159
-0.24264543 -0.44711518 0.74014443 -0.96925062 0.24587296 0.0099852476 0.015056899
-0.24064273 -0.43246734 0.7446959 -0.9794721 0.19901592 0.032048587 0.0042857793
-0.26376721 -0.51384217 0.87202209 -0.91348124 0.3740842 0.16004054 0.0031369226
-0.12535906 -0.46588287 0.46377385 -0.039437436 0.1934258 -0.98032188 0.0076955385
-0.213898 -0.24495365 0.55080575 -0.9971866 0.053832971 -0.052163314 0.099265516
-0.24153456 -0.34593058 0.56021416 -0.9423489 0.32231736 0.089944445 0.028279517
-0.24784283 -0.39914948 0.56114775 -0.98705924 0.1597141 -0.014333749 0.0026196227
-0.17176275 -0.24360558 0.84405088 -0.90550148 0.40275863 0.13361381 0.20139094
-0.23588037 -0.39080742 0.67889369 -0.98726708 0.12721331 0.095501445 0.00668405
-0.227321 -0.37713623 0.77422613 -0.97842366 0.20502082 0.02556593 0.0068270252
-0.23222953 -0.37662035 0.73233151 -0.98348117 0.17041598 0.061017882 0.0049319086
-0.26252016 -0.51415771 0.7785722 -0.8897453 0.45603058 0.019731034 0.028331324
-0.24040931 -0.45391834 0.84591568 -0.94979608 0.30002925 0.088712707 0.0032121849
-0.167887 -0.30760026 0.61152232 -0.50078619 0.75197524 0.42865658 0.045357469
-0.23911837 -0.34161845 0.51891339 -0.90585792 0.25735754 -0.33643499 0.058289971
-0.18908411 -0.16345233 0.84728456 -0.82256317 0.51338851 0.24458581 0.062054142
-0.057720605 -0.36248797 0.48163518 0.0015303916 0.34748018 -0.93768609 0.048891991
-0.1824836 -0.16000976 0.87355334 -0.79164177 0.53963166 0.28653294 0.10892458
-0.25430143 -0.49663776 0.74242222 -0.93311429 0.35887161 -0.02255778 0.049324397
-0.25666746 -0.44771016 0.53717726 -0.93628234 0.20305051 -0.28661096 0.018442364
-0.24958292 -0.41293392 0.5222308 -0.87268484 0.18278585 -0.45278087 0.04170258
-0.19846563 -0.17180175 0.6566956 -0.48810834 0.87046027 0.063631929 0.032858081
-0.25850528 -0.49246857 0.50329012 -0.91736662 0.1431945 -0.37139446 0.038293559
-0.2541084 -0.4843719 0.49551752 -0.76950061 0.17737868 -0.61351901 0.0504843
-0.25239071 -0.48227489 0.49236366 -0.69538617 0.19564471 -0.69149202 0.046628173
-0.25114709 -0.49256003 0.48450002 -0.63545489 0.223915 -0.73895818 0.054199446
-0.12665413 -0.48305663 0.45987526 -0.083238073 0.22342405 -0.97116071 0.0089573804
-0.24211006 -0.44661951 0.75445282 -0.96795607 0.25097457 0.0085306326 0.012530519
-0.11087275 -0.40548459 0.47990412 -0.026084833 0.10700206 -0.99391663 0.016450485
-0.17091122 -0.17426956 0.5172013 -0.56001389 0.61348909 -0.55679047 0.05612848
-0.24647762 -0.39051118 0.54182553 -0.96109611 0.18009996 -0.20942371 0.024059802
-0.23891537 -0.34463683 0.51319003 -0.87926883 0.20088777 -0.43189159 0.04217485
-0.2373914 -0.33496904 0.61237788 -0.78264999 0.59175992 0.19307835 0.04965635
-0.17789952 -0.15576263 0.88280934 -0.73144674 0.59931529 0.32527983 0.13213249
-0.20341974 -0.36282381 0.48661858 -0.49715585 0.28482556 -0.81957942 0.030796407
-0.20715319 -0.18617406 0.53476202 -0.71306163 0.46482643 -0.52486134 0.053123407
-0.20711544 -0.17458241 0.53530198 -0.70290256 0.48435548 -0.52089131 0.054292846
-0.24306899 -0.36611459 0.55617589 -0.96598876 0.25606784 0.035986457 0.015557516
-0.19937938 -0.17505451 0.52351785 -0.69770235 0.48361841 -0.52851176 0.051017929
-0.25289825 -0.43599501 0.52832168 -0.92882723 0.19626726 -0.31425974 0.023867607
-0.19184589 -0.5160253 0.45937139 -0.20012556 0.32147375 -0.92552924 0.010141871
-0.24724095 -0.40549308 0.51424903 -0.79002142 0.19582434 -0.58096385 0.042452127
-0.25211492 -0.41855124 0.56198227 -0.98700863 0.15239601 -0.050885633 0.0059110196
-0.25275683 -0.42336822 0.5634231 -0.98977685 0.14009644 -0.026733834 0.0065564523
-0.24201429 -0.34665826 0.54950649 -0.9536792 0.30061379 0.011288091 0.030817643
-0.23687224 -0.34125513 0.56683588 -0.91385663 0.37291086 0.16063499 0.03408397
-0.11509337 -0.25197771 0.78578705 0.10660569 -0.92033136 0.37633166 0.063382529
-0.19170035 -0.15666191 0.81046718 -0.61249292 0.76298976 0.20663738 0.056025915
-0.090696178 -0.25832519 0.75329697 -0.8005234 0.25834399 -0.54075927 0.023072753
-0.21407446 -0.40465665 0.92686474 -0.42251235 0.12134402 0.89819759 0.010978745
-0.21001424 -0.22024539 0.52611107 -0.76938897 0.2331886 -0.59469634 0.056802712
-0.21419929 -0.23818463 0.55202937 -0.98824281 0.1283541 0.083074518 0.069902658
-0.24061109 -0.34602097 0.52795637 -0.92821467 0.28417793 -0.24012576 0.061481547
-0.15232167 -0.18635686 0.51821548 -0.49004021 0.6436854 -0.58781773 0.067415163
-0.23456584 -0.29530251 0.55836064 -0.92404157 0.30936015 0.22459625 0.04107007
-0.22040278 -0.29370382 0.52699322 -0.75092936 0.21831249 -0.62325335 0.15635277
-0.19320825 -0.36400974 0.48451889 -0.39445215 0.33544704 -0.85550153 0.026813267
-0.099431232 -0.41096476 0.47303528 -0.0076557919 0.10672415 -0.99425918 0.016100077
-0.24156398 -0.45907304 0.85305744 -0.93520832 0.32584304 0.13860631 0.0042872126
-0.23097627 -0.34975609 0.65534949 -0.81055462 0.56307983 0.16106603 0.047484916
-0.15782142 -0.30373323 0.62060976 0.29585078 -0.91786128 -0.26458067 0.036627896
-0.21901082 -0.29704657 0.52064985 -0.74288207 0.22519019 -0.63040906 0.13704513
-0.22498141 -0.3542496 0.81607223 -0.94473088 0.32301489 0.056078818 0.016021134
-0.21073014 -0.2372947 0.52883202 -0.88982224 0.098263852 -0.4456014 0.099850759
-0.14236945 -0.18969709 0.51939189 -0.34481764 0.67053729 -0.6568718 0.061315898
-0.090511017 -0.29621461 0.72240943 -0.79370666 0.33635765 -0.50684643 0.01492871
-0.16734745 -0.15773436 0.52148145 -0.44766441 0.77621537 -0.44394419 0.068291217
-0.14601874 -0.16884482 0.51556122 -0.25516447 0.83733225 -0.48349339 0.054997053
-0.1781258 -0.22948487 0.87101579 -0.53132868 0.16172399 0.83158588 0.13054277
-0.1817143 -0.24310756 0.90152431 -0.65008658 0.26714197 0.71135265 0.12757602
-0.25506991 -0.43956736 0.53629357 -0.93295521 0.19834597 -0.30042207 0.019831145
-0.25440007 -0.44298634 0.52845746 -0.91607243 0.19171876 -0.3522146 0.029463114
-0.25272101 -0.43521446 0.52799106 -0.92882723 0.19626726 -0.31425974 0.023867607
-0.24965657 -0.41169861 0.52439117 -0.87196124 0.18141632 -0.45472163 0.041527361
-0.24888009 -0.48547244 0.72802049 -0.96007019 0.27881247 -0.022996096 0.029799532
-0.24800563 -0.46862397 0.6971125 -0.97120184 0.23703261 0.024136972 0.021704253
-0.25415254 -0.4951643 0.74070978 -0.93508852 0.35329083 -0.028195394 0.052840605
-0.25503874 -0.49898967 0.7279278 -0.93418288 0.35610157 -0.0222257 0.04481338
-0.25680223 -0.44831726 0.53723133 -0.93628234 0.20305051 -0.28661096 0.018442364
-0.24766158 -0.46916288 0.72999668 -0.96533448 0.26077375 -0.011243621 0.024613926
-0.054262776 -0.41483989 0.47194523 -0.047394723 0.093651012 -0.99447644 0.021813646
-0.24343392 -0.44294071 0.49193031 -0.71072108 0.32858017 -0.6220215 0.045797333
-0.24329703 -0.44681844 0.48729727 -0.66562015 0.28515121 -0.68966562 0.04125357
-0.25924563 -0.49219149 0.51132488 -0.92794997 0.11635931 -0.35407546 0.037084911
-0.18911111 -0.51543063 0.45906129 -0.1920559 0.31264293 -0.93025208 0.0093265595
-0.25167656 -0.49201044 0.48619002 -0.65596056 0.21750048 -0.72277886 0.054043505
-0.19823095 -0.51880246 0.45759809 -0.2096251 0.32288972 -0.92292982 0.015220576
-0.2189339 -0.51507789 0.4603568 -0.3734414 0.08641354 -0.92362016 0.043636642
-0.24146424 -0.48640919 0.47966921 -0.63690305 0.22205563 -0.73827219 0.050087549
-0.26571825 -0.51446688 0.77368712 -0.87673992 0.47990823 0.031862125 0.045270611
-0.26412746 -0.46747556 0.57108462 -0.99232614 0.12168073 0.02196688 0.0064103776
-0.25209734 -0.41770157 0.56150395 -0.98710585 0.15211976 -0.049815759 0.0056947875
-0.25623915 -0.49956581 0.72277951 -0.9368279 0.34972861 -0.0065824762 0.040480878
-0.24604939 -0.44488984 0.63985819 -0.98463029 0.12204494 0.12493286 0.0077194301
-0.037092146 -0.50081468 0.4589746 -0.037826587 0.23323368 -0.97168469 0.010071266
-0.034209173 -0.51917475 0.45116076 -0.058394112 0.23800752 -0.96950626 0.016033368
-0.078941263 -0.37509683 0.45304433 -0.02969238 0.064582616 -0.99747056 0.033682637
0.031372402 -0.47335553 0.4600364 -0.090841524 0.22958112 -0.96904099 0.0099968053
-0.26066977 -0.50858998 0.86118788 -0.92323011 0.35541672 0.14603142 0.0041359644
0.048081219 -0.46294191 0.46051982 -0.098271295 0.24887218 -0.96353799 0.011588117
-0.017826747 -0.42616472 0.46628284 -0.055831984 0.12545562 -0.99052691 0.0066739689
-0.27620596 -0.50583518 0.74262327 -0.89778888 0.43952468 0.028162749 0.053849023
-0.24348873 -0.44044295 0.68823719 -0.98104292 0.1818049 0.06709595 0.0053973319
-0.15989 -0.5111751 0.45715526 -0.11256345 0.19807887 -0.97370136 0.008773488
-0.24589318 -0.4830265 0.87707514 -0.88470179 0.40679517 0.2276412 0.006994633
-0.24337821 -0.46619332 0.83707923 -0.9573825 0.28386509 0.053285673 0.0032219437
-0.27647641 -0.4768697 0.56210142 -0.98565549 0.14549059 -0.085532151 0.0077451565
-0.2546567 -0.49618885 0.74005222 -0.93508852 0.35329083 -0.028195394 0.052840605
-0.24304104 -0.44398332 0.74188346 -0.97214341 0.23331842 0.022354173 0.0088814525
-0.25204301 -0.42499739 0.6241526 -0.9839229 0.14476466 0.10458999 0.0061672679
-0.14681384 -0.3120099 0.5070585 0.038230311 0.5274815 -0.84870595 0.032197844
-0.18166803 -0.14317426 0.65176779 -0.34174627 0.93800306 0.057963479 0.027406575
-0.025934119 -0.13997121 0.55223858 -0.0018512281 0.9886443 -0.15026318 0.011799266
-0.13998082 -0.31228241 0.51160473 0.1021668 0.60885799 -0.78667271 0.039972775
0.14612012 -0.13740419 0.87113011 0.047992624 0.99078286 0.12667306 0.016684469
-0.16237275 -0.13849363 0.6238187 -0.18354522 0.98291504 0.013757705 0.021307945
0.01660159 -0.13834825 0.71232802 0.0039693485 0.99955398 -0.029597241 0.00074363733
0.081337206 -0.1396838 0.62992281 -0.018298451 0.99938583 -0.02988532 0.004892604
-0.18650556 -0.14531705 0.61500865 -0.28378314 0.95863372 0.022100044 0.021775279
0.035566386 -0.13620248 0.76290202 0.0073987348 0.99992239 -0.010020843 0.0020507893
-0.015820146 -0.13923919 0.68380916 0.02023829 0.99954093 -0.022544524 0.00074192887
-0.0072314478 -0.14037909 0.5972957 0.028573353 0.99940801 -0.01916454 0.0012093169
-0.090848751 -0.14016454 0.59119296 0.0015204054 0.99900758 -0.044514637 0.0008084586
-0.17905331 -0.1458258 0.75467354 -0.23977114 0.9694404 -0.051914681 0.015011037
-0.045304671 -0.14013128 0.56007463 -0.0043162662 0.99036509 -0.13841394 0.010129491
0.17628163 -0.14687094 0.59474033 0.39070988 0.91774476 -0.0713467 0.029311014
0.057372611 -0.14130467 0.87926817 -0.019246552 0.99242938 0.12129943 0.010272335
-0.095969647 -0.13676457 0.82222462 0.015002638 0.99432552 0.10531791 0.029682709
0.054458961 -0.14375319 0.60819519 -0.010688149 0.99950367 -0.029635213 0.0042088474
0.071324095 -0.13750644 0.7927168 0.012692035 0.99991673 -0.0023181797 0.003159631
-0.041613895 -0.1362614 0.82477278 -0.016949531 0.99797112 0.061370809 0.017147822
0.019930797 -0.13800119 0.8243252 -4.6955593e-05 0.99878305 0.049318641 0.0038910827
-0.15492941 -0.14117423 0.89222175 -0.28804216 0.87479889 0.38956204 0.098368511
-0.024044553 -0.14112104 0.53755689 0.0054263598 0.97925299 -0.20256881 0.014859453
-0.059773896 -0.13833787 0.68866688 0.0048732241 0.99973106 -0.022671098 0.002139203
0.038556073 -0.13776523 0.75130951 0.0079333307 0.99984121 -0.015957396 0.00043436489
0.01281667 -0.13876414 0.65490121 0.0079242317 0.99968439 -0.023839144 0.0010226056
0.062736593 -0.14146745 0.62597466 -0.011044954 0.99966246 -0.023514226 0.0044451929
0.025433118 -0.30863765 0.50943959 -0.069855578 0.95256579 -0.29620716 0.031796377
-0.0063623986 -0.13681115 0.79514259 -0.0032929999 0.99997532 0.0062028351 0.004269734
0.037542202 -0.13708252 0.84090203 0.0006246558 0.99717754 0.075076684 0.0047149877
-0.0072713844 -0.14041708 0.59963191 0.027954539 0.99948549 -0.015728917 0.0010316201
-0.14507036 -0.13506795 0.81530255 -0.17193821 0.98464566 0.03016936 0.013549143
-0.041593004 -0.14051184 0.55794179 -0.0016527608 0.98963124 -0.14362231 0.0099654282
-0.033298925 -0.14156546 0.89484334 -0.061221376 0.98422211 0.16600876 0.032758255
0.08301203 -0.13993876 0.74315548 0.016283501 0.99971348 -0.017544148 0.00066104677
-0.099461265 -0.14010461 0.59807825 0.0032798694 0.9991312 -0.041546691 0.0005405246
-0.02861692 -0.13962083 0.57482058 0.009840806 0.99648303 -0.083214678 0.0084228031
-0.0057417741 -0.13868925 0.69712192 0.012819683 0.99957871 -0.026038926 0.00070395618
-0.097483799 -0.13724509 0.74489206 -0.022804499 0.99969614 -0.0093542477 0.0026079554
-0.18260187 -0.14611652 0.68063092 -0.3368344 0.94139254 0.01796619 0.029036865
-0.088818394 -0.13696386 0.72883427 -0.011139316 0.99986374 -0.012181068 0.0027805418
-0.025677238 -0.14327566 0.89491284 -0.041577231 0.98620421 0.16022678 0.021541229
-0.067927383 -0.14229003 0.89285153 -0.075374857 0.97549093 0.20672733 0.093571775
0.11663192 -0.14009863 0.71061164 0.019298248 0.99970073 -0.015033822 0.0011981899
0.027965378 -0.13781385 0.66858798 0.00087362214 0.99958801 -0.028688902 0.0010272211
-0.10629866 -0.13756435 0.81379271 0.0011916509 0.99807578 0.061993551 0.017653367
-0.041894473 -0.1389093 0.62756658 0.01508037 0.99980849 -0.012470892 0.00065378891
-0.16271676 -0.14046004 0.55669284 -0.15653789 0.95963228 -0.23367029 0.032268643
0.0040832045 -0.30945498 0.5288806 -0.023876924 0.94901693 -0.31431961 0.038112015
0.046830878 -0.14079013 0.64206111 0.0018737562 0.99952686 -0.030701542 0.0016878733
-0.13229546 -0.13534451 0.64385414 -0.099056028 0.99506611 0.0055946838 0.014554052
-0.070348166 -0.13793811 0.6664958 0.010819145 0.99979347 -0.017202878 0.0022795505
0.10275648 -0.13869008 0.77993357 0.0053235772 0.99982703 -0.017818609 0.00074107019
0.1490674 -0.13772659 0.78135616 0.036800601 0.99931818 -0.0029821317 0.0043439521
-0.011942106 -0.13733418 0.8208307 -0.0092019886 0.99884111 0.047241565 0.0056589395
0.059895605 -0.13616987 0.79099005 0.012475479 0.99991828 -0.0027759413 0.0030368546
-0.14910318 -0.31369412 0.50281096 0.030977985 0.51083225 -0.8591221 0.031781461
-0.020712767 -0.13886958 0.68287921 0.019474111 0.99957269 -0.021799216 0.00073359371
0.0605614 -0.14303321 0.6144411 -0.011727115 0.99948102 -0.030002289 0.0046212082
-0.13842067 -0.13724969 0.84464186 -0.15507393 0.97459304 0.16161849 0.042663183
-0.10889695 -0.14156184 0.86889607 -0.009554863 0.96199691 0.27289301 0.079276055
-0.14641385 -0.14481926 0.90022975 -0.20786992 0.83427632 0.51065952 0.1129453
0.009782969 -0.13889186 0.66822571 0.0095257312 0.99962634 -0.025621865 0.00088940206
-0.073693156 -0.13987504 0.60829598 0.011109151 0.9997496 -0.019426934 0.00088956516
