# .PCD v0.7 - Point Cloud Data file format
VERSION 0.7
FIELDS x y z
SIZE 4 4 4
TYPE F F F
COUNT 1 1 1
WIDTH 1387
HEIGHT 1
VIEWPOINT 0 0 0 1 0 0 0
POINTS 1387
DATA ascii
-0.3452504 -0.58492339 0.84424168
-0.38351789 -0.81957012 0.50021797
-0.17954341 -0.58953828 0.746584
-0.45310789 -0.9540984 0.8605817
-0.23105089 -0.59526908 0.71198922
-0.46642771 -0.85565299 0.69052541
-0.45812351 -0.78854561 0.52091992
-0.4599627 -0.85599768 0.71487939
-0.40999329 -0.61973518 0.79231739
-0.40295449 -0.59861708 0.81388521
-0.48469231 -0.78964257 0.56442332
-0.67358899 -0.95321119 0.57496363
-0.40858689 -0.94764298 0.97548473
-0.22566549 -0.58625412 0.76037937
-0.21385799 -0.75090098 0.56441939
-0.47039291 -0.79685968 0.5250383
-0.43216431 -0.91521788 0.49082389
-0.4681246 -0.78255832 0.52665043
-0.3443408 -0.589185 0.70425588
-0.4764342 -0.7604779 0.56747031
-0.3698127 -0.75633031 0.7220335
-0.491918 -0.88591242 0.58050573
-0.49476001 -0.95288891 0.64882159
-0.48437071 -0.9481436 0.75222027
-0.4417958 -0.86275828 0.83431637
-0.2337983 -0.94451022 0.4377833
-0.3379105 -0.58090907 0.67541343
-0.1772498 -0.59055448 0.82531512
-0.31617549 -0.59280628 0.89347368
-0.37162381 -0.75335127 0.53647858
-0.3974677 -0.5852859 0.58365512
-0.39263561 -0.63210732 0.88443011
-0.4350394 -0.88197958 0.84811962
-0.483922 -0.78295988 0.55507708
-0.44929269 -0.81249791 0.72225177
-0.46226659 -0.86291999 0.69149882
-0.39908171 -0.66933948 0.92273653
-0.2182502 -0.75084472 0.53426808
-0.1949859 -0.58844131 0.69048929
-0.41958559 -0.79210198 0.51232648
-0.41185591 -0.95665801 0.4805513
-0.27549759 -0.57986051 0.78276718
-0.42223969 -0.59887898 0.74567127
-0.4872371 -0.79532242 0.57325172
-0.51848167 -0.95085812 0.57071358
-0.21569879 -0.58546281 0.71313828
-0.4517628 -0.94658709 0.88174742
-0.29947671 -0.75651437 0.55607623
-0.4820129 -0.79110128 0.57808089
-0.56929898 -0.95213312 0.51239222
-0.46629089 -0.88756609 0.69214869
-0.36774191 -0.63192302 0.54778391
-0.051094592 -0.58484042 0.69229841
-0.1914124 -0.72444832 0.58687639
-0.04253006 -0.59165239 0.71555668
-0.2891874 -0.59223551 0.55080402
-0.28526101 -0.81345922 0.48219821
-0.27464029 -0.81846201 0.4822543
-0.47603121 -0.88037229 0.66723251
-0.4816891 -0.77363902 0.59298408
-0.46405211 -0.73420012 0.54309797
-0.475912 -0.94878447 0.49166101
-0.42177361 -0.82782513 0.49601129
-0.41218701 -0.77095628 0.86464483
-0.44788629 -0.84283692 0.76153052
-0.38139239 -0.82404989 0.49547371
-0.41648489 -0.7578162 0.71866173
-0.4704344 -0.91369748 0.70187259
-0.51992428 -0.95689863 0.52433228
-0.51271772 -0.95233262 0.64410359
-0.45889571 -0.97827631 0.86721623
-0.29168019 -0.94925368 0.450165
-0.28266019 -0.9459368 0.43771321
0.61327648 -0.67944592 1.041124
-0.25295079 -0.81050748 0.47686481
0.42471191 -0.66496879 1.098719
-0.49345279 -0.90048981 0.58652782
-0.49560869 -0.92869538 0.60101467
-0.5103358 -0.95455921 0.62204742
-0.51338118 -0.95403951 0.57977462
-0.60322958 -0.95539349 0.4335964
-0.61164832 -0.95101398 0.45358631
-0.46883959 -0.95207739 0.34851879
-0.44591331 -0.95378947 0.26591551
-0.4678517 -0.95139271 0.28794071
-0.64326119 -0.96123642 0.56131488
-0.38689131 -0.7535243 0.82322478
-0.57990909 -0.95466077 0.51335847
-0.3902629 -0.76030082 0.90105522
-0.37854359 -0.75057131 0.83010763
-0.57323712 -0.95346129 0.47086239
-0.3757304 -0.59034401 0.78231412
-0.39450881 -0.75896072 0.91421181
0.41350409 -0.63286573 1.110465
0.54854178 -0.63553703 1.061758
0.38103801 -0.6669156 1.097041
-0.2016739 -0.58363873 0.59009987
-0.38170189 -0.59658962 0.73076701
-0.37331381 -0.58793652 0.72470617
-0.28087729 -0.56940311 0.75811291
-0.26074389 -0.59067982 0.63658148
-0.1747103 -0.59237248 0.78252071
-0.25247899 -0.58112007 0.60401398
-0.2260268 -0.58764499 0.59319222
-0.2197783 -0.59442598 0.72752053
-0.33682451 -0.7949574 0.4921971
-0.1839477 -0.78495419 0.470824
-0.32548499 -0.90831149 0.48597941
-0.1821325 -0.75309008 0.53740889
-0.1606342 -0.59198809 0.72314751
-0.1684984 -0.58644629 0.66478091
-0.048907939 -0.58603787 0.62773478
-0.12891459 -0.58751887 0.66039079
-0.1409122 -0.58060521 0.58298361
-0.1033437 -0.57848442 0.55191147
-0.43643031 -0.94823521 0.4769963
-0.1147505 -0.59076041 0.4845061
-0.083751567 -0.62509137 0.71968633
-0.031460579 -0.59759498 0.76979268
-0.093921557 -0.58107668 0.58640838
-0.059102591 -0.76518881 0.4633761
-0.097553574 -0.59889889 0.49229261
-0.2622048 -0.58728981 0.65689272
-0.3897725 -0.59556907 0.65743428
-0.1167412 -0.58759582 0.55019629
-0.044370029 -0.58238077 0.70881498
-0.079185933 -0.59192377 0.7479521
-0.054981079 -0.60989118 0.61758977
-0.065441974 -0.76246732 0.46020791
-0.085184447 -0.58029473 0.73738098
-0.36864761 -0.75665599 0.54038382
-0.17533819 -0.58128589 0.8452971
-0.27438271 -0.61635 0.58446622
-0.4110873 -0.7009722 0.54282397
-0.308274 -0.58567721 0.87684059
-0.29487109 -0.61076349 0.7642808
-0.27549401 -0.72956938 0.4923678
-0.37463591 -0.87641799 0.52976269
-0.1773386 -0.59692132 0.82075018
-0.4376612 -0.80091769 0.52722442
-0.094841138 -0.59056407 0.51836652
-0.2901977 -0.58919668 0.82666677
-0.24470811 -0.58094108 0.80375701
-0.2917769 -0.5866006 0.77782673
-0.1980108 -0.59530967 0.73650962
-0.2274 -0.56574547 0.68819261
-0.04957962 -0.74655181 0.5412761
-0.052883148 -0.58790177 0.60884321
0.12948459 -0.94926208 0.4018122
-0.22392321 -0.57081431 0.74632531
-0.36941159 -0.75413638 0.53886998
-0.1835898 -0.88120252 0.4508478
-0.070003822 -0.77781647 0.45131499
-0.1133808 -0.57197243 0.69626153
-0.07612665 -0.59032172 0.51586568
-0.2260557 -0.99841541 0.4744831
-0.25619099 -0.87924302 0.4667879
-0.1647311 -0.60337788 0.51791942
-0.1801722 -0.69367862 0.49975681
-0.066186063 -0.58505321 0.80585527
-0.1151436 -0.59049129 0.80712777
-0.032612409 -0.58181018 0.79597872
-0.051189542 -0.5879302 0.61440039
-0.05114099 -0.58271933 0.62287009
-0.064422756 -0.70425689 0.47641021
-0.29638121 -0.94393212 0.44823381
-0.008164525 -0.81256539 0.60581201
-0.006715389 -0.81076568 0.61854398
-0.04702815 -0.81900328 0.44951111
-0.059484448 -0.75393993 0.45800531
-0.058676392 -0.63685429 0.50734103
-0.067406058 -0.86619657 0.43349859
-0.1979977 -0.58446312 0.51627111
-0.01170079 -0.81373489 0.59555751
-0.007567957 -0.91061658 0.52934408
-0.1092476 -0.94489437 0.41667819
0.01506726 -0.92191893 0.65440053
-0.020826699 -0.79451531 0.56466758
-0.01925144 -0.77769488 0.54449528
0.01728636 -0.93413049 0.64819747
-0.29855931 -0.8122403 0.4844237
-0.051163141 -0.81624848 0.4502463
-0.06211162 -0.75669432 0.45842889
-0.043239329 -0.60318351 0.61217999
0.0088470411 -0.78969401 0.71509588
0.01269255 -0.82567531 0.71323258
-0.05008724 -0.7336117 0.50644892
-0.052229319 -0.80812281 0.453668
-0.04104409 -0.77130717 0.46999311
-0.037544399 -0.91104138 0.43598479
0.0064191371 -0.87953472 0.64738768
0.0081939399 -0.88427758 0.66424179
-0.038527161 -0.84280431 0.45797461
-0.072542489 -0.74439043 0.67873019
0.017928811 -0.90549868 0.68394852
-0.1118975 -0.78153312 0.44988731
-0.02306122 -0.78157133 0.56124532
-0.05002493 -0.76453191 0.4584814
-0.026865751 -0.86939102 0.48182109
-0.34740481 -0.94884193 0.46340501
-0.079875588 -0.74810052 0.68445218
-0.021621579 -0.80083352 0.57035798
0.01709816 -0.9093408 0.67334229
0.021243179 -0.93604171 0.67393088
0.0003157407 -0.87743533 0.59991139
0.0082716644 -0.87502873 0.65430599
-0.080182552 -0.64051992 0.47787899
-0.051788151 -0.75192589 0.54197502
-0.047027562 -0.85401231 0.4484323
-0.038639519 -0.9011324 0.4369356
-0.016111869 -0.7921958 0.57192498
-0.01225433 -0.95166337 0.4057197
-0.082604408 -0.68718189 0.55818278
0.0059286649 -0.95228809 0.48022261
-0.05560324 -0.74810988 0.57807422
-0.002722919 -0.78745079 0.66782582
-0.019930961 -0.85332853 0.51457971
-0.1409865 -0.58435369 0.58609509
-0.24155 -0.60565752 0.50850892
-0.2087318 -0.58060622 0.58729333
-0.18536609 -0.867769 0.4544602
-0.1162346 -0.89354432 0.439358
-0.1004171 -0.89652503 0.43747339
-0.13279919 -0.86337698 0.44205451
-0.056948099 -0.77665877 0.4506754
-0.2509799 -0.5847795 0.58205312
0.01515779 -0.88058531 0.70766968
-0.1991623 -0.58453292 0.60735363
-0.042204112 -0.91560543 0.431256
-0.058648169 -0.60919547 0.53045231
-0.04370239 -0.90451008 0.43216351
-0.04422605 -0.59510142 0.59246403
-0.02497836 -0.59556532 0.71797627
-0.063336641 -0.59423172 0.51220548
0.01728183 -0.91829449 0.65220553
0.015710199 -0.86512589 0.70361799
-0.0068160892 -0.88778383 0.54890019
0.0038651449 -0.84046251 0.66990429
-0.1933229 -0.93929487 0.43285039
-0.1187541 -0.66877657 0.61876738
-0.1660466 -0.94340652 0.42875001
-0.01872045 -0.79561877 0.55429149
-0.03363857 -0.79376692 0.47165629
0.031747218 -0.95193458 0.64094752
-0.065520257 -0.74486291 0.78110111
-0.0054939091 -0.87802333 0.57013178
-0.001490146 -0.87895101 0.5860309
0.0020242331 -0.86635321 0.61987722
-0.060252581 -0.68693757 0.52522051
-0.077856243 -0.8636204 0.43745151
-0.02829781 -0.83789539 0.47323
-0.15106229 -0.60110438 0.4938437
-0.1415108 -0.94456607 0.42332539
-0.13730881 -0.73645198 0.69497538
-0.43383661 -0.68563509 0.54084969
-0.087745897 -0.74480742 0.61157823
-0.1100851 -0.6537683 0.60086691
-0.0062783961 -0.89459461 0.54264063
-0.0081290295 -0.88311923 0.57335299
-0.05608416 -0.70325518 0.4728047
-0.23759741 -0.93643337 0.44076949
-0.0272277 -0.81762761 0.46439499
-0.04206267 -0.60301143 0.60883057
-0.048463259 -0.6702171 0.51006842
0.02218261 -0.84881169 0.71554369
-0.030906171 -0.90898079 0.43261161
-0.0021857021 -0.90729141 0.54667872
-0.02899712 -0.94334179 0.40986389
-0.043546941 -0.79889268 0.47362319
-0.037333518 -0.60773438 0.6173178
0.028402681 -0.83459342 0.76276159
-0.0078667402 -0.80595219 0.60476708
0.02073282 -0.85396802 0.7172724
0.0020158291 -0.80572611 0.65223759
0.022534911 -0.87798768 0.69792932
-0.023039371 -0.61127079 0.6949091
0.01819155 -0.76644862 0.7664215
0.019199939 -0.88244611 0.73137158
-0.05183417 -0.8061626 0.45166421
-0.080709517 -0.63930178 0.47513351
-0.060288321 -0.70430529 0.4749299
-0.037785191 -0.91366988 0.4353568
-0.047953811 -0.81782907 0.44786531
-0.04011545 -0.91267443 0.43683901
-0.06178445 -0.75055659 0.4577243
-0.1050514 -0.77357888 0.44660011
-0.1075186 -0.79342401 0.45186779
-0.14233381 -0.59580809 0.48556209
-0.1314791 -0.80502498 0.44947809
-0.1783438 -0.76753187 0.46274069
-0.23905531 -0.85169429 0.47229719
-0.076001972 -0.61562318 0.4827145
-0.20604581 -0.78293622 0.46826941
-0.28662661 -0.81433183 0.4841094
-0.072559789 -0.71677089 0.46657661
-0.071270593 -0.71972358 0.46484289
-0.25153151 -0.59409851 0.51350838
-0.29574409 -0.81718552 0.48033321
-0.3382329 -0.89018959 0.47746149
-0.42507729 -0.80288291 0.51258957
-0.1701581 -0.85212892 0.45283011
-0.34696531 -0.60801739 0.52580041
-0.17530321 -0.60970467 0.4947322
-0.40776849 -0.69590229 0.53992039
-0.3753227 -0.69294709 0.5649032
-0.095965162 -0.5821265 0.67776299
-0.2284779 -0.59619421 0.50224811
-0.30636999 -0.81684142 0.4846535
-0.31787109 -0.89568442 0.4753406
-0.2303181 -0.7891289 0.47516009
-0.1792551 -0.86569571 0.45027149
-0.1176387 -0.79067498 0.45401639
-0.27176169 -0.94826382 0.45165399
-0.2254526 -0.74873132 0.54226559
-0.091927953 -0.58003759 0.67138398
-0.21340109 -0.74605107 0.55901653
-0.14651839 -0.80153418 0.46011791
-0.36380991 -0.81177878 0.49436599
-0.064779967 -0.94674307 0.4146741
-0.1916904 -0.74901229 0.50571638
-0.1701683 -0.83107132 0.45278689
-0.19709539 -0.78290129 0.47046769
-0.21808469 -0.74893051 0.53716832
-0.1886559 -0.74799812 0.52855033
-0.082161397 -0.67679852 0.47172931
-0.18768141 -0.74544942 0.53316981
-0.30046779 -0.80783772 0.48892039
-0.076082259 -0.67471999 0.47189111
-0.27007931 -0.77004498 0.48163101
-0.33105111 -0.79137152 0.48661411
-0.1823996 -0.85206717 0.45258391
-0.35278621 -0.75195992 0.54176342
-0.35946921 -0.74964559 0.53781652
-0.3469007 -0.79269981 0.49603671
-0.1672301 -0.85975373 0.44907311
-0.36924851 -0.75129771 0.53815049
-0.38146511 -0.60761857 0.53367221
-0.39896601 -0.60028732 0.54095411
-0.2077125 -0.84557742 0.46039319
-0.3178654 -0.59827572 0.52246791
-0.2206338 -0.94550449 0.44053239
-0.2480021 -0.74542022 0.5688597
-0.13075469 -0.58685982 0.66590989
-0.09624958 -0.58505547 0.56039047
-0.33792481 -0.59810162 0.52621508
-0.37271571 -0.83319849 0.4924455
-0.19436289 -0.917072 0.44519141
-0.32539889 -0.81154323 0.48776311
-0.2007819 -0.91754562 0.44779009
-0.38816801 -0.78817832 0.4994736
-0.1601167 -0.90706247 0.44150469
-0.33118021 -0.90420538 0.4744831
-0.39205891 -0.74683672 0.52620423
-0.17514969 -0.76196158 0.4640626
-0.26778191 -0.87443602 0.46873999
-0.1684835 -0.76855111 0.46260139
-0.1897631 -0.79010588 0.46877271
-0.2469032 -0.60010642 0.50751388
-0.35119799 -0.79087031 0.49261361
-0.26537079 -0.74658501 0.5906682
-0.34273779 -0.88926369 0.47327071
-0.1573413 -0.58591259 0.70714039
-0.2036671 -0.58483559 0.51644671
-0.1011545 -0.58628893 0.56309658
-0.1020345 -0.69458431 0.47086951
-0.3393335 -0.59903282 0.52535331
-0.053568941 -0.74711502 0.4759784
-0.40803489 -0.58263248 0.58296788
-0.092845917 -0.9467392 0.4190793
-0.43404171 -0.94446129 0.48204541
-0.1117242 -0.58384043 0.67176533
-0.1187994 -0.94770509 0.42367011
-0.046121549 -0.906133 0.43476039
-0.077638783 -0.62985432 0.48023689
-0.35305709 -0.77121729 0.49597201
-0.39397389 -0.87086111 0.49277461
-0.3314881 -0.80930382 0.48964441
-0.41102499 -0.90244353 0.48755899
-0.39222541 -0.91361803 0.48798701
-0.31923941 -0.80510128 0.49303281
-0.3934989 -0.90537733 0.48186961
-0.270886 -0.86999828 0.4699403
-0.3009766 -0.85323471 0.47970659
-0.22377279 -0.86122841 0.4730911
-0.2485456 -0.75077349 0.60522741
-0.4016948 -0.85666537 0.49902821
-0.36274561 -0.74908859 0.55855763
-0.28044331 -0.90272909 0.46693999
-0.076167971 -0.58782917 0.50420582
-0.1876511 -0.94801158 0.43658179
-0.3807689 -0.58585203 0.72686619
-0.045666859 -0.95030439 0.41736561
-0.44478971 -0.70031857 0.53760362
-0.3734467 -0.94648051 0.47025579
-0.082409397 -0.58346528 0.73902392
-0.2275409 -0.74653947 0.59297609
-0.1602439 -0.58116013 0.7073673
-0.25807831 -0.74366039 0.59859782
-0.37848011 -0.8413918 0.49011859
-0.2771548 -0.58379102 0.55955428
-0.43766171 -0.94610298 0.48294541
-0.065886527 -0.74492222 0.46424681
-0.1438664 -0.58169699 0.53276497
-0.084100626 -0.84480989 0.43767801
-0.1417345 -0.68467093 0.52012712
-0.048031639 -0.58463389 0.62766337
-0.25091469 -0.57935452 0.78857982
-0.176431 -0.58351052 0.61861998
-0.093393274 -0.58102292 0.49856079
-0.1980062 -0.57916278 0.71449798
-0.14088321 -0.58076447 0.57590401
-0.15159319 -0.72565311 0.53434211
-0.1214092 -0.88107121 0.43833151
-0.1186165 -0.90030283 0.43479431
-0.25096601 -0.59504658 0.50996917
-0.229744 -0.598194 0.50525862
-0.1976254 -0.87906867 0.4554373
-0.17194261 -0.83367878 0.45350489
-0.1644356 -0.58611798 0.51743358
-0.3351897 -0.79257679 0.49880031
-0.14917541 -0.81369537 0.45672539
-0.04650357 -0.94776827 0.41399869
-0.2282134 -0.78657532 0.475602
-0.095740937 -0.68536037 0.4723382
-0.37035409 -0.7554605 0.53268039
-0.18725979 -0.72503769 0.59052938
-0.085695237 -0.61309773 0.48005131
-0.44555601 -0.81822598 0.50894737
-0.22207759 -0.94331592 0.4389407
-0.096473373 -0.58320719 0.59598511
-0.26260719 -0.61496502 0.511576
-0.19754609 -0.79272473 0.46495599
-0.1435063 -0.65072697 0.51778388
-0.1033471 -0.94768482 0.4135583
-0.2013924 -0.58064491 0.60683101
-0.21693569 -0.58663923 0.59943151
-0.1397848 -0.67098367 0.52065623
-0.3800765 -0.69367641 0.56363612
-0.1737431 -0.584692 0.85594523
-0.090511769 -0.83391899 0.44165921
-0.038991168 -0.90154958 0.43593401
-0.1341999 -0.69847429 0.50958121
-0.1027937 -0.79544759 0.45004809
-0.18681809 -0.71937251 0.58956528
-0.12951881 -0.80194563 0.45259601
-0.1538129 -0.68445349 0.53174812
-0.133688 -0.68273938 0.50951493
-0.080892503 -0.8545292 0.43642539
-0.3172355 -0.59898382 0.52007478
-0.1699781 -0.61212862 0.50436562
-0.1885253 -0.78586972 0.47427011
-0.2458348 -0.79169172 0.47783309
-0.42520049 -0.81670839 0.52890652
-0.2537204 -0.86518222 0.46990269
-0.26154169 -0.90156293 0.46492469
-0.26307169 -0.90872037 0.46733379
-0.31527349 -0.82100582 0.48692089
-0.2173457 -0.74565238 0.55957508
-0.24992751 -0.85020107 0.47225219
-0.3150433 -0.90007693 0.4746027
-0.40741479 -0.86609972 0.49238059
-0.36392799 -0.58120722 0.81449252
-0.26399279 -0.89328289 0.46893701
-0.30561769 -0.74238032 0.60820222
-0.27393731 -0.90156108 0.4655762
-0.29728931 -0.85753918 0.4748843
-0.264936 -0.61622918 0.5155955
-0.2083454 -0.78828532 0.4730399
-0.1805115 -0.86970937 0.4483521
-0.42717779 -0.71523428 0.53593332
-0.25424159 -0.77013659 0.48195121
-0.1142025 -0.68272752 0.48015639
-0.30384511 -0.81194568 0.50189108
-0.1363634 -0.58414418 0.61500531
-0.3420063 -0.94223982 0.46136221
-0.184697 -0.84042358 0.45616001
-0.25954691 -0.60330051 0.50974071
-0.3090474 -0.58546841 0.88207018
-0.29743859 -0.85957837 0.47884291
-0.26511571 -0.9133774 0.46042109
-0.38355139 -0.79118371 0.50871962
-0.32691491 -0.66260928 0.60385412
-0.3086853 -0.84866649 0.48259869
-0.1397264 -0.65679878 0.5137946
-0.15865929 -0.9487319 0.42193779
-0.29514149 -0.74226248 0.6176725
-0.099784791 -0.58578742 0.4870272
-0.2369846 -0.74549258 0.58548898
-0.024410021 -0.94771367 0.34690899
-0.2039427 -0.8921138 0.4546704
-0.1366068 -0.74944782 0.4919765
-0.095404953 -0.58164942 0.57793462
-0.31515461 -0.64945698 0.56937659
-0.1002042 -0.67532909 0.47290501
-0.16540331 -0.66654658 0.54563469
-0.075389482 -0.94649822 0.39173239
-0.084602207 -0.68845463 0.46928611
-0.1197231 -0.62290239 0.48596281
-0.25840259 -0.93043888 0.45661291
-0.28072429 -0.94772297 0.44025809
-0.39466801 -0.82248712 0.49897009
-0.0090592802 -0.94766718 0.3612172
-0.33547691 -0.58255899 0.70949483
-0.1239721 -0.62709391 0.49228999
-0.0344298 -0.94860148 0.41148931
-0.1293796 -0.85875422 0.43707389
-0.077497207 -0.59476161 0.4883638
-0.06073473 -0.70413589 0.47918069
-0.1469091 -0.70742381 0.51943767
-0.081598572 -0.86743641 0.43931401
-0.081680372 -0.65478218 0.47690761
-0.1048801 -0.92940599 0.4277634
-0.1352305 -0.86530769 0.44352749
-0.4077979 -0.68934602 0.54003447
-0.37834021 -0.58951658 0.9064889
-0.3797355 -0.59074062 0.88878733
-0.41355461 -0.69522178 0.54120392
-0.3958526 -0.79096591 0.50471443
-0.24899291 -0.83332872 0.47133729
-0.20839959 -0.91586882 0.44933769
-0.3308135 -0.90265352 0.47494981
-0.2042868 -0.92082381 0.4362748
-0.1956549 -0.74635029 0.54451191
-0.45252991 -0.70586711 0.53993982
-0.366326 -0.80950332 0.4946436
-0.025907841 -0.59202403 0.84097803
-0.1359058 -0.81006628 0.4430711
-0.1308535 -0.87208408 0.44966719
-0.1716807 -0.73170233 0.54612511
-0.27755341 -0.60945761 0.51551688
-0.25517961 -0.78662598 0.48439619
-0.18005949 -0.84890592 0.4495126
-0.092708223 -0.76992917 0.4475953
-0.40474069 -0.70178592 0.53485489
-0.027533101 -0.94822031 0.42519611
-0.1398614 -0.86647183 0.44278371
-0.1162564 -0.57927549 0.66708058
-0.18715391 -0.57824677 0.68500221
-0.39555019 -0.80454278 0.49421021
-0.26966691 -0.59463662 0.59634352
-0.1994369 -0.89766133 0.44996151
-0.14378519 -0.58553511 0.48478079
-0.1182792 -0.92729229 0.43525761
-0.2991598 -0.82464302 0.4781535
-0.31283009 -0.950001 0.4607895
-0.26083291 -0.75116932 0.6524229
-0.1693708 -0.66531992 0.54050893
-0.1208705 -0.94864458 0.39633119
-0.1645194 -0.7460314 0.54261822
-0.2109357 -0.84250408 0.4606483
-0.13089129 -0.70208842 0.5093258
-0.043544188 -0.93656111 0.41936049
-0.2441913 -0.82504672 0.47188509
-0.14816961 -0.65175688 0.53168112
-0.1508985 -0.73582762 0.53244221
-0.1467519 -0.95011079 0.37792239
-0.1139718 -0.5907284 0.48179209
-0.1282741 -0.94836658 0.3963964
-0.082363337 -0.94977647 0.4106088
-0.1638907 -0.82289219 0.45274809
-0.13017569 -0.87112159 0.43857139
-0.21765269 -0.77492023 0.48225689
-0.28905699 -0.58644408 0.79456079
-0.57911807 -0.9558937 0.6709035
-0.32438189 -0.58636361 0.75627917
-0.62100208 -0.95527011 0.56561601
0.50432801 -0.63919753 1.322796
0.44369009 -0.93091363 1.371804
0.39556059 -0.93652022 1.318643
-0.36329359 -0.59030879 0.91767609
-0.33634469 -0.5867961 0.90650117
-0.37450409 -0.58701968 0.89356089
-0.28986371 -0.58345288 0.82365727
-0.2312803 -0.58467382 0.7521112
-0.1853222 -0.58848512 0.65694422
-0.20230059 -0.58256269 0.73218882
-0.2013986 -0.582735 0.72771782
-0.1251106 -0.58362418 0.65992337
-0.20141789 -0.5911141 0.71580797
-0.15898231 -0.58709818 0.77405059
-0.29141191 -0.58002973 0.78908628
-0.25668341 -0.58207792 0.81154883
-0.28336471 -0.58796501 0.77749729
-0.34159639 -0.57974923 0.71571583
-0.23472109 -0.58689427 0.71282458
-0.27660939 -0.58557099 0.65817302
-0.1706835 -0.57985002 0.65657341
-0.1456293 -0.58423942 0.73554599
-0.26312429 -0.58590168 0.66891569
-0.2609514 -0.59043211 0.65902752
-0.17144071 -0.58847111 0.77711928
-0.2681272 -0.59086078 0.79501522
-0.40229201 -0.74719101 0.8747586
-0.19867849 -0.5807941 0.7126677
-0.1029351 -0.58111 0.68707341
-0.40755481 -0.75467408 0.86736739
-0.2286049 -0.60202622 0.71090913
-0.35109699 -0.58038652 0.85294062
-0.2885395 -0.58747178 0.79172373
-0.145916 -0.58155698 0.74840128
-0.32185951 -0.5864321 0.82361323
-0.35762951 -0.58224243 0.85758388
-0.4090524 -0.75714809 0.89995849
-0.2480232 -0.5888828 0.79491228
-0.35733229 -0.58402193 0.92002171
-0.37695569 -0.58903283 0.77727741
-0.22542641 -0.58452958 0.75851268
-0.28542969 -0.59047091 0.82641292
-0.38840121 -0.61110222 0.88307267
-0.39324799 -0.74996752 0.86038327
-0.1598933 -0.58242869 0.71908432
-0.19384129 -0.58977532 0.63913667
-0.31008771 -0.58872533 0.88062978
-0.34199661 -0.59445149 0.85121369
-0.39586499 -0.75019437 0.89127213
-0.2075606 -0.5900045 0.61637938
-0.39271221 -0.62297863 0.8934232
-0.4197475 -0.77902222 0.89576179
-0.076426923 -0.58817118 0.74139899
-0.2390414 -0.58404517 0.76335257
-0.1560082 -0.58479279 0.68413532
-0.2146443 -0.5860489 0.71381432
-0.34247199 -0.59071672 0.69874489
-0.36401379 -0.58832389 0.90830672
-0.3789089 -0.62042809 0.92382252
-0.38268799 -0.61394823 0.91550791
-0.40869349 -0.92128247 0.99047989
-0.1909031 -0.58254731 0.74421948
-0.2376685 -0.59290129 0.75034058
-0.116362 -0.58654428 0.70344442
-0.053181529 -0.58468622 0.7664485
-0.2202154 -0.58187997 0.70425898
-0.39975721 -0.73175132 0.92446399
-0.37561089 -0.58448988 0.9127143
-0.1854897 -0.58014238 0.64345568
-0.158989 -0.58262151 0.791646
-0.1465385 -0.58664763 0.65679431
-0.2260513 -0.58505458 0.74466759
-0.40126231 -0.75796288 0.867293
-0.1592578 -0.58253878 0.71334523
-0.2139305 -0.57902318 0.76587379
-0.26326221 -0.58403552 0.75633663
-0.33457059 -0.58002651 0.81750298
-0.03939813 -0.58576679 0.71864033
-0.19557071 -0.59028709 0.684017
-0.2789619 -0.58348721 0.79270738
-0.30583009 -0.58343577 0.87482071
-0.3430607 -0.58732158 0.70518821
-0.37445039 -0.59496868 0.90124738
-0.38303351 -0.58807212 0.84013951
-0.2151923 -0.58015662 0.69901538
-0.32284281 -0.58471882 0.84216988
-0.02642465 -0.59300041 0.71370232
-0.18497349 -0.57805312 0.68131959
-0.392304 -0.58990782 0.77992642
-0.27241099 -0.60213143 0.72932029
-0.29192981 -0.58884943 0.82567561
-0.40097219 -0.7306453 0.90813488
-0.26638249 -0.59157199 0.80600989
-0.14301319 -0.58475113 0.73610502
-0.041708231 -0.59350872 0.71528947
-0.2276635 -0.58161771 0.68412608
-0.095301151 -0.58355379 0.70181757
-0.28064361 -0.57940072 0.82388759
-0.36055899 -0.59485358 0.80181432
-0.1642088 -0.59027159 0.69423962
-0.3160879 -0.58647668 0.8232094
-0.18237311 -0.58618271 0.65391338
-0.1998357 -0.58897632 0.61752921
-0.40395021 -0.76502287 0.88255948
-0.2563802 -0.59094769 0.67498243
-0.26293129 -0.58741832 0.68381059
-0.1925873 -0.57551652 0.63017529
-0.46795681 -0.95488358 1.159476
-0.1728048 -0.58359271 0.82932281
-0.20161781 -0.58329421 0.60911942
-0.388356 -0.58225018 0.6552248
-0.37651849 -0.65457821 0.93569708
-0.34810761 -0.86193317 0.97214508
-0.3502771 -0.85794139 0.9741255
-0.2473754 -0.89955622 0.95986521
-0.2427167 -0.88601792 0.95385247
-0.44120589 -0.59485918 0.6454044
-0.40501091 -0.58201021 0.72144729
-0.48300111 -0.93540537 0.66384488
-0.2201865 -0.58326381 0.59777689
-0.33412969 -0.848634 0.96851063
-0.3634797 -0.87417412 0.97732389
-0.21261901 -0.88352013 0.94238323
-0.1084434 -0.5851199 0.68358278
-0.2112373 -0.90699178 0.95207751
-0.41606069 -0.60022038 0.74594313
-0.41898599 -0.75209838 0.71042562
-0.42719081 -0.74827123 0.70785469
-0.4942354 -0.88715112 0.5741629
-0.46513149 -0.74686652 0.62371188
-0.4453167 -0.58568352 0.57828152
-0.42935821 -0.75099051 0.65900159
-0.43953899 -0.93395603 0.8576529
-0.37584379 -0.62058288 0.93352538
-0.39033309 -0.63633972 0.89047188
-0.4146679 -0.75637013 0.71548009
-0.4809716 -0.77064103 0.56349432
-0.44079569 -0.76349622 0.7624374
-0.39802051 -0.75553191 0.87658679
-0.41604841 -0.77519351 0.89584398
-0.46583509 -0.95467538 0.84454769
-0.52322072 -0.95316041 0.54682648
-0.50824118 -0.9537549 0.6210683
-0.2436004 -0.58457178 0.63634372
-0.32191321 -0.84428108 0.96925342
-0.43002769 -0.73667419 0.61339402
-0.38900149 -0.63411188 0.8926568
-0.46455541 -0.71353889 0.57153028
-0.4110035 -0.74870032 0.63950491
-0.39074701 -0.60166848 0.87180191
-0.47567299 -0.86837989 0.65372223
-0.46440849 -0.91562963 0.72329009
-0.46302259 -0.85396832 0.69373602
-0.43263319 -0.80313349 0.80465752
-0.44635499 -0.94058847 0.84259051
-0.44464421 -0.59956181 0.63837671
-0.32230151 -0.93889803 0.98250741
-0.42600921 -0.86651647 0.91012359
-0.47326139 -0.82578158 0.65491259
-0.44217089 -0.61325347 0.63263619
-0.44044301 -0.76467562 0.77096742
-0.39916891 -0.61306119 0.83118647
-0.48373511 -0.92743671 0.65885288
-0.41433889 -0.81710988 0.93902743
-0.41646379 -0.77445632 0.89806581
-0.48834199 -0.95185423 0.67489761
-0.46483329 -0.95447648 0.82808262
-0.38426149 -0.8075105 0.96737468
-0.4189232 -0.74325413 0.686566
-0.4755637 -0.81562471 0.63053453
-0.46203569 -0.8867029 0.70454967
-0.47150359 -0.86420709 0.67678028
-0.3415505 -0.87353581 0.97494441
-0.3645654 -0.62849468 0.93769282
-0.4580639 -0.95118201 0.90099919
-0.46087989 -0.76780748 0.65576738
-0.45749101 -0.75723672 0.64006329
-0.4477846 -0.6689291 0.5981462
-0.48005101 -0.93968958 0.67182112
-0.43434739 -0.77024359 0.80839127
-0.4567298 -0.85404903 0.72042918
-0.46155739 -0.85519332 0.6955868
-0.49416941 -0.95147961 0.6478793
-0.45593271 -0.85467392 0.72626883
-0.43730861 -0.88488811 0.83894938
-0.3759999 -0.58279288 0.62961179
-0.30823731 -0.59144789 0.68405467
-0.3926293 -0.61947101 0.85144639
-0.2946952 -0.84596252 0.96394151
-0.44039461 -0.74959052 0.61442971
-0.49198791 -0.84595013 0.56423259
-0.14480209 -0.58959681 0.78926599
-0.42877939 -0.74316877 0.61637717
-0.45488769 -0.66533399 0.5770036
-0.3721863 -0.74995452 0.71184218
-0.46262571 -0.75784302 0.60947078
-0.48802519 -0.91662091 0.63129097
-0.49289781 -0.90492499 0.60872811
-0.43689269 -0.83213311 0.82226121
-0.49850211 -0.95110708 0.62734127
-0.47223979 -0.89883858 0.67476279
-0.45419431 -0.95383912 0.88295358
-0.48419049 -0.95438021 0.73223609
-0.4477756 -0.93598813 0.84938478
-0.44521359 -0.79362011 0.75308001
-0.45831111 -0.9603045 0.84007353
-0.39675951 -0.73674548 0.92879921
-0.50144827 -0.92485487 0.54575819
-0.44961041 -0.86532527 0.76427722
-0.45086119 -0.88400799 0.76358408
-0.41895911 -0.61509991 0.7453357
-0.4863798 -0.79829657 0.5650205
-0.47915891 -0.95420033 0.75599581
-0.35432231 -0.78593248 0.96721792
-0.51263189 -0.95705062 0.59031123
-0.38963711 -0.60767049 0.90338892
-0.43293479 -0.73561609 0.61151391
-0.46807921 -0.73658782 0.56239063
-0.4257535 -0.75206089 0.67101032
-0.44018519 -0.88871717 0.82087392
-0.35778961 -0.87623972 0.97353739
-0.45990679 -0.86871839 0.7032575
-0.1548945 -0.58515722 0.57360959
-0.3886033 -0.70718843 0.93498021
-0.41306931 -0.87825382 0.96372968
-0.45222971 -0.95553362 0.98404038
-0.5038842 -0.94982582 0.86191761
-0.2014223 -0.57916069 0.67881781
-0.32910761 -0.77840728 0.96843982
-0.2135071 -0.58987439 0.7145803
-0.46084431 -0.86542732 0.7080704
-0.4934448 -0.9176327 0.59783798
-0.46607131 -0.76181602 0.63630778
-0.4576771 -0.85192221 0.72194332
-0.43139389 -0.77319169 0.81856221
-0.436111 -0.88269478 0.84076458
-0.45368081 -0.94618058 0.86471862
-0.45204341 -0.95281768 0.98587722
-0.4584735 -0.67494887 0.57550317
-0.4560613 -0.67511559 0.58287382
-0.50055039 -0.89851338 0.56932509
-0.4686608 -0.73852128 0.56426132
-0.45385531 -0.95355242 0.92476362
-0.4768796 -0.86692297 0.65813112
-0.35653979 -0.69648218 0.65751648
-0.46395361 -0.85207921 0.69465631
-0.41742119 -0.59911561 0.7568661
-0.30174631 -0.68046153 0.71637392
-0.30485421 -0.68304229 0.7605657
-0.4475776 -0.74747181 0.64813352
-0.43209311 -0.7720198 0.82059342
-0.41837621 -0.59674293 0.72427708
-0.4357146 -0.58883357 0.56545442
-0.43369281 -0.73738831 0.60992032
-0.4573338 -0.85177737 0.72338772
-0.42392531 -0.64396328 0.61916858
-0.49403811 -0.9020142 0.53585178
-0.48959509 -0.8922841 0.61074013
-0.49917459 -0.92104357 0.60387099
-0.51718932 -0.94228381 0.54983062
-0.49320391 -0.89460993 0.58724278
-0.31812751 -0.58392942 0.63604939
-0.2844508 -0.58416319 0.66968739
-0.37945789 -0.74953461 0.68853408
-0.46782541 -0.76147681 0.63046658
-0.4643504 -0.76610547 0.65547162
-0.4896372 -0.89277083 0.63668489
-0.40363461 -0.85852581 0.97313708
-0.3276329 -0.87399471 0.97574037
-0.35369891 -0.8551681 0.97760588
-0.24632791 -0.88236672 0.95599681
-0.28327709 -0.92691243 0.97160232
-0.2180545 -0.87336242 0.9398647
-0.2457251 -0.89851922 0.95761049
-0.2493995 -0.87680668 0.96148068
-0.2163828 -0.90327471 0.95959461
-0.37149611 -0.87339997 0.98197609
-0.2980904 -0.91861808 0.97476763
-0.1637738 -0.92209429 0.9458344
-0.21768931 -0.87930381 0.94115961
-0.2193657 -0.89841002 0.95628709
-0.28846389 -0.8459813 0.95831883
-0.2265061 -0.88201213 0.9467566
-0.43057799 -0.949898 0.9856047
-0.35071361 -0.92707539 0.98999071
-0.25598791 -0.90303439 0.96026832
-0.48063859 -0.94916868 0.95919508
-0.25519311 -0.93595058 0.97638571
-0.36341199 -0.86624777 0.97628862
-0.3865549 -0.93214321 0.99228948
-0.45353231 -0.94759548 0.9876104
-0.29863051 -0.91431379 0.97797883
-0.18137769 -0.90295202 0.93433899
-0.1578138 -0.93388277 0.94379997
-0.41112909 -0.90654123 0.97606748
-0.45648769 -0.94762421 1.027678
-0.28158599 -0.58316803 0.66621959
-0.2066236 -0.74471098 0.88619423
-0.1008764 -0.58079869 0.6831429
-0.05929995 -0.59691489 0.86802077
0.0047605629 -0.86455297 0.89574528
0.03909504 -0.95165533 0.90643579
-0.071471334 -0.71965683 0.85057122
-0.12651481 -0.79783028 0.91046119
-0.01538816 -0.85126632 0.90503359
-0.1161645 -0.86541128 0.92334872
-0.115174 -0.58572417 0.85130191
-0.037028521 -0.7707051 0.8981235
0.033628792 -0.80318922 0.85422069
-0.2205818 -0.8725642 0.94255018
-0.074879616 -0.71798623 0.84742868
-0.1433589 -0.88319087 0.92958122
-0.05091748 -0.87804109 0.91421127
-0.1258094 -0.59789169 0.87877983
-0.094914079 -0.66806477 0.83301228
-0.14778019 -0.84764189 0.92150348
0.0090494156 -0.71945941 0.86242372
-0.062761687 -0.75111532 0.87355649
-0.1819569 -0.89531517 0.94155592
-0.04546937 -0.6084587 0.87132341
0.057209551 -0.92717862 0.87992913
0.0406144 -0.9118166 0.88529313
-0.02766123 -0.76565492 0.89370501
-0.1938289 -0.89242089 0.94395572
-0.18503851 -0.86241603 0.9302507
-0.06910643 -0.74794322 0.8626591
-0.1083529 -0.68462127 0.82629538
0.7014184 -0.92377943 0.28425899
0.74080122 -0.87474549 0.2992399
0.741835 -0.62973541 0.30768451
0.74484169 -0.4811241 0.3036921
0.7290417 -0.37951389 0.32259259
0.70547241 -0.5961628 0.27611181
0.72254372 -0.58371311 0.32366341
0.72594452 -0.43974429 0.3197917
0.72236252 -0.79194093 0.2944757
0.0094427168 -0.92936963 0.95070082
0.69711018 -0.8866064 0.28112069
0.74201739 -0.83984703 0.2654489
0.74268651 -0.87721622 0.33111319
0.0082241893 -0.75773448 0.8757211
-0.15565529 -0.8639074 0.92690682
-0.075715393 -0.59865612 0.877186
-0.1700428 -0.93060058 0.93478948
-0.047250479 -0.75490212 0.88045013
-0.1334469 -0.60612708 0.90372157
-0.2091542 -0.89589912 0.94280392
-0.1008642 -0.7496599 0.88425332
-0.1519852 -0.92817378 0.95056069
-0.1570188 -0.93019491 0.94544327
0.73533958 -0.59390068 0.35084221
0.73336828 -0.44719821 0.34995759
0.73465919 -0.48241311 0.326033
0.73629802 -0.79019088 0.31407651
0.43975869 -0.94183642 0.71152681
0.5466454 -0.94138688 0.71560162
-0.1301118 -0.87023687 0.9192813
-0.041255031 -0.58629352 0.82074171
-0.211318 -0.75229329 0.83095503
-0.2170354 -0.90783292 0.95135611
-0.1006098 -0.95033479 0.93866599
0.72079039 -0.76612967 0.29522711
-0.1279318 -0.5831601 0.65344417
-0.1612865 -0.9432227 0.92473137
-0.1989484 -0.74207067 0.84378451
-0.1780642 -0.95393842 0.93225878
-0.1500098 -0.75780481 0.83372748
-0.02077499 -0.81836921 0.9156881
0.71875048 -0.63849258 0.2068129
0.077574521 -0.94985592 1.166474
-0.064350687 -0.83481848 0.88832003
0.73895931 -0.972996 0.28330651
0.3971464 -0.93729138 0.52534533
-0.050098151 -0.88013768 0.91194069
0.7191515 -0.76382631 0.3308605
0.71027529 -0.93868941 0.21902061
-0.1781783 -0.59015352 0.85940188
-0.2420164 -0.81923127 0.93506622
-0.077316403 -0.94921571 1.0453449
-0.1226229 -0.74403471 0.82577628
-0.06041133 -0.60542649 0.87811041
-0.0061199069 -0.85683483 0.90126193
-0.05560961 -0.75298452 0.87570637
-0.2472546 -0.89436138 0.96187532
-0.15306561 -0.68239242 0.79722917
-0.1792846 -0.74600202 0.89238042
-0.25002629 -0.88910758 0.9479413
-0.1700037 -0.81135821 0.91916478
-0.2093921 -0.68938041 0.77683812
-0.12802669 -0.68111157 0.8186233
-0.21158341 -0.6014607 0.8934111
0.033952922 -0.95987612 1.141986
-0.07131654 -0.61564791 0.87320453
-0.2274594 -0.61539781 0.91112339
-0.2416431 -0.92996562 0.96768308
-0.079035044 -0.74685103 0.86134458
-0.1836839 -0.5885151 0.87539452
-0.2167815 -0.75076568 0.79726791
-0.02685255 -0.58980483 0.77163601
-0.20054901 -0.82707691 0.94350332
-0.2144441 -0.75926208 0.87785769
-0.22581211 -0.90064847 0.93776882
-0.25536931 -0.63970768 0.88534451
-0.2000674 -0.76632351 0.94166583
-0.19847991 -0.61009538 0.89905
-0.2117853 -0.59918398 0.89792413
0.0054536462 -0.96470213 0.94282919
0.02315679 -0.94676793 1.179307
-0.1563241 -0.73601949 0.85460711
-0.18799821 -0.81589103 0.94809997
-0.0043324828 -0.87497091 0.89676178
-0.2758027 -0.74933392 0.88115197
-0.1667196 -0.94946277 0.95472342
-0.28976351 -0.78862989 0.94263011
-0.22628219 -0.73694497 0.7803973
-0.1609043 -0.57929552 0.70862442
-0.28494209 -0.94024622 0.96237862
-0.2853635 -0.79893118 0.95668042
-0.054612849 -0.58630782 0.6380707
-0.095776081 -0.78466702 0.91411942
-0.078744352 -0.77748382 0.90989792
-0.28557771 -0.58588392 0.77015769
-0.2559213 -0.57935292 0.81478822
-0.1713466 -0.56514221 0.8678692
-0.2891618 -0.95050478 0.96093571
-0.172207 -0.58281791 0.8323251
-0.1776704 -0.74014509 0.89788228
-0.2090008 -0.59040463 0.90878981
-0.29519331 -0.59399199 0.76180619
-0.1126814 -0.58947623 0.79266018
-0.29028329 -0.75050962 0.88558841
-0.1493967 -0.92577922 0.95246011
-0.1748285 -0.75327408 0.88549012
-0.27642199 -0.77776718 0.95002609
-0.12708031 -0.78551972 0.92400652
-0.25044939 -0.59118462 0.80416542
-0.27037239 -0.74370807 0.88309652
-0.2438339 -0.89489609 0.96162581
-0.3751817 -0.67168212 0.94241297
-0.27623969 -0.58012527 0.56939209
-0.1800839 -0.74858707 0.88344049
-0.13537779 -0.57207638 0.66318798
-0.1675176 -0.57786858 0.78045678
-0.12886579 -0.94363987 0.9573248
-0.071994349 -0.57502592 0.69969022
-0.2288774 -0.59043461 0.75164759
-0.26785919 -0.57560748 0.79991728
-0.3233119 -0.58076411 0.72456819
-0.39743099 -0.57940441 0.59807801
-0.28963989 -0.57449758 0.83263153
-0.139789 -0.57659268 0.59101248
-0.1768472 -0.58174008 0.87601918
-0.051257659 -0.58591902 0.64409792
-0.18044209 -0.5696764 0.86052638
-0.092811137 -0.84527588 0.91972297
-0.13687401 -0.57927579 0.54061162
-0.34851521 -0.92471611 0.99082482
-0.1224684 -0.5861392 0.89384067
-0.069763564 -0.70849979 0.86256111
-0.057332229 -0.7500273 0.87977308
-0.092217863 -0.78454828 0.91316259
-0.078129567 -0.76767099 0.91591871
-0.32116199 -0.61973 0.94491822
-0.1820762 -0.58311713 0.88941097
-0.049147438 -0.74284041 0.89015949
-0.032810461 -0.8136341 0.90693003
-0.1105001 -0.73378569 0.88785142
-0.04939558 -0.87191868 0.92215598
-0.1826012 -0.58877587 0.61762673
-0.05022468 -0.80980092 0.91312391
-0.071270049 -0.59813589 0.87963182
-0.339616 -0.57463712 0.70532608
-0.01071083 -0.85216773 0.90723431
-0.083795063 -0.57301021 0.81064618
-0.27695191 -0.57261819 0.59219402
-0.34462911 -0.57452649 0.8429535
-0.15592299 -0.57757211 0.79932612
-0.3291125 -0.76995969 0.96123588
-0.1281486 -0.57469571 0.81816149
-0.184333 -0.59029227 0.88467199
-0.27242059 -0.74517792 0.91395062
-0.25731429 -0.57483327 0.63962853
-0.3570129 -0.64134312 0.93263948
-0.2301672 -0.73469257 0.85527658
-0.3536984 -0.57788062 0.92769551
-0.195897 -0.57891059 0.64244878
-0.14020289 -0.59690869 0.77889669
-0.16239481 -0.58594573 0.8398878
-0.42534661 -0.95989412 0.98516309
-0.050466809 -0.5772202 0.63045382
-0.31214929 -0.74010932 0.92641503
-0.097679153 -0.58445841 0.55443192
-0.1653 -0.90898681 0.9528352
-0.31700391 -0.76209259 0.90550482
-0.1736988 -0.58958077 0.76721358
-0.19922321 -0.57424349 0.82026619
-0.34837309 -0.56793869 0.67239833
-0.3631742 -0.566733 0.70554262
-0.04971895 -0.57687151 0.77150518
-0.033958461 -0.57329202 0.76643091
-0.066808902 -0.5726254 0.81222707
-0.1483423 -0.73281062 0.85072082
-0.25182879 -0.57913578 0.6066004
-0.091935813 -0.57662147 0.59010392
-0.04011282 -0.71197933 0.87057632
-0.20111381 -0.5692085 0.81135452
-0.32627231 -0.57521701 0.68803871
-0.30369139 -0.5836848 0.69243997
-0.2477449 -0.5804714 0.79966807
-0.3024295 -0.74505383 0.91301972
-0.29684579 -0.57888907 0.72118348
-0.083763562 -0.58460259 0.81310803
-0.1861919 -0.58157808 0.86182243
-0.29131249 -0.57355422 0.81386453
-0.2003056 -0.6272319 0.88845462
-0.1182018 -0.56915188 0.80123049
-0.096006267 -0.5757184 0.60463458
-0.081329323 -0.58235031 0.74624819
-0.1551314 -0.57553732 0.69713181
-0.37511489 -0.57929599 0.56845337
-0.2873989 -0.56872422 0.67742783
-0.40143171 -0.85955453 0.97580421
-0.3849462 -0.93484068 0.98265183
-0.084786877 -0.58479452 0.68627077
-0.002441518 -0.59384811 0.86196673
-0.1048125 -0.56805152 0.57013923
-0.2628386 -0.5858385 0.5669539
-0.23797411 -0.56504673 0.71157992
-0.22484981 -0.5666604 0.71227568
0.0098589063 -0.72073221 0.86848152
0.0053119441 -0.85318971 0.9078601
-0.2248996 -0.8632344 0.96463352
-0.213035 -0.57680321 0.72336322
0.039410479 -0.94050199 0.91795152
-0.17003991 -0.5818584 0.66214418
-0.1860899 -0.94275302 0.96732682
-0.14456929 -0.57432687 0.74367648
-0.1160143 -0.73275542 0.83529419
-0.1814065 -0.57994032 0.6885106
-0.05448949 -0.57356501 0.61424291
-0.20110691 -0.57832628 0.73757541
-0.32534909 -0.61102903 0.92838949
-0.3810561 -0.85786492 0.97630519
-0.056181669 -0.60591602 0.8795836
-0.204648 -0.72601098 0.84979302
-0.21400429 -0.71861112 0.91117078
-0.092613213 -0.66007769 0.86329973
-0.20284189 -0.88169879 0.95192063
-0.1569344 -0.84142172 0.94244421
-0.2518816 -0.56578952 0.76820701
-0.090951078 -0.91525221 0.94210708
-0.029255761 -0.77045703 0.89407659
-0.1109114 -0.57070613 0.52645957
0.007139571 -0.93808812 0.93564588
-0.4342669 -0.91951001 0.97236907
-0.17644501 -0.58769542 0.90155661
-0.1787889 -0.56401747 0.58517963
-0.3707093 -0.57117158 0.90096623
-0.1165696 -0.55772918 0.79855442
-0.39332029 -0.59079272 0.59044468
-0.3541663 -0.78706169 0.97273612
-0.093447678 -0.57661319 0.67944467
-0.2212255 -0.57455039 0.73614091
-0.1863693 -0.56952 0.5950408
-0.052614991 -0.74199867 0.88618749
-0.03736816 -0.58810687 0.87635553
-0.16634551 -0.78979981 0.93778181
-0.30958441 -0.57588828 0.65420431
-0.28496051 -0.72840458 0.90819341
-0.14413939 -0.58061892 0.76859409
-0.021163009 -0.77561432 0.8844142
-0.1170725 -0.57746053 0.86921549
-0.01289807 -0.66676891 0.88223362
-0.22818249 -0.56800342 0.89912403
-0.13694181 -0.56976628 0.68880808
-0.3842732 -0.92530161 0.99695438
-0.2114037 -0.73812038 0.87971288
-0.33233541 -0.77872801 0.96394491
-0.039535161 -0.57474703 0.69762558
-0.21206319 -0.57454741 0.53259891
-0.1718179 -0.56488562 0.53155029
-0.32452571 -0.58531737 0.81986701
-0.3475692 -0.64595592 0.9418031
-0.2355534 -0.58096749 0.64449108
-0.07707978 -0.7343483 0.87104338
-0.05756389 -0.749367 0.89899772
-0.3808074 -0.79881477 0.98292679
-0.02957559 -0.71437418 0.88969767
-0.166373 -0.57262582 0.70402342
-0.073457412 -0.61674798 0.8506813
-0.27335209 -0.57705241 0.68832749
-0.2399493 -0.58323872 0.67180991
-0.2365128 -0.622895 0.91235977
-0.1577722 -0.57927978 0.83955592
0.033709031 -0.81680602 0.88568461
-0.099742852 -0.58775997 0.81334329
0.02228073 -0.94239593 0.93865699
-0.04840317 -0.77068108 0.9030304
-0.20649581 -0.5732621 0.61240327
-0.2042717 -0.56776822 0.67675269
-0.1863983 -0.57298613 0.66940182
-0.05930813 -0.61153042 0.87260967
-0.30678791 -0.76318848 0.94048941
-0.41307151 -0.9036442 0.98098099
-0.068315707 -0.66506928 0.86031091
-0.30703071 -0.93864387 0.99289459
-0.056298219 -0.57032841 0.71534002
-0.30654079 -0.77671772 0.96977121
0.00071529299 -0.9045198 0.9152838
-0.38802329 -0.58074439 0.65846479
-0.1992441 -0.58294892 0.68221283
-0.1937654 -0.58008248 0.72194499
-0.192441 -0.59173697 0.69567889
-0.31771949 -0.56730968 0.62832648
-0.35087481 -0.84265161 0.98360348
-0.19001511 -0.73932242 0.87101752
-0.30942819 -0.71734202 0.9044171
-0.2849516 -0.56767988 0.79760808
-0.1262099 -0.5747875 0.67270797
-0.01001 -0.79602909 0.90260643
-0.1004458 -0.59770793 0.79324478
-0.228489 -0.6319108 0.89790511
-0.022761431 -0.69514549 0.87155378
0.01220889 -0.84830427 0.88661033
-0.080475017 -0.58967823 0.52942622
-0.1351845 -0.68752468 0.85178798
-0.31298769 -0.77895159 0.95696849
-0.32992429 -0.93629527 0.98321092
-0.1117746 -0.57241279 0.62400979
-0.1323189 -0.8645401 0.92770588
-0.22834089 -0.89847338 0.94727528
-0.1107788 -0.57967848 0.67437422
-0.27203131 -0.86720848 0.99197328
-0.005557768 -0.93634558 0.93165708
-0.02298554 -0.66164517 0.87283742
-0.1324224 -0.57896179 0.88975447
-0.18425649 -0.58169419 0.89438963
0.074870892 -0.95105922 0.69927537
-0.1770684 -0.8697226 0.95417702
-0.30169261 -0.7332114 0.89565903
-0.2863721 -0.76359248 0.9701153
-0.084957801 -0.76919937 0.90148258
-0.058039289 -0.59010512 0.65512079
-0.149931 -0.85978627 0.95369411
-0.036744691 -0.59273028 0.7286486
0.0074456711 -0.95619023 0.94910818
-0.021501681 -0.91613972 0.91619438
-0.0036986689 -0.95089692 0.96545601
-0.16059311 -0.60813379 0.89856231
-0.27443311 -0.94281048 0.99197769
-0.29113519 -0.78859901 0.95453757
-0.1552303 -0.86244512 0.93261188
-0.044199649 -0.58723682 0.82985348
-0.02054755 -0.58254433 0.85307938
-0.070308737 -0.75266862 0.86358529
0.01018321 -0.69345212 0.85873562
-0.065877788 -0.61675018 0.8751471
-0.038236819 -0.68063968 0.87497562
0.1477489 -0.9523952 1.0205981
0.077704467 -0.94506478 0.88558722
0.2302645 -0.95548141 0.20982181
-0.2072988 -0.7421391 0.88904983
-0.1970288 -0.74963301 0.89201713
-0.24398699 -0.86214077 0.96614772
-0.25752741 -0.76674211 0.97215718
-0.21176089 -0.7400142 0.90750217
-0.098852269 -0.59625912 0.67120129
-0.1438107 -0.58076572 0.7552464
0.053481881 -0.91485691 0.84835458
-0.082400359 -0.92909771 0.93718332
-0.1005761 -0.5751214 0.78730702
-0.22479831 -0.78948212 0.96388668
-0.1020016 -0.60669839 0.59609532
-0.052176531 -0.87013841 0.92368382
-0.26760721 -0.73540008 0.87764663
-0.1428019 -0.86663991 0.9403944
-0.077617042 -0.58655602 0.51395267
0.238592 -0.95898432 0.21337099
-0.034408279 -0.72812492 0.8818329
-0.062938131 -0.61881483 0.85272372
-0.2350183 -0.73345977 0.8834734
-0.36194739 -0.80462343 0.96036351
-0.20645601 -0.72495699 0.85387021
-0.30077341 -0.67849213 0.89614701
-0.164598 -0.75801671 0.82458651
-0.2127215 -0.56221569 0.70064747
-0.2161317 -0.61221302 0.90768379
0.04337335 -0.94561201 1.0506819
0.030419679 -0.96686268 1.009876
0.01716953 -0.94579959 1.0832911
-0.090452991 -0.58175403 0.5047738
-0.322148 -0.60939533 0.91433042
-0.2905038 -0.75167322 0.90845603
-0.39499789 -0.8095426 0.96523923
-0.185719 -0.74980521 0.90158212
-0.2774514 -0.57941061 0.77808118
-0.1060966 -0.75048238 0.86811972
-0.1770739 -0.58055061 0.85250193
-0.1632788 -0.58049518 0.77886683
-0.25997809 -0.5857054 0.81270742
-0.04916859 -0.58743769 0.63706231
0.01973979 -0.94466919 0.93860447
-0.1528742 -0.58275843 0.79061681
-0.038863871 -0.59595883 0.87167579
-0.2494812 -0.58624238 0.79310107
-0.054401841 -0.75222057 0.88220918
-0.1845444 -0.75205922 0.87688649
-0.086535037 -0.58225298 0.81747001
0.0064398199 -0.86346883 0.90222043
-0.05782583 -0.60710162 0.87682372
-0.115021 -0.57105768 0.79948562
-0.044820931 -0.87604308 0.92055088
-0.29453459 -0.58160383 0.66611481
-0.1267664 -0.79341912 0.91994041
-0.01405805 -0.84916341 0.90853262
0.01417136 -0.73334968 0.85391462
-0.008944273 -0.58727622 0.83967721
-0.058937009 -0.59805077 0.87535721
-0.044151012 -0.70432091 0.87560189
-0.04173559 -0.81943011 0.90570998
-0.04358292 -0.60480243 0.87464118
-0.2108725 -0.74522477 0.83862603
0.075626314 -0.94657981 0.82828218
-0.1861046 -0.58293998 0.82008928
-0.031880561 -0.58253068 0.75742757
-0.041130722 -0.93809998 0.93809158
-0.30791119 -0.58641207 0.64725929
-0.1871891 -0.74582052 0.83758593
-0.2325815 -0.74709117 0.8447969
-0.046700951 -0.76434243 0.90657359
0.020120321 -0.74243993 0.86757398
-0.1986682 -0.74534023 0.84163982
0.037104651 -0.88583642 0.88286161
-0.033021379 -0.84017318 0.46932799
-0.070035733 -0.71589661 0.85700941
-0.090913951 -0.5795902 0.80423081
0.034466799 -0.77505392 0.87480807
0.04033649 -0.91071731 0.89183551
-0.047051009 -0.7152546 0.88166481
-0.16658551 -0.92883241 0.9435181
-0.093248218 -0.78715581 0.90991718
0.03564861 -0.81031638 0.88486707
-0.1524516 -0.92271799 0.95197397
-0.21856511 -0.879825 0.94393182
-0.1422669 -0.87071711 0.9356041
-0.05525592 -0.82300061 0.90426898
-0.0086664259 -0.94168133 0.92789692
0.03032133 -0.76546872 0.86159009
0.020782679 -0.92406893 0.66950363
0.069758832 -0.93952858 0.89930648
-0.052981321 -0.72828609 0.51441532
-0.035926551 -0.58731818 0.70840031
-0.1257015 -0.59504712 0.88828331
-0.2023057 -0.74683613 0.83208698
-0.13107181 -0.79450297 0.91901082
-0.2010603 -0.77668399 0.93142992
-0.054431081 -0.74854583 0.54564101
-0.070792437 -0.58517498 0.82687962
-0.0372012 -0.75809938 0.56674129
-0.05543381 -0.62365878 0.53591472
-0.043494999 -0.75281191 0.52134567
-0.073271632 -0.59966773 0.87862837
0.003589004 -0.65182531 0.86060941
0.0044973488 -0.71396011 0.87465823
-0.094074249 -0.84174389 0.92366678
-0.01453912 -0.81560928 0.90413862
0.01518597 -0.78342009 0.75635248
-0.02193631 -0.92371261 0.45602119
0.020306099 -0.94947213 0.91822201
0.030786371 -0.93099731 0.71886241
-0.2111249 -0.89030671 0.96179253
-0.098958187 -0.93972009 0.94955558
-0.1439245 -0.85150629 0.92886448
0.05169126 -0.92030293 0.88815087
0.048676401 -0.91369838 0.88592899
-0.097251773 -0.71521842 0.8413474
-0.1476178 -0.74461758 0.81593508
-0.02675065 -0.85453838 0.90427512
0.026440561 -0.81085688 0.87579411
-0.001459852 -0.8076784 0.69593549
0.073166557 -0.94384187 0.86607617
-0.1425415 -0.93461567 0.96443969
0.065644853 -0.94587958 0.82787979
0.02642804 -0.94667798 0.66359472
-0.1893401 -0.74714142 0.86291218
-0.01141451 -0.66012448 0.87564772
-0.26492801 -0.58868092 0.55760872
-0.1873724 -0.88478482 0.94968402
-0.1179685 -0.86283058 0.92750728
-0.20442361 -0.75076222 0.91275269
-0.043340329 -0.58305591 0.71338803
-0.050140411 -0.75335962 0.57455689
-0.058613449 -0.59460157 0.53945732
-0.049278349 -0.75274777 0.55818647
-0.037188891 -0.79384679 0.50149077
-0.039266821 -0.82275617 0.90135628
-0.01104334 -0.80310029 0.90008312
-0.01631761 -0.85584581 0.90492648
-0.1030789 -0.68140697 0.83396989
0.04730916 -0.84861028 0.862849
-0.066076308 -0.91604829 0.94129252
-0.084425963 -0.83949429 0.91599888
-0.14871269 -0.85397249 0.92094642
-0.1702521 -0.58095598 0.85174829
-0.02544139 -0.59460503 0.71746558
-0.1415686 -0.74558473 0.83397412
0.029482599 -0.79969132 0.81752568
-0.1510465 -0.74473751 0.81113112
0.047875881 -0.94499451 0.76593798
-0.12950259 -0.9454388 0.95376748
0.01552376 -0.94699019 0.6077674
0.078022443 -0.93755227 0.88950181
-0.1871316 -0.58863598 0.60788512
-0.1942893 -0.81066418 0.95244497
-0.054092661 -0.73185271 0.50765932
-0.0059722662 -0.59910142 0.80894703
-0.0062001352 -0.62376422 0.86547101
-0.044385519 -0.61113 0.87227762
0.001023054 -0.78546971 0.6687355
-0.024974911 -0.78992492 0.5617429
-0.042533729 -0.75150043 0.88538039
