# .PCD v0.7 - Point Cloud Data file format
VERSION 0.7
FIELDS x y z normal_x normal_y normal_z curvature
SIZE 4 4 4 4 4 4 4
TYPE F F F F F F F
COUNT 1 1 1 1 1 1 1
WIDTH 586
HEIGHT 1
VIEWPOINT 0 0 0 1 0 0 0
POINTS 586
DATA ascii
-0.26103905 -0.58630788 0.65882283 0.0054300851 0.99998516 0.00038855235 0.0047528185
-0.17123203 -0.58978355 0.77691036 -0.0018655076 0.99982202 0.018773397 0.0073798737
-0.26796156 -0.58839571 0.79482204 -0.035197776 0.99901068 0.027180651 0.03071283
-0.39853206 -0.74896556 0.87529582 -0.9128173 0.38152063 -0.14562492 0.057934716
-0.19862799 -0.58367234 0.71250111 -0.015707612 0.99987024 0.0035672828 0.008910154
-0.10308233 -0.58456272 0.68757546 0.045707949 0.99853295 -0.029029205 0.014423389
-0.40446582 -0.75818765 0.86665171 -0.85731941 0.48816356 -0.16340064 0.050127603
-0.22860083 -0.58783317 0.71082765 -0.016913436 0.99965227 0.02023167 0.0088047599
-0.34988371 -0.5874787 0.85203451 -0.18465427 0.98228568 0.031899747 0.048019636
-0.28807315 -0.58919078 0.791713 -0.0042334837 0.99979097 0.019997993 0.033024408
-0.14572097 -0.5844059 0.74842954 0.016366638 0.99938524 0.031003283 0.008692489
-0.32172102 -0.58865428 0.82382405 0.019357041 0.99963915 -0.018625032 0.032072119
-0.35662857 -0.58889925 0.85715437 -0.20205151 0.97702032 0.067870967 0.054999512
-0.40640908 -0.75819969 0.9002406 -0.91937649 0.35164371 -0.17633338 0.05373602
-0.24821927 -0.59004265 0.79483533 -0.023852592 0.99954331 0.018557811 0.021576568
-0.35743681 -0.58385938 0.9200455 -0.35378337 0.88725066 0.29601297 0.10989438
-0.37704623 -0.59148812 0.77758521 -0.18898317 0.97968185 0.067148045 0.033065002
-0.22543217 -0.58471477 0.75851685 -0.027929237 0.99834889 0.050194286 0.016005641
-0.28583705 -0.5875631 0.8264901 0.028237808 0.99957854 -0.0067340168 0.029267035
-0.38908198 -0.61092126 0.88326806 -0.69484901 0.66295236 0.27870944 0.087549709
-0.39236528 -0.75177848 0.86031103 -0.8570019 0.48861662 -0.16371213 0.050083447
-0.15988989 -0.58440727 0.71904773 0.0051999637 0.99985331 0.016316546 0.0024997755
-0.19406459 -0.58758992 0.63916773 -8.1021164e-05 0.99997246 -0.0074238009 0.0041536391
-0.3102293 -0.58565128 0.88077223 0.049236134 0.99211752 0.11523225 0.020148207
-0.34293315 -0.58842731 0.85112286 -0.16746534 0.98549628 0.027427999 0.05270312
-0.40030548 -0.74811769 0.89048851 -0.93757081 0.30974793 -0.15816838 0.053194821
-0.20735896 -0.58641559 0.61648935 -0.0048209629 0.99995196 -0.0085343802 0.008983844
-0.39200908 -0.6231913 0.89306957 -0.85569412 0.42078638 0.30120829 0.10122049
-0.42010263 -0.77864552 0.89582098 -0.86103535 0.50491172 -0.06068258 0.018312812
-0.076513737 -0.58538252 0.74205333 0.066292658 0.99771917 0.012715189 0.010635342
-0.23923594 -0.58529967 0.76317614 -0.024887336 0.99859446 0.046793696 0.018132435
-0.15601879 -0.58503288 0.68413615 0.0013283745 0.99966896 -0.025697641 0.0025372722
-0.21457013 -0.58452064 0.71382594 -0.01511283 0.99981707 0.01172488 0.0085711665
-0.34350982 -0.58882666 0.69767207 -0.023157645 0.99851799 0.049250994 0.0077192769
-0.36421415 -0.58796972 0.90836316 -0.36529896 0.89870584 0.24266098 0.091957949
-0.37481543 -0.62125891 0.92153937 -0.67923814 0.42066696 0.60139406 0.12310129
-0.37919533 -0.61501747 0.91408277 -0.7392785 0.53273475 0.41189942 0.13539527
-0.40638968 -0.92170078 0.98323691 -0.10546464 0.13259931 0.98554277 0.0030007339
-0.19102201 -0.58618957 0.74404508 -0.017764652 0.99907339 0.039201833 0.011006596
-0.23769909 -0.58697653 0.74956518 -0.02976314 0.99859327 0.043881472 0.015932195
-0.11638005 -0.58605438 0.70348209 0.034586608 0.99918926 -0.020605037 0.0073566884
-0.053171303 -0.58914447 0.76646733 0.052583527 0.99851298 0.014383777 0.013913137
-0.22018985 -0.58401042 0.70425695 -0.0089612352 0.99994069 0.0062013352 0.0081728892
-0.39951274 -0.73189539 0.9245972 -0.93024522 0.31313151 -0.19129178 0.068373509
-0.37097979 -0.59144431 0.90936798 -0.37853286 0.88922429 0.25689104 0.094015114
-0.18580884 -0.58670437 0.64363885 -0.0036904116 0.99998325 -0.0044708536 0.0041234465
-0.15892616 -0.58682138 0.79169977 0.0075565432 0.99997038 0.0014750771 0.009287701
-0.14653444 -0.58640009 0.65677607 0.008430141 0.9999544 -0.0044829431 0.0051078522
-0.22608218 -0.58565134 0.74466109 -0.024385685 0.9984861 0.049302801 0.013780009
-0.40245473 -0.75660652 0.86756927 -0.85731941 0.48816356 -0.16340064 0.050127603
-0.15922581 -0.58478785 0.71329135 0.0057398905 0.99988127 0.014301838 0.0026055812
-0.21403812 -0.58809423 0.76478243 -0.0360425 0.99836242 0.044424102 0.015003264
-0.26323825 -0.58734155 0.7566691 -0.029410684 0.99876302 0.040093463 0.019781141
-0.33551571 -0.58743489 0.81764776 -0.073240541 0.9970504 -0.022940502 0.032289632
-0.041294061 -0.58833712 0.71906298 0.075809702 0.99704427 0.01247927 0.015584277
-0.19562961 -0.5846802 0.68401957 -0.009825184 0.99991864 -0.0081409188 0.0077524222
-0.27879572 -0.58606976 0.79274625 -0.030685594 0.99925154 0.023552284 0.034549661
-0.30567694 -0.58559436 0.8747766 0.06750647 0.99295014 0.097431488 0.014868704
-0.34319329 -0.58648008 0.7050525 -0.027336303 0.99857187 0.045901541 0.008324055
-0.37377927 -0.59584886 0.90141094 -0.50601196 0.81887609 0.27091321 0.10529742
-0.37891752 -0.59596831 0.83901274 -0.338204 0.93891728 0.063658156 0.060950402
-0.21510237 -0.58395511 0.69895148 -0.0086775096 0.99994683 -0.0055704215 0.0099916114
-0.32274508 -0.58698708 0.84237576 0.00041787437 0.99941516 0.034192674 0.028199421
-0.030764159 -0.59720385 0.71584439 0.078115448 0.99679673 0.017150769 0.018630134
-0.18521929 -0.58352715 0.68131679 -0.014454442 0.99982768 -0.011650521 0.0082096579
-0.39128718 -0.59224027 0.77921939 -0.2952114 0.95017594 0.10007896 0.040098127
-0.27180392 -0.59254265 0.72727841 -0.027382784 0.99841827 0.04910367 0.012889788
-0.29197094 -0.58804113 0.82574785 0.035986416 0.9992969 -0.010523919 0.030278794
-0.39921314 -0.73050785 0.90771741 -0.93600118 0.31100547 -0.16485576 0.065498658
-0.26599711 -0.58926767 0.80613673 -0.027850246 0.99954981 0.011158722 0.030812522
-0.14318889 -0.58271962 0.73598993 0.016610738 0.99936193 0.031620201 0.0069660842
-0.039155584 -0.58987629 0.71324611 0.081358306 0.99664223 0.0092238532 0.015694803
-0.2277171 -0.58437848 0.68413514 0.0016398135 0.99999338 -0.0032598383 0.0085686632
-0.095298946 -0.58304888 0.70176363 0.057444301 0.99827486 -0.012145227 0.010657688
-0.2801719 -0.58543414 0.82381368 0.017143011 0.99984455 -0.0041128364 0.0294556
-0.36125961 -0.58814156 0.80217826 -0.10902162 0.99352682 0.031917151 0.03138572
-0.1644295 -0.5853709 0.69432849 -0.0050147548 0.99982071 -0.018258512 0.0014409024
-0.31610921 -0.58834392 0.8231582 0.045736846 0.99887627 -0.012416565 0.032761872
-0.18237746 -0.58639044 0.65392983 -0.0036198115 0.99997759 -0.0056384909 0.0043608802
-0.19972612 -0.58702421 0.6175589 -0.0032448266 0.9999302 -0.011357768 0.010405439
-0.4058184 -0.76305652 0.88279611 -0.88978779 0.43574008 -0.13567682 0.048365433
-0.25583065 -0.58602709 0.67481971 -0.0013554 0.99991232 0.013172011 0.0096488371
-0.26266322 -0.58525431 0.68361294 -0.0086677168 0.99984127 0.015568635 0.010558882
-0.19260249 -0.58497781 0.63074398 -0.0044784122 0.99990499 -0.013040064 0.0082829129
-0.17276081 -0.5844568 0.82924366 -0.029034132 0.99802655 0.05567807 0.026082372
-0.20152903 -0.58532578 0.60888368 -0.0016129934 0.99998683 -0.004874906 0.011453511
-0.38853452 -0.58670408 0.65545785 -0.065897897 0.99602318 0.059959881 0.015485406
-0.37353322 -0.65533704 0.93201596 -0.61198539 0.13692714 0.77892542 0.057676572
-0.34776524 -0.86195236 0.97392952 0.15642107 0.18187584 0.97080046 0.010879656
-0.35021621 -0.85794479 0.9744429 0.1803841 0.15419762 0.97143441 0.012958582
-0.24770188 -0.89895195 0.95517683 0.24528152 0.18914758 0.95082074 0.034823373
-0.24224423 -0.88594353 0.95573521 0.20800453 0.1812669 0.96118486 0.025756424
-0.43710545 -0.6008966 0.646873 -0.30385461 0.95078272 0.060701083 0.020577716
-0.40360805 -0.59007627 0.71943462 -0.14450155 0.98428786 0.10147265 0.024736688
-0.4877241 -0.9330408 0.66452795 -0.93241757 0.30005932 0.20139992 0.0061202226
-0.22018884 -0.58579171 0.59763515 0.012030221 0.99992621 -0.0016968269 0.010253598
-0.33350092 -0.84878576 0.97067338 0.22157505 0.12860721 0.96662539 0.016183609
-0.36357108 -0.87416971 0.97685039 0.090136781 0.19765329 0.97611904 0.0058268672
-0.21152756 -0.88275409 0.94841307 0.20041849 0.13256915 0.97069967 0.023099275
-0.10844025 -0.58485776 0.68357474 0.040436219 0.99857706 -0.034768764 0.013801037
-0.21080109 -0.90633422 0.95406616 0.18894388 0.134664 0.97271055 0.022059726
-0.41628891 -0.59875667 0.7459802 -0.41018957 0.90995353 0.061066248 0.033693999
-0.41889775 -0.75271636 0.71037686 0.19064465 -0.97739553 -0.09139245 0.01840261
-0.42674547 -0.75344193 0.7072047 -0.37605128 0.91850209 0.12222652 0.048345342
-0.4943527 -0.88713318 0.57418323 -0.94799519 0.29407558 -0.12175649 0.032564409
-0.46111855 -0.75505912 0.62174481 -0.86751932 0.40549129 0.28807461 0.034838043
-0.44346347 -0.59175122 0.57746673 -0.51169926 0.76905328 -0.38304177 0.077196978
-0.43038359 -0.74859935 0.6584087 -0.55594534 0.80247194 0.21671087 0.038020525
-0.44504815 -0.9312461 0.85833585 -0.90941024 0.39488316 0.13053858 0.0049017076
-0.36990988 -0.62232214 0.92679161 -0.65357518 0.42590371 0.62565601 0.13235015
-0.39292634 -0.6359399 0.89108062 -0.88592619 0.32032833 0.33544666 0.093870088
-0.41543388 -0.75222296 0.71585369 -0.19064465 0.97739553 0.09139245 0.01840261
-0.47852832 -0.77111185 0.56387818 -0.93351877 0.25422132 -0.25281274 0.081965312
-0.44059345 -0.7639277 0.76242155 -0.20042422 0.97456819 0.1002345 0.0038191481
-0.39821947 -0.75532514 0.87660629 -0.88584864 0.43463963 -0.16235963 0.056962144
-0.41577849 -0.77545106 0.89579165 -0.84308022 0.52728546 -0.10576244 0.041073345
-0.4616937 -0.9579823 0.8442722 -0.90938139 0.39507592 0.13015604 0.0050072931
-0.52250826 -0.95360106 0.54670644 -0.85699594 0.51077336 -0.068326466 0.038132552
-0.50627989 -0.95451009 0.62053758 -0.92637843 0.33125818 0.17913932 0.0036399865
-0.24369819 -0.58644438 0.63624537 0.019562114 0.99977022 -0.0087576257 0.0040455805
-0.32201982 -0.84423321 0.96890771 0.25785872 0.12575771 0.95796347 0.015962753
-0.42941111 -0.73837155 0.61237168 0.14553581 -0.91440296 -0.37773877 0.15402423
-0.39421579 -0.63152331 0.89417446 -0.88192731 0.33440033 0.33223578 0.097107634
-0.46776038 -0.71269119 0.5704276 -0.81161374 0.17593002 -0.55707431 0.14407367
-0.41209546 -0.74358815 0.64084005 -0.39378506 0.90453506 0.16355348 0.022960085
-0.38537642 -0.60525286 0.87128508 -0.49588823 0.84043694 0.21854228 0.074187867
-0.4757157 -0.86836147 0.65373385 -0.96110231 0.15785946 0.2266333 0.0018895804
-0.46423826 -0.85390633 0.69408315 -0.95508403 0.10260116 0.2780064 0.0011616704
-0.4506214 -0.93851006 0.84321231 -0.90938139 0.39507592 0.13015604 0.0050072931
-0.32153529 -0.93772924 0.98684746 0.13563712 0.30355641 0.94310975 0.013123304
-0.47293723 -0.8256951 0.65480578 -0.95533246 0.16996421 0.24176861 0.0040583997
-0.44638008 -0.60879344 0.63327551 -0.52269787 0.84487188 0.11392257 0.043357842
-0.44048998 -0.76452875 0.77099371 -0.2430667 0.96583533 0.089892864 0.0026576163
-0.40148517 -0.61031651 0.83248681 -0.60126561 0.78481108 0.15017045 0.055280276
-0.489434 -0.92594767 0.65912706 -0.9318648 0.30433035 0.19751218 0.0054304544
-0.41539848 -0.77547294 0.89785928 -0.85925382 0.48906726 -0.14998724 0.03607041
-0.49240065 -0.94679487 0.67604017 -0.92107511 0.32502967 0.2144212 0.0084775314
-0.42465279 -0.74684477 0.68737602 -0.27218604 0.95279557 0.13451955 0.016784791
-0.46444541 -0.88642693 0.70511007 -0.94314671 0.18442895 0.27651462 0.0047948132
-0.47002822 -0.86430293 0.67628276 -0.95519668 0.14476836 0.25815001 0.0020666863
-0.34237778 -0.87331361 0.9719156 0.10685232 0.21604726 0.97051847 0.0059534139
-0.36330584 -0.62897664 0.93426353 -0.53626901 0.29330972 0.7914449 0.12195136
-0.46141756 -0.76686621 0.65627384 -0.78185356 0.56469256 0.26424873 0.034888685
-0.45712495 -0.75815791 0.63984114 -0.7824074 0.56537879 0.26112348 0.029691679
-0.44772515 -0.66896087 0.59812373 -0.65560055 0.12055939 -0.74542159 0.14834628
-0.48292974 -0.93670404 0.67225277 -0.93241757 0.30005932 0.20139992 0.0061202226
-0.433936 -0.77054673 0.80825454 -0.30119014 0.9528926 0.035779323 0.0049807876
-0.45759362 -0.85404742 0.72061622 -0.95922929 0.094638407 0.26631328 0.0011658318
-0.46342492 -0.85512948 0.69606417 -0.95508403 0.10260116 0.2780064 0.0011616704
-0.49900198 -0.94833457 0.64861667 -0.92267436 0.3282671 0.2022693 0.0062761642
-0.45635119 -0.85467315 0.72635943 -0.95922929 0.094638407 0.26631328 0.0011658318
-0.37583765 -0.58341777 0.6295234 -0.050498877 0.99781919 0.042506743 0.016725706
-0.30887929 -0.58691108 0.68389505 -0.019427869 0.99886805 0.04341938 0.0068774614
-0.3972632 -0.61549264 0.85269552 -0.63915426 0.75870675 0.12588061 0.045552786
-0.30167383 -0.83956778 0.95564282 0.18973061 0.13885699 0.97196758 0.012834926
-0.44196704 -0.74495 0.61585271 -0.90941703 0.30729002 0.28023812 0.065170087
-0.48828852 -0.84697956 0.56457537 -0.9408384 0.12371174 -0.31546557 0.019085428
-0.14461476 -0.58769172 0.78905505 0.017491836 0.99983698 0.0044731982 0.0094313724
-0.42929566 -0.74133807 0.61689031 -0.86767447 0.42617404 0.25596243 0.082967326
-0.45511761 -0.66530055 0.57697177 -0.31726113 0.21147373 -0.92445892 0.039099216
-0.46171319 -0.75918353 0.60951239 -0.89595449 0.37439159 0.23894896 0.067892559
-0.49052337 -0.91636169 0.63165271 -0.93118119 0.31105533 0.19012155 0.0046413429
-0.49257651 -0.90498871 0.6086995 -0.94233179 0.29838791 0.1515765 0.0060641975
-0.50275683 -0.94906813 0.62872356 -0.92592752 0.329914 0.18388826 0.0043630963
-0.47584516 -0.89818907 0.67608625 -0.94612128 0.25253189 0.20268761 0.0048488346
-0.45476881 -0.95345652 0.88298094 -0.90941024 0.39488316 0.13053858 0.0049017076
-0.44834408 -0.93570852 0.84945524 -0.90938139 0.39507592 0.13015604 0.0050072931
-0.46167046 -0.95762205 0.84029698 -0.90938139 0.39507592 0.13015604 0.0050072931
-0.40156493 -0.73391342 0.9261806 -0.93024522 0.31313151 -0.19129178 0.068373509
-0.5046863 -0.92313212 0.54516208 -0.83429545 0.48781356 -0.25688335 0.054473713
-0.41962931 -0.61490071 0.74535745 -0.34773037 0.93323642 0.090295732 0.025605399
-0.48135749 -0.79866821 0.56572819 -0.84618926 0.30006492 -0.44036889 0.056103673
-0.35351121 -0.78683037 0.96907985 0.24557903 0.16444953 0.95532578 0.042147715
-0.51574337 -0.9549104 0.59092253 -0.91716915 0.37013257 0.14765745 0.0059497245
-0.38372451 -0.60965103 0.90111828 -0.66143954 0.67528945 0.32631567 0.11136355
-0.43207961 -0.73797023 0.61009598 -0.26895258 0.89055914 0.36683622 0.16290958
-0.47000536 -0.73596859 0.56218827 -0.85634434 0.28709006 -0.42924777 0.1003518
-0.42528495 -0.75031638 0.67093378 -0.5645436 0.78413081 0.25773892 0.041861724
-0.35738447 -0.87625939 0.97563708 0.08920867 0.20135002 0.97544855 0.0054507069
-0.46189502 -0.86866933 0.70377481 -0.94787312 0.13770844 0.28735498 0.0020412935
-0.15460792 -0.58332884 0.57348537 -0.024606772 0.99919063 -0.031821247 0.032047585
-0.38586649 -0.70787603 0.93324572 -0.88933182 0.19252893 0.41475484 0.086332105
-0.20156485 -0.58363366 0.67870617 -0.0065327967 0.99996006 -0.0060997531 0.0078003574
-0.32886934 -0.78006655 0.96757299 0.30209929 0.23236239 0.92452347 0.080298074
-0.21359932 -0.58505362 0.71472579 -0.015346593 0.99981767 0.01136677 0.0085609732
-0.46070677 -0.86543071 0.70803463 -0.95643473 0.10091367 0.27395087 0.001172595
-0.49685681 -0.91679752 0.59836328 -0.93703759 0.30993009 0.16094682 0.0063554822
-0.4663659 -0.76112741 0.63648748 -0.82493353 0.50498092 0.25392705 0.034070466
-0.45731902 -0.85192287 0.72186577 -0.95922929 0.094638407 0.26631328 0.0011658318
-0.43087435 -0.77356088 0.81830949 -0.35200322 0.9338271 0.063722856 0.0082348315
-0.45198035 -0.94751167 0.86460489 -0.90941024 0.39488316 0.13053858 0.0049017076
-0.45605791 -0.67541659 0.57557309 -0.37357441 0.080743603 -0.9240793 0.1309579
-0.45574924 -0.6752485 0.5828985 -0.45879748 -0.02127767 -0.88828605 0.16822706
-0.4950079 -0.89938068 0.56896812 -0.92506999 0.36716521 -0.097134896 0.045758121
-0.47079921 -0.7378338 0.56403667 -0.89011306 0.28659666 -0.35434598 0.096764207
-0.47507814 -0.86762005 0.65768617 -0.95892674 0.15254194 0.23914532 0.0019285472
-0.46369755 -0.85208797 0.69459087 -0.95508403 0.10260116 0.2780064 0.0011616704
-0.4149287 -0.6012702 0.75592089 -0.4417443 0.89458025 0.067736179 0.026445527
-0.44514859 -0.75318259 0.64758533 -0.71961325 0.64114714 0.26662174 0.045568965
-0.41834554 -0.59683514 0.72426349 -0.21772628 0.9713614 0.095143691 0.017616739
-0.43539467 -0.59181738 0.56622738 -0.45258576 0.72941703 -0.51294917 0.082982868
-0.4334347 -0.73809886 0.60949236 -0.57365817 0.76758718 0.28587794 0.15819286
-0.45700464 -0.85177797 0.72331643 -0.95922929 0.094638407 0.26631328 0.0011658318
-0.48981017 -0.90361118 0.537848 -0.85392922 0.31106985 -0.41718158 0.078991599
-0.48864743 -0.89246833 0.61057782 -0.94320345 0.29223356 0.15800899 0.0041653472
-0.49794978 -0.92145765 0.60373348 -0.93627763 0.3162587 0.15285483 0.0054610069
-0.51644063 -0.94263428 0.54963845 -0.84598172 0.52381623 -0.099656448 0.035926439
-0.49285507 -0.89469075 0.58718443 -0.93850386 0.3302927 0.10058489 0.010401065
-0.31795451 -0.58556843 0.63594824 0.001744468 0.99921638 0.039541379 0.0093788132
-0.28447065 -0.58453816 0.66970736 -0.029656384 0.99915159 0.028575953 0.0037347004
-0.37945676 -0.74962646 0.68851876 0.0083898297 -0.99724656 -0.07368096 0.016873039
-0.4663319 -0.76359761 0.63014668 -0.85327005 0.44251633 0.27587935 0.033340193
-0.46364188 -0.76734591 0.65480417 -0.79326421 0.55610651 0.2479464 0.037277829
-0.48713881 -0.89392656 0.63675112 -0.9440707 0.27700567 0.17888081 0.0040023397
-0.40372893 -0.85823566 0.97406375 -0.016622404 0.15079339 0.98842555 0.0041706027
-0.329353 -0.87343979 0.96863741 0.17966881 0.24269167 0.95332044 0.0048829843
-0.35415497 -0.85514253 0.97522879 0.19291686 0.11822332 0.97406685 0.014311087
-0.24623135 -0.88234884 0.95641363 0.2113179 0.17604083 0.96143359 0.024212636
-0.28270674 -0.92591631 0.9740414 0.25397566 0.20522006 0.94518846 0.02681664
-0.21607679 -0.87240386 0.94844824 0.22743756 0.036702827 0.97310072 0.018669499
-0.24605864 -0.89852804 0.95613027 0.24528152 0.18914758 0.95082074 0.034823373
-0.24876602 -0.87714231 0.96265 0.2113179 0.17604083 0.96143359 0.024212636
-0.21686068 -0.90474916 0.95557958 0.20692846 0.13638109 0.96880382 0.026660288
-0.3718726 -0.87289977 0.97494245 -0.00039042774 0.1904496 0.98169684 0.00574501
-0.29748216 -0.91839623 0.97663099 0.25263754 0.22589439 0.94082201 0.02444317
-0.16403201 -0.92212802 0.94624615 0.10875642 0.19125877 0.97549582 0.018740797
-0.21627729 -0.87775177 0.94765204 0.21847561 0.084374428 0.97218794 0.019910822
-0.21991591 -0.89887774 0.95247924 0.20026532 0.12223766 0.97208631 0.024133148
-0.29913151 -0.84160364 0.95240921 0.18844453 0.13928391 0.9721567 0.011301791
-0.22542293 -0.88199389 0.95227087 0.23556826 0.062064789 0.96987402 0.022707885
-0.42821372 -0.94985545 0.97758937 -0.18537885 0.0028554834 0.98266304 0.00098969764
-0.35093614 -0.92772216 0.98764151 0.036268849 0.18290044 0.98246223 0.0099093551
-0.25566924 -0.90293187 0.96113467 0.23858841 0.21515429 0.94698691 0.026398379
-0.25719279 -0.93947732 0.97267199 0.34380013 0.073346205 0.93617409 0.032648303
-0.36346605 -0.86625856 0.97579348 0.078451641 0.20272368 0.97608829 0.0061186366
-0.38503894 -0.93049014 0.98552239 -0.063802756 0.13964231 0.98814434 0.0036083828
-0.29955032 -0.91871023 0.97155046 0.25197417 0.23129801 0.93968618 0.022890588
-0.18047909 -0.90276939 0.94584846 0.16202883 0.16934599 0.97214633 0.018219432
-0.15914047 -0.93463492 0.94719344 0.11841846 0.19060357 0.97449851 0.014040043
-0.41291821 -0.90650505 0.98082691 -0.088583581 0.15201706 0.98440015 0.0040795696
-0.28159297 -0.58559012 0.66620088 -0.018655175 0.99959677 0.021407699 0.0072227363
-0.20656131 -0.74438769 0.88619089 0.054815669 0.9883486 0.14199416 0.048965368
-0.1012879 -0.58487958 0.68404692 0.041649278 0.99884474 -0.023967469 0.014176005
-0.054443106 -0.60093486 0.87133676 0.29811183 0.80937529 0.50600505 0.099166945
0.0060288087 -0.86425507 0.89856863 0.38560033 0.16079801 0.90854627 0.018423853
0.041740976 -0.9428345 0.91167009 0.61400241 0.50117385 0.60977536 0.060737789
-0.074022941 -0.7191211 0.85317218 -0.35053125 0.25140372 0.90217733 0.048956286
-0.1252923 -0.79993778 0.91402525 0.14077951 0.31491444 0.93862134 0.037785139
-0.015442828 -0.85124278 0.90468705 0.28491068 0.16066423 0.94499367 0.015984058
-0.11611513 -0.86426675 0.9277842 0.15150355 0.25810817 0.95416296 0.011995113
-0.12397823 -0.5831604 0.85310966 0.11713791 0.98384893 0.13535148 0.026065791
-0.036648367 -0.77031839 0.89826238 0.12660548 0.39968842 0.9078657 0.040056176
-0.21897507 -0.87173629 0.94895917 0.22091137 0.040689237 0.97444481 0.020156879
-0.077425458 -0.71776378 0.84957302 -0.33568785 0.24787241 0.90877551 0.058137152
-0.14237072 -0.88137078 0.93513262 0.14039725 0.24822827 0.95847338 0.011405439
-0.05038061 -0.87848073 0.91456687 0.19855784 0.27920482 0.93947828 0.012255606
-0.12658052 -0.59767324 0.87852341 0.16550778 0.95425826 0.24899447 0.048356269
-0.098065145 -0.67477494 0.84000528 -0.34677923 0.024498411 0.93762678 0.037900638
-0.14813526 -0.84833032 0.92056704 0.22072841 0.14753179 0.9641127 0.016860101
0.0090508191 -0.71945882 0.8624233 0.31742382 0.12844397 0.93954468 0.052246526
-0.064792871 -0.7476151 0.87801987 -0.1863113 0.46700054 0.86440647 0.061445333
-0.18145794 -0.89494157 0.94348937 0.16215894 0.16946177 0.97210455 0.017832559
-0.050057411 -0.60311157 0.86640322 0.26845792 0.80958593 0.52201629 0.11202438
0.057282034 -0.92710841 0.879942 0.71483916 0.37938404 0.58742887 0.05277586
0.046257045 -0.9105292 0.8860696 0.64681977 0.35410643 0.67545003 0.036945865
-0.029127777 -0.76813209 0.89068967 0.17637439 0.38846454 0.90442657 0.03789641
-0.19349308 -0.89172333 0.94629687 0.18267629 0.12572475 0.97510141 0.020045288
-0.18506423 -0.86112058 0.93210077 0.22269414 0.18278186 0.95760024 0.012447015
-0.071534172 -0.74309146 0.86866176 -0.28489354 0.47196367 0.83431768 0.052849337
-0.10895906 -0.68263394 0.83562797 -0.37893063 -0.020217633 0.92520422 0.042849284
-0.00075086782 -0.93777406 0.94699728 0.2764726 0.67064422 0.68833071 0.070898198
0.0069880961 -0.75879234 0.8722173 0.32023326 0.35605589 0.87788087 0.026669381
-0.15410118 -0.86084867 0.93132508 0.20219567 0.17583779 0.96343029 0.012502586
-0.075286463 -0.60035521 0.87938511 0.14510132 0.90992367 0.38856712 0.11133085
-0.17304139 -0.93104064 0.94087201 0.089947194 0.1457191 0.9852286 0.019204637
-0.049496114 -0.75378233 0.88429761 0.023976116 0.39304426 0.91920692 0.045415025
-0.14215977 -0.60050368 0.89487278 0.00029504992 0.92685628 0.3754161 0.049609635
-0.20787162 -0.89386988 0.94924355 0.1891041 0.14166324 0.97168469 0.023586225
-0.097117014 -0.76029801 0.87925255 -0.19506957 0.5933454 0.780954 0.058795772
-0.15199111 -0.92817801 0.95057225 0.12471113 0.20390366 0.9710151 0.013519464
-0.15802684 -0.93047494 0.94782448 0.12586598 0.19309409 0.97307366 0.013359687
-0.12909485 -0.86397821 0.92668802 0.11744583 0.2372909 0.96431297 0.011399594
-0.041620687 -0.58976698 0.82069868 0.073220544 0.98338902 0.16608655 0.020507015
-0.21105415 -0.74477953 0.82986629 0.015582722 -0.99746454 -0.06943842 0.021867845
-0.21773674 -0.90739268 0.94772023 0.19615264 0.11889182 0.97333902 0.026034491
-0.098721698 -0.950782 0.94390249 0.057249408 0.043025322 0.99743241 0.014193251
-0.12761933 -0.58677387 0.6538558 0.018904211 0.99977946 -0.0091494014 0.0097734584
-0.17067927 -0.94359952 0.93565202 0.035689611 0.086674072 0.99559724 0.021715177
-0.19899541 -0.74261028 0.84380591 0.014637253 -0.9982276 -0.057684839 0.025353547
-0.17328994 -0.95665616 0.93391114 -0.064724758 -0.13991487 0.98804581 0.019998504
-0.15164742 -0.744573 0.83016783 0.2202044 -0.96149814 -0.1644123 0.086428545
-0.022518283 -0.81946796 0.90422869 0.2272494 0.21619374 0.94953567 0.0095037641
-0.065715119 -0.82937503 0.88714892 0.13802542 0.23934543 0.96107376 0.021509383
-0.050050676 -0.88017654 0.91197217 0.19855784 0.27920482 0.93947828 0.012255606
-0.17836612 -0.58450556 0.8588959 -0.067692965 0.99079597 0.11722235 0.046360049
-0.12404678 -0.73874897 0.82502371 -0.31807542 0.45834821 0.82990664 0.08028549
-0.061069187 -0.60292995 0.87446004 0.2717343 0.79188985 0.54687375 0.11562714
-0.0053957081 -0.85662007 0.90280426 0.33596352 0.19361258 0.92176068 0.027966375
-0.05793551 -0.75167745 0.87922013 -0.044109855 0.40712604 0.91230625 0.051029757
-0.24806751 -0.89475954 0.95783657 0.22234441 0.22548525 0.94853538 0.032090023
-0.17962435 -0.74876881 0.892259 0.22984751 0.91546696 0.33028829 0.06804125
-0.24713495 -0.88889277 0.95736897 0.20800453 0.1812669 0.96118486 0.025756424
-0.16707134 -0.81250739 0.92123562 0.15407576 0.30298722 0.94045705 0.037751265
-0.21096268 -0.60048193 0.89549178 -0.040032353 0.95283729 0.30082968 0.0625626
-0.071900718 -0.61271864 0.86916912 0.23050508 0.80436063 0.5476051 0.14328565
-0.22858848 -0.61575949 0.90300846 -0.00056760316 0.91090387 0.41261825 0.087260149
-0.24825665 -0.92864752 0.96012115 0.26069331 0.18146914 0.94821298 0.031257607
-0.080146551 -0.74345315 0.8660838 -0.29017875 0.46756393 0.83497328 0.051048551
-0.18410389 -0.59086293 0.87436557 -0.11144906 0.96866077 0.22198081 0.054457176
-0.21788025 -0.74198014 0.80009931 0.02386971 -0.9962281 -0.083426259 0.018116135
-0.028120175 -0.59290874 0.77165627 0.087203816 0.99592006 0.023208331 0.0066100885
-0.20054901 -0.82707691 0.94350332 0.28248414 0.070509359 0.95667714 0.0090385554
-0.2138232 -0.74770755 0.87873155 -0.042142764 -0.99000567 -0.13458389 0.045097247
-0.22387396 -0.90281606 0.94804198 0.21084355 0.13216119 0.96854448 0.02542926
-0.20080285 -0.76637065 0.94168764 0.25583053 0.65699065 0.70916432 0.062863097
-0.19942403 -0.61049432 0.89471835 -0.036104899 0.94864649 0.31427088 0.062394891
-0.21207383 -0.59966421 0.8965016 -0.039696552 0.95159042 0.30479464 0.063876115
0.0070405747 -0.94686353 0.94423407 0.25836125 0.81415564 0.52000004 0.048368819
-0.15525506 -0.74464506 0.85532469 0.10525411 -0.98291385 -0.15100306 0.066860765
-0.1904522 -0.81396478 0.94643098 0.25075173 0.16538583 0.95381922 0.016523432
-0.0001704927 -0.87251389 0.90493351 0.40992883 0.23580806 0.88110888 0.018181864
-0.27669936 -0.74830633 0.88037455 0.075592861 0.93860638 0.33660617 0.10375632
-0.16242301 -0.94766438 0.94366878 0.091558039 0.13312386 0.98686123 0.018659513
-0.28659496 -0.79030538 0.94991118 0.4170661 0.41168186 0.81029248 0.10712738
-0.16086966 -0.58397096 0.70851201 -0.0019737559 0.99999809 -0.00020015235 0.0014502747
-0.28367513 -0.93782592 0.97716033 0.26024422 0.23791383 0.93577236 0.028882703
-0.28948629 -0.79594731 0.95012289 0.42217195 0.39627677 0.8153131 0.11284959
-0.054516189 -0.58630401 0.63809144 0.073414743 0.99684727 -0.030095363 0.031264156
-0.096745081 -0.78326929 0.91183043 0.11467039 0.37908307 0.91823024 0.040040232
-0.078808226 -0.77773523 0.90877712 0.069851302 0.3677704 0.92728949 0.038317025
-0.28533873 -0.58703822 0.77017701 -0.031401943 0.99903935 0.030565187 0.032851409
-0.25734648 -0.5881533 0.81265819 -0.027625769 0.99957138 0.0096925488 0.024461681
-0.17258511 -0.58453286 0.86763835 -0.068978898 0.98344976 0.16753653 0.055728212
-0.28375444 -0.94610262 0.97829711 0.28816622 0.20470157 0.93544507 0.0336922
-0.17214683 -0.58444846 0.83223319 -0.042240381 0.99656165 0.071279012 0.033443965
-0.17932819 -0.74969405 0.89648151 0.2911073 0.90309942 0.31570223 0.06090121
-0.20945625 -0.59686816 0.89743519 -0.040032353 0.95283729 0.30082968 0.0625626
-0.295762 -0.59001905 0.76136428 -0.023545796 0.99899608 0.038108397 0.021344364
-0.11453591 -0.59059882 0.80188268 0.032872818 0.99907702 0.02764952 0.013351504
-0.28771719 -0.75315714 0.88784951 0.32248172 0.72477531 0.60885656 0.10460775
-0.14951126 -0.92586076 0.9526841 0.12943508 0.21588553 0.96780163 0.013393484
-0.17610197 -0.74562854 0.88599277 0.20139942 0.90752643 0.36855662 0.075993307
-0.27609411 -0.77841401 0.95242047 0.31926975 0.57528645 0.75306857 0.12355417
-0.12666488 -0.78661346 0.92498964 0.18442878 0.3267222 0.92695123 0.047136355
-0.25211912 -0.59363705 0.80456567 -0.034426399 0.99911183 0.024297634 0.026226467
-0.26909515 -0.73997355 0.8862192 0.0319511 0.97942686 0.19925407 0.077206671
-0.24486861 -0.89527726 0.95745248 0.22051592 0.22450478 0.94919455 0.030835595
-0.37435961 -0.67017949 0.93061936 -0.55893713 0.17577158 0.81036633 0.058948439
-0.27750993 -0.58543122 0.56980079 -0.03958023 0.98709297 -0.15518023 0.019095981
-0.18047662 -0.7460559 0.88360435 0.22308794 0.92687368 0.30188891 0.060489774
-0.1354505 -0.58441037 0.66578692 0.019398296 0.99948704 -0.02547933 0.0094563868
-0.16767704 -0.58532786 0.77964455 0.00053866958 0.99990076 0.01407471 0.0075491634
-0.12944587 -0.94471544 0.9519335 0.059290126 0.18973824 0.98004287 0.02099086
-0.07354638 -0.58146733 0.7021423 0.059002016 0.99825734 -0.0010307583 0.014603084
-0.22882773 -0.5859701 0.75159353 -0.025846265 0.99857014 0.046792489 0.014656086
-0.26768404 -0.58479476 0.79945165 -0.030593656 0.99909991 0.029385397 0.030746464
-0.32339638 -0.58785647 0.72373784 -0.027669616 0.99928057 0.025938785 0.0048355404
-0.3987022 -0.58040744 0.59813976 -0.085347116 0.98322546 -0.16119395 0.044079419
-0.28898346 -0.58598441 0.83169681 0.037362635 0.99927294 -0.0075845835 0.031622507
-0.13839225 -0.58234423 0.59186715 -0.022638239 0.99968362 -0.010968669 0.017580723
-0.18051459 -0.58617735 0.87506473 -0.10526922 0.96720123 0.23117116 0.056366585
-0.050727729 -0.58586287 0.64405733 0.094740413 0.99528557 -0.020759054 0.027219968
-0.18095268 -0.58404899 0.86067325 -0.083255365 0.98788959 0.13093032 0.050729219
-0.094068818 -0.8434785 0.92085588 0.13505147 0.19667485 0.97112304 0.013342015
-0.13688031 -0.58315492 0.54046494 -0.051634405 0.97473431 -0.21731731 0.08648546
-0.34888548 -0.92579228 0.98691595 0.036268849 0.18290044 0.98246223 0.0099093551
-0.12751196 -0.58471018 0.89209712 0.089508355 0.95796156 0.27257651 0.026271062
-0.06672027 -0.70991701 0.85797983 -0.27852792 0.26084906 0.92432678 0.050774172
-0.057009991 -0.75020838 0.87928629 -0.041005239 0.42996621 0.90191329 0.051054064
-0.093319371 -0.78297073 0.91058111 0.09502627 0.38707885 0.91713685 0.044110905
-0.078640066 -0.76968062 0.90696061 0.065838531 0.41688669 0.90657085 0.043617122
-0.18817827 -0.59151465 0.88319683 -0.10132056 0.96403837 0.24569097 0.055857886
-0.045646053 -0.74480039 0.88490653 0.052146215 0.43169793 0.90050972 0.052846484
-0.032671761 -0.81492925 0.90526295 0.21781768 0.23653884 0.94689214 0.010449436
-0.049698073 -0.87167096 0.92195565 0.18486233 0.27619207 0.9431563 0.01188242
-0.18257113 -0.58850491 0.6176312 -0.011111232 0.99991983 -0.0060721473 0.01051323
-0.050155777 -0.81164318 0.91473234 0.18642804 0.24415304 0.951648 0.013470751
-0.071188375 -0.59845942 0.88005054 0.14444397 0.90955299 0.3896783 0.10763628
-0.33874655 -0.5843761 0.70385647 -0.017754789 0.99869621 0.047860742 0.0082964785
-0.011327249 -0.85212541 0.90596753 0.29306456 0.21398005 0.93183988 0.028458048
-0.085621603 -0.58610469 0.80726522 0.07396622 0.99166113 0.10553275 0.017911531
-0.27893615 -0.58064502 0.59310001 -0.030986417 0.99637264 -0.07925453 0.014106577
-0.34471181 -0.58628267 0.84227997 -0.13301554 0.99109447 0.0062189917 0.037850626
-0.1555697 -0.58584332 0.80010378 0.012441541 0.99992096 0.0017727268 0.012846882
-0.32835415 -0.7752406 0.95847702 0.3331427 0.36707026 0.86849034 0.10108911
-0.12868118 -0.58426249 0.81775701 0.037666645 0.99911743 0.018587671 0.01649113
-0.1856266 -0.59398323 0.88260353 -0.10927598 0.96219921 0.2494624 0.057806056
-0.27269602 -0.74055719 0.91350281 0.086141236 0.81026429 0.57969946 0.090720445
-0.25842926 -0.58378142 0.63837433 0.018906765 0.99981332 -0.0039780177 0.0040250942
-0.35807186 -0.64179617 0.93005264 -0.58125001 0.19592616 0.78978562 0.089286506
-0.22537406 -0.74517059 0.85817122 0.0022716485 -0.99848813 -0.054920383 0.035471849
-0.35269597 -0.58595312 0.9268446 -0.23482355 0.86515659 0.44312745 0.11184536
-0.19606787 -0.5855611 0.64268243 0.0019827676 0.99997711 -0.0064781369 0.0040063849
-0.13954994 -0.58839154 0.77894109 0.014601835 0.99982607 0.01159608 0.0081054857
-0.16240808 -0.58537906 0.83986574 -0.0051654042 0.99681509 0.079580054 0.034232367
-0.052031606 -0.5773738 0.63044828 0.081825703 0.99638927 -0.022649456 0.035714246
-0.30342683 -0.74248397 0.92663413 0.52372807 0.57657397 0.62711352 0.081385285
-0.097698458 -0.58473122 0.55443424 0.13071211 0.98140579 -0.14055954 0.027186587
-0.164904 -0.90870678 0.95235145 0.15723965 0.22254501 0.96215868 0.012272777
-0.3064228 -0.76508927 0.9090268 0.62577939 0.47183263 0.62110722 0.093061589
-0.17379937 -0.58850926 0.76728159 -0.010964514 0.99968368 0.022633135 0.0085351309
-0.19726053 -0.5868122 0.81982821 -0.040536754 0.99872625 0.030045081 0.013353417
-0.35299209 -0.58088261 0.67426509 -0.01803281 0.99748254 0.068581283 0.01278242
-0.36547285 -0.58223295 0.70183039 -0.064717188 0.99552655 0.068836495 0.011416072
-0.048774503 -0.58961344 0.77255386 0.051256016 0.99836659 0.025238123 0.013430692
-0.039689898 -0.58814257 0.76683509 0.074379288 0.99715233 0.012451279 0.011248039
-0.06762559 -0.58727443 0.81215441 0.07842084 0.98970544 0.11972239 0.017381104
-0.1474077 -0.7356174 0.8520332 -0.18625477 0.95145905 0.24502008 0.074735403
-0.25191194 -0.58476347 0.60674399 0.016520293 0.99981993 -0.0093362909 0.0062554316
-0.099025741 -0.58029264 0.59005165 0.086679481 0.99621618 0.0063339639 0.023071665
-0.040795296 -0.71114022 0.87182361 -0.03455998 0.28291643 0.95852166 0.074423797
-0.1980194 -0.58688486 0.81161427 -0.040237166 0.99909067 0.014095874 0.011663502
-0.32296118 -0.58003455 0.69040906 -0.020521592 0.99890763 0.041981351 0.0062777437
-0.3039239 -0.58661509 0.69196332 -0.030439068 0.99886996 0.036499828 0.0043707723
-0.2527996 -0.59003913 0.79681754 -0.029046156 0.99899179 0.034229346 0.024278112
-0.30095002 -0.7454868 0.91360885 0.52893561 0.58673912 0.61315936 0.082382806
-0.29843661 -0.58864427 0.72111475 -0.025235008 0.99875408 0.043051086 0.0094030509
-0.084057897 -0.58717757 0.81285602 0.067846283 0.99129808 0.11280531 0.018338736
-0.18620832 -0.58423036 0.86197311 -0.098030828 0.98054123 0.17008474 0.05329451
-0.28996921 -0.58553922 0.81384629 0.018534552 0.999569 -0.022766557 0.032670416
-0.19972111 -0.62818944 0.89074069 -0.022451803 0.93568826 0.35211271 0.072338477
-0.11726335 -0.57492977 0.79471213 0.022719888 0.99973702 0.0030967027 0.011759932
-0.10300628 -0.58014506 0.60263944 0.066938974 0.99767137 0.013080765 0.020123618
-0.080330096 -0.58692288 0.7453239 0.058854606 0.99811381 0.017465742 0.011168298
-0.15535785 -0.58432132 0.69706494 -0.0011265066 0.99990487 -0.01374936 0.001673497
-0.37553453 -0.587888 0.57060546 -0.065208353 0.9533906 -0.29460865 0.04605414
-0.28907305 -0.58247668 0.67756301 -0.035916295 0.99859875 0.038865916 0.0042659901
-0.40143517 -0.85978556 0.97529805 -0.016464584 0.15066646 0.98844755 0.0043425793
-0.38531527 -0.93524313 0.98429936 -0.06604071 0.13487358 0.98865956 0.003710496
-0.085163616 -0.5864417 0.68667185 0.050906152 0.99867421 -0.007637667 0.020996669
-0.012520142 -0.6021021 0.85317475 0.4982366 0.73444349 0.46081799 0.092809774
-0.10567956 -0.58278787 0.5720827 0.11300126 0.9932974 -0.024311123 0.017017635
-0.26298261 -0.58738482 0.5670504 -0.05034494 0.98825669 -0.14427064 0.013562027
-0.23019503 -0.58335078 0.70905739 -0.012462063 0.99979085 0.016215529 0.0084111439
-0.22247022 -0.58276689 0.71051365 -0.013587598 0.99985796 0.0099754799 0.0084906314
0.0087115839 -0.72101694 0.86858749 0.29805693 0.12587492 0.94621223 0.05110167
0.0013122173 -0.85437566 0.899342 0.33187568 0.12281507 0.93529409 0.016818499
-0.22813989 -0.86392015 0.95207298 0.13582635 0.09590885 0.98607945 0.02598148
-0.21315314 -0.58435565 0.72286379 -0.022255059 0.99950153 0.022393232 0.0091592185
0.037676379 -0.94290352 0.91547346 0.59657425 0.48198992 0.64170468 0.051706668
-0.17022415 -0.58541054 0.66242099 -0.0059689977 0.99993938 -0.0092513599 0.0045460304
-0.17461085 -0.94672084 0.96934509 0.071696557 0.093898848 0.99299675 0.034138963
-0.14408518 -0.58329678 0.74421644 0.014455856 0.99940771 0.03122811 0.0080612199
-0.11618469 -0.73238617 0.83542544 -0.34156331 0.28484011 0.89565653 0.08786162
-0.18163721 -0.58362526 0.68848473 -0.018129738 0.99973214 -0.014386279 0.0084394123
-0.057525665 -0.57455498 0.61448598 0.10075036 0.99491131 0.00088400999 0.040939961
-0.20216314 -0.58590865 0.73657423 -0.017584223 0.99899304 0.04127726 0.01138575
-0.32343668 -0.61076629 0.92769086 0.051881645 0.59748971 0.80019647 0.091894768
-0.38106459 -0.85789853 0.97662556 0.030518034 0.1389115 0.98983443 0.0035760859
-0.057148285 -0.60224777 0.87421995 0.28398192 0.78724718 0.54735374 0.11200836
-0.20512852 -0.74108487 0.85243213 0.00093187165 -0.99841017 -0.056359246 0.022779956
-0.21976458 -0.72289747 0.91294694 0.1085982 0.98756701 0.11365663 0.046014912
-0.091174759 -0.65704542 0.86015803 -0.13986051 -0.11667886 0.98327261 0.059482422
-0.20420799 -0.88261616 0.94619972 0.19380422 0.11652909 0.97409493 0.020520007
-0.15833458 -0.85547549 0.92829835 0.20616874 0.16963352 0.96370065 0.012704167
-0.25410286 -0.58293283 0.76799327 -0.031268153 0.99838269 0.047479987 0.015827341
-0.091154881 -0.91535997 0.94121736 0.099250048 0.24753758 0.96378136 0.007719826
-0.032133751 -0.77331811 0.8929686 0.16609932 0.37828159 0.91066682 0.035306353
-0.11105998 -0.58350134 0.52634543 0.0073712501 0.97126055 -0.23790435 0.066183664
0.0058669671 -0.94114703 0.93262738 0.35748342 0.64619696 0.67426634 0.059050202
-0.43491709 -0.91933024 0.97492409 -0.14498097 0.10951328 0.98335516 0.0045092348
-0.17929763 -0.59868711 0.89247388 -0.088390395 0.95066082 0.29737371 0.06351842
-0.17677024 -0.57719177 0.58317572 -0.026844734 0.999493 -0.017119262 0.020424187
-0.36648312 -0.58731371 0.90140229 -0.3732371 0.89605594 0.24037011 0.087793678
-0.11598765 -0.57140875 0.78881568 0.02279114 0.99969685 0.0093188584 0.013168054
-0.39200792 -0.58633024 0.59074473 -0.058440898 0.97444034 -0.21691166 0.051046733
-0.35523292 -0.78588098 0.97028768 0.24403015 0.083938137 0.96612823 0.018647242
-0.094541535 -0.58561671 0.68076891 0.046347458 0.99889183 -0.0081821065 0.018138887
-0.21982583 -0.58513093 0.73550385 -0.029283397 0.99842554 0.047843706 0.011707391
-0.18446259 -0.57864517 0.59256864 -0.016275719 0.99984765 -0.0063070701 0.022793386
-0.049614929 -0.74364704 0.88177133 0.0094915517 0.43404385 0.90084171 0.052158192
-0.0384028 -0.6009984 0.86843592 0.23264594 0.79876065 0.55484885 0.13071828
-0.17384152 -0.79490161 0.92753297 0.14316522 0.38688716 0.91094571 0.054786194
-0.30986354 -0.5833897 0.65433925 -0.016099704 0.99922001 0.036057919 0.0063460451
-0.29420027 -0.73527151 0.90100121 0.4141326 0.70058411 0.58109897 0.10826282
-0.14395148 -0.58573234 0.76832974 0.010449524 0.99972647 0.020923531 0.0073829046
-0.019646658 -0.77355331 0.88778007 0.19467773 0.35716653 0.91352761 0.035826363
-0.11922427 -0.57706702 0.86876184 0.11845262 0.97690779 0.17782077 0.017319759
-0.017380128 -0.66429973 0.87225503 0.11240631 0.064632133 0.99155807 0.030785413
-0.22898793 -0.56843328 0.89971578 -0.0021882572 0.91509759 0.40322646 0.072585389
-0.13558088 -0.58318037 0.68937606 0.015276052 0.99975753 -0.015863344 0.0053349948
-0.38227153 -0.9238317 0.98729599 -0.051565547 0.1546379 0.98662466 0.0041922182
-0.21205543 -0.74160719 0.87922156 -0.0055598421 -0.99704236 -0.076652572 0.033966292
-0.33155778 -0.7804473 0.96366155 0.32124409 0.28327614 0.90363544 0.10883875
-0.04888491 -0.58293873 0.70973891 0.073009729 0.99719399 0.016544472 0.013957554
-0.2101983 -0.58195221 0.53558356 -0.035932466 0.98444462 -0.17198132 0.033801645
-0.17213044 -0.56586975 0.53317022 -0.018445414 0.98592585 -0.16616261 0.038365725
-0.32452631 -0.58754694 0.8198185 0.0039611119 0.99952126 -0.030684305 0.030364515
-0.35347664 -0.64633256 0.92978424 -0.5278545 0.1449997 0.83686602 0.075311735
-0.23555164 -0.58590096 0.64425963 0.019056275 0.99974549 -0.012074261 0.0039957087
-0.074892364 -0.7371459 0.86617517 -0.27236524 0.44860384 0.85121781 0.058184374
-0.056543719 -0.75756723 0.89010555 -0.013042863 0.39041591 0.92054617 0.046848245
-0.030058471 -0.71732533 0.87842518 0.056506928 0.24011807 0.96909767 0.086006708
-0.16621144 -0.58347648 0.70430076 -0.0092704901 0.99995399 -0.0024720815 0.0034865679
-0.069480889 -0.61779451 0.84944493 0.079022944 0.82601833 0.5580762 0.16823661
-0.27359137 -0.58522564 0.68850094 -0.030234186 0.99860001 0.043402985 0.0084203491
-0.23982309 -0.58478397 0.67182928 0.010962687 0.99993438 0.0033298142 0.0082375333
-0.23740916 -0.62358898 0.90624821 0.091325611 0.81353462 0.57430047 0.10076013
-0.15769583 -0.58514851 0.83963925 -0.0019344076 0.99747968 0.070925705 0.028107099
0.033263545 -0.81650603 0.88615334 0.40598586 0.19993402 0.89174092 0.009250151
-0.09933304 -0.58940792 0.8075611 0.062225703 0.99332339 0.097141959 0.016836738
0.021515926 -0.94735414 0.93822265 0.33484688 0.71561289 0.61300552 0.057442896
-0.048585426 -0.7714588 0.90229011 0.011975624 0.38327897 0.92355502 0.045941427
-0.20524542 -0.58511752 0.61105108 -0.0058612367 0.99996495 -0.005976697 0.0097276736
-0.20414206 -0.58212221 0.67706424 -0.0043937769 0.999982 -0.0040791132 0.0082094828
-0.18615384 -0.58378935 0.66937101 -0.0034238405 0.99990869 -0.013071606 0.0064870738
-0.060344234 -0.60896772 0.86972272 0.27138439 0.78159982 0.56165129 0.13008246
-0.30727577 -0.76533413 0.93925697 0.53487402 0.46757108 0.70376623 0.10061479
-0.41223356 -0.90397465 0.97934365 -0.088583581 0.15201706 0.98440015 0.0040795696
-0.068417907 -0.66512066 0.86053979 -0.20159766 -0.021300728 0.97923678 0.038803943
-0.30788147 -0.94252008 0.98764426 0.13746704 0.37259838 0.91775441 0.014914552
-0.057773191 -0.58448738 0.71330297 0.075466014 0.99710554 0.0092453165 0.013274046
-0.30927026 -0.77597684 0.95893413 0.41466773 0.41483629 0.80991453 0.10000008
0.00079693744 -0.90469027 0.91497326 0.39835605 0.38151622 0.83412099 0.028343569
-0.38762674 -0.58650166 0.65857792 -0.066572621 0.99588656 0.061465576 0.015279339
-0.19931293 -0.58413416 0.68215543 -0.006901877 0.99995512 -0.0064896531 0.0077611092
-0.19410987 -0.58463615 0.7214781 -0.016417885 0.99981594 0.0099275094 0.0088825487
-0.19225907 -0.58469748 0.69574887 -0.01495648 0.99979967 -0.013301278 0.0083713736
-0.31777519 -0.57756138 0.62512761 0.0022570172 0.99978453 0.020634338 0.0095690964
-0.35249609 -0.84501261 0.97117877 0.24018076 0.073787451 0.96791971 0.014347532
-0.18968832 -0.74441117 0.86997885 -0.030719168 -0.99054265 -0.13372225 0.045116786
-0.30748731 -0.71646947 0.90575761 0.47706017 0.7458263 0.46492654 0.14519541
-0.28225586 -0.58363771 0.79612273 -0.021299643 0.99964577 0.015960766 0.03312365
-0.12472612 -0.58515513 0.67337483 0.044904515 0.99830025 -0.037151888 0.013306742
-0.011170295 -0.79750586 0.89754236 0.24651548 0.26664346 0.93173569 0.013939514
-0.10021109 -0.59995061 0.79699343 0.042960677 0.99541628 0.085444063 0.01985573
-0.22761674 -0.63237244 0.89998484 -9.5100375e-05 0.91008693 0.41441745 0.10015383
-0.022801947 -0.6951344 0.87145144 0.058308378 0.14594986 0.98757219 0.059301961
0.015576703 -0.84811693 0.89391166 0.35698816 0.11893158 0.9265067 0.009954608
-0.080644317 -0.59002411 0.52937108 0.19432461 0.95154589 -0.2383239 0.059631664
-0.13577789 -0.68616897 0.85114628 0.0025134708 -0.25316286 0.9674204 0.075889535
-0.31270295 -0.77939785 0.95869416 0.36251456 0.38883781 0.84698778 0.10456014
-0.32916746 -0.93514079 0.98749775 0.097391896 0.2361794 0.96681648 0.010038321
-0.11209075 -0.58047748 0.62284112 0.04209438 0.99909943 0.005322089 0.015590804
-0.13207105 -0.86445028 0.92890602 0.15426208 0.21002737 0.96544904 0.014344496
-0.22759403 -0.89899564 0.95066118 0.2243101 0.13147481 0.9656083 0.024020214
-0.11069517 -0.58491582 0.6745466 0.029969947 0.99921 -0.026100913 0.014207195
-0.0056455508 -0.93683964 0.93112469 0.3447929 0.53187466 0.77345157 0.047272608
-0.022620557 -0.6617983 0.87391847 0.052496701 0.040466547 0.99780089 0.036383253
-0.1239813 -0.58302408 0.89161074 0.10139599 0.96355474 0.24755041 0.026209367
-0.18555072 -0.59438175 0.88823974 -0.090916157 0.95851111 0.2701675 0.059108008
-0.17968765 -0.86846507 0.94385248 0.21944264 0.16506614 0.96156025 0.014482952
-0.29740995 -0.73135817 0.90018648 0.38314742 0.71629679 0.58319533 0.134326
-0.28768736 -0.76029688 0.95976865 0.54141408 0.51630807 0.66354865 0.097601481
-0.084724292 -0.77031773 0.90041786 0.04915712 0.42351341 0.90455508 0.046753008
-0.05813165 -0.59069574 0.65503943 0.072490796 0.99728781 -0.012729738 0.029277071
-0.15808205 -0.8660531 0.93909997 0.20027851 0.17720628 0.96358001 0.013973469
-0.03547363 -0.59108657 0.72859734 0.088181816 0.99610436 0.00014527098 0.01640885
0.0081186211 -0.94683599 0.9495163 -0.22515063 -0.86065149 -0.45671239 0.063834302
-0.020143401 -0.91411352 0.92206293 0.30636761 0.38841876 0.86906254 0.026264377
0.0024337089 -0.94569522 0.96666938 -0.19499969 -0.91619086 -0.35009927 0.081440002
-0.16066232 -0.6091457 0.88945919 -0.091472365 0.93676233 0.33780056 0.062516399
-0.27603173 -0.94659418 0.9885304 0.29341984 0.19848666 0.93515122 0.034861524
-0.29192615 -0.78818077 0.95272005 0.4170661 0.41168186 0.81029248 0.10712738
-0.15517507 -0.86234069 0.93276119 0.20032369 0.18225898 0.96262765 0.012204687
-0.044202957 -0.59106433 0.82931232 0.10098732 0.97930801 0.17537759 0.026688345
-0.02023783 -0.59379321 0.85073763 0.37150869 0.84533018 0.38392475 0.089682639
-0.071881741 -0.74473649 0.87014961 -0.26786199 0.51191831 0.81620443 0.055069104
0.0096164132 -0.69330406 0.86330438 0.34790576 0.02805149 0.93710983 0.048345141
-0.066792101 -0.61216545 0.8688311 0.23665836 0.78117788 0.57771444 0.14220616
-0.037404209 -0.68146145 0.87133485 -0.1376442 0.080042779 0.98724228 0.033214442
0.076695263 -0.94633961 0.88552326 0.74153006 0.41512966 0.52706778 0.061451755
-0.20768462 -0.74414158 0.88907045 0.05418792 0.98741782 0.14855871 0.052996498
-0.19711672 -0.74828863 0.89198279 0.16666561 0.946087 0.2777442 0.080335513
-0.24351087 -0.86241531 0.96685183 0.16971433 0.14436617 0.97486168 0.022032723
-0.20991015 -0.73611045 0.90486193 0.067828164 0.98701262 0.14562069 0.058757722
-0.09847647 -0.58716357 0.67041081 0.040525712 0.99896538 -0.020635106 0.017739646
-0.14346479 -0.58398736 0.75533211 0.0074324897 0.9994396 0.032638732 0.007102862
0.048940558 -0.9186675 0.84833634 0.87776452 0.33883446 0.33870432 0.04833845
-0.082220554 -0.92771691 0.94222951 0.12108294 0.25634667 0.9589709 0.0077460269
-0.10176701 -0.58211446 0.78662348 0.026228452 0.9990105 0.035917941 0.01280489
-0.10212887 -0.58611238 0.5893597 0.081804059 0.99661517 0.0081473654 0.021765618
-0.050949231 -0.87114346 0.92449671 0.18458121 0.27675986 0.9430449 0.012834043
-0.26727432 -0.73439062 0.87844121 0.036744714 -0.99787694 0.053772498 0.066295072
-0.14549431 -0.86864287 0.93310648 0.1785647 0.19648521 0.96411002 0.01341897
-0.078831188 -0.58901662 0.51464182 0.20797417 0.93193787 -0.29704955 0.083081588
-0.034965333 -0.72772676 0.88311297 0.0064569986 0.2955721 0.95529866 0.072526462
-0.061446492 -0.62055862 0.85394394 0.072248943 0.71188509 0.69856972 0.17051539
-0.2359115 -0.73922539 0.8871575 -0.033044349 -0.99741918 -0.063742712 0.05361829
-0.36084217 -0.80586481 0.96277392 0.23536411 0.083543479 0.96831 0.012737022
-0.20675783 -0.74159729 0.8548755 0.00093187165 -0.99841017 -0.056359246 0.022779956
-0.1642713 -0.74521822 0.82285738 0.097768895 -0.98888141 -0.11204886 0.053876504
-0.21357515 -0.58178473 0.70152426 -0.0098688724 0.99994916 0.002057327 0.0079253167
-0.21641713 -0.6141274 0.90149605 -0.017690998 0.92752355 0.37334585 0.074843854
-0.091645114 -0.58602184 0.50639772 0.1796941 0.92915648 -0.32307634 0.086388506
-0.32500449 -0.61028153 0.91288573 -0.08033336 0.80868614 0.58272922 0.10940122
