# .PCD v0.7 - Point Cloud Data file format
VERSION 0.7
FIELDS x y z normal_x normal_y normal_z curvature
SIZE 4 4 4 4 4 4 4
TYPE F F F F F F F
COUNT 1 1 1 1 1 1 1
WIDTH 583
HEIGHT 1
VIEWPOINT 0 0 0 1 0 0 0
POINTS 583
DATA ascii
-0.27295759 -0.16600408 0.89937228 -0.6661377 0.18863748 -0.72157919 0.026511975
-0.17810793 -0.07270892 1.0078288 -0.015867148 0.99987274 0.001629987 0.00011046951
-0.27119049 -0.10562158 0.95975178 -0.93334335 0.20282817 -0.29619434 0.10863779
-0.30464551 -0.24754794 1.0769118 -0.5281952 0.83301109 -0.16462766 0.042424019
-0.34350923 -0.3812018 1.1308495 -0.96778899 0.18685345 -0.16873084 0.00048615193
-0.31610611 -0.3716732 0.94467211 -0.98368299 0.12880561 -0.12560607 0.00019870407
-0.25892949 -0.12834343 0.88956314 -0.77860332 0.017588058 -0.62726986 0.067910261
-0.29845482 -0.27414152 0.92145509 -0.97337377 0.19218512 -0.12493389 0.0074412934
-0.31399423 -0.35020947 0.95040071 -0.98623669 0.12555061 -0.10758351 0.00024875204
-0.28049639 -0.33319271 0.85164851 -0.63172722 0.37881196 -0.67632991 0.029495779
-0.33566207 -0.31594425 1.135933 -0.97524804 0.12023591 -0.18556555 0.00014479608
-0.31379107 -0.25247586 1.0871987 -0.77153951 0.54727757 -0.32436708 0.049234264
-0.35128832 -0.31500769 1.2606039 -0.97407717 0.14890091 0.17030044 0.015362879
-0.35073197 -0.41735661 1.1277845 -0.96431011 0.22369963 -0.1416489 0.00086929288
-0.35400644 -0.3918362 1.1851662 -0.97080511 0.16016668 -0.17856108 0.00046617308
-0.33538088 -0.26706791 1.1990898 -0.85534531 0.48563138 -0.18040609 0.011590129
-0.25974435 -0.23723701 0.9809227 -0.46697247 0.85067427 0.24143326 0.022797517
-0.28633785 -0.38711783 0.84710103 -0.40219185 0.21878962 -0.88902909 0.027055483
-0.26447389 -0.20945761 0.87852252 -0.45233771 0.20937888 -0.86692047 0.031745505
-0.32073289 -0.37213445 0.99065447 -0.98121244 0.16100721 -0.10629602 0.00021810447
-0.23216012 -0.23826875 1.0759923 -0.05491494 0.99809688 0.028051535 0.0020686949
-0.33495572 -0.25180146 1.2744547 -0.83643997 0.30851114 0.45297799 0.032801561
-0.34574264 -0.32491672 1.1842915 -0.97881025 0.11525494 -0.16925392 0.00017011877
-0.28543302 -0.2698243 0.87914151 -0.84662592 0.088776626 -0.52473164 0.0092921779
-0.28416166 -0.40513048 0.84646916 -0.35123006 0.11752172 -0.92888439 0.023605714
-0.26132271 -0.16774203 0.88623095 -0.37474447 0.1310575 -0.91781837 0.040017337
-0.26479295 -0.19451357 0.88204128 -0.39544028 0.23332669 -0.88836116 0.029001322
0.015263944 -0.24235141 0.92713177 -0.19849858 0.84414756 -0.49800929 0.008226227
-0.26846096 -0.31700167 0.85027438 -0.37708193 0.18381174 -0.90775681 0.018612593
-0.25974274 -0.33102399 0.84605467 -0.36202723 0.26507625 -0.89368391 0.018040808
-0.21155648 -0.35617587 0.8457945 0.10067894 0.13209336 -0.98611104 2.4784129e-05
-0.21153697 -0.39302218 0.84180462 0.041223206 0.047786061 -0.99800652 0.0042481734
-0.12824075 -0.28463799 0.87084407 0.18240491 0.27189121 -0.94488281 0.0096907541
-0.29498285 -0.32424155 0.87617803 -0.73238647 0.37605631 -0.56761932 0.013893182
-0.25587654 -0.23859777 1.0759956 -0.077048399 0.99702585 -0.0017750588 0.0008006554
0.052983381 -0.23843995 0.9173283 -0.2332795 0.69984049 -0.67513251 0.015823923
-0.27215612 -0.27357489 0.86219299 -0.59820086 0.21575049 -0.77175611 0.035568815
-0.34476659 -0.32677844 1.1779436 -0.97896922 0.10872265 -0.17262259 0.00020222628
-0.12124223 -0.073351204 1.0661892 -0.063376948 0.99705207 0.043248769 0.00054955896
-0.047284886 -0.38879278 0.868164 0.12591171 0.2283947 -0.96539217 0.01688949
0.13390662 -0.25363457 0.92444575 0.59491265 0.2007062 -0.77832896 0.0400973
-0.27860266 -0.24081938 0.96813077 -0.51792574 0.84876335 0.10655374 0.022611769
-0.012150279 -0.23989473 0.94403869 0.023105681 0.99251693 -0.11990056 0.0035087895
0.046190705 -0.23529638 0.92812353 -0.29509452 0.67756253 -0.67366773 0.015991522
-0.31538334 -0.39499086 0.91884595 -0.97957742 0.1252636 -0.15728064 0.00052121881
-0.28725168 -0.24667893 0.89179349 -0.90097666 0.16548477 -0.40106833 0.0075819548
-0.31699082 -0.17125544 1.2686933 -0.56020588 0.2595022 0.78665626 0.051027276
-0.23475046 -0.23696151 1.0267209 -0.34874561 0.92724508 0.13635652 0.047213297
-0.2863965 -0.34116802 0.85304195 -0.6589722 0.35626701 -0.66244203 0.029804111
-0.25186399 -0.12479116 0.88017279 -0.71832401 -0.0090493914 -0.69564986 0.070441566
-0.05507452 -0.25545493 0.90296692 0.34118792 0.79400182 -0.503142 0.017630078
-0.31451032 -0.2465947 1.1214962 -0.74577773 0.66535228 0.033494934 0.037078153
-0.083428741 -0.30135241 0.87424278 0.1416139 0.13753492 -0.98032117 0.0015249684
-0.3249158 -0.2798419 1.1004544 -0.93723422 0.28550017 -0.20020401 0.0075613209
-0.29724282 -0.25020522 1.0003976 -0.63111055 0.77529812 -0.024746591 0.028521946
-0.27863711 -0.089772657 1.0598795 -0.55313098 0.79509193 -0.24874687 0.011683614
-0.31184131 -0.11617267 1.2291807 -0.94764537 0.30294043 0.10097276 0.0088168951
0.015210304 -0.24173829 0.9313308 -0.19228922 0.86517763 -0.46313339 0.007828299
-0.33105969 -0.23105569 1.2432681 -0.93917465 0.31073421 -0.14627132 0.025032468
-0.18740304 -0.099614196 0.89204842 0.13545848 0.70853788 -0.69254971 0.033891708
-0.17769989 -0.073056802 0.98354757 -0.012289799 0.99976325 -0.017952127 0.00030929496
-0.25667706 -0.13454969 0.88691014 -0.69665128 0.041264135 -0.71622211 0.050399017
-0.21006808 -0.29401946 0.85595739 0.1110002 0.099532925 -0.98882365 0.0026066357
-0.24897753 -0.19485554 0.87770832 0.012795674 0.19910835 -0.97989398 0.059937112
-0.18973707 -0.39763221 0.84414512 0.092999205 0.066007398 -0.99347585 0.0024578499
-0.046420127 -0.23855484 0.93796021 0.011173719 0.99670833 -0.080297858 0.0052458327
0.036852751 -0.35092747 0.88154876 0.10887156 0.12021931 -0.98675948 0.00076730206
-0.33207476 -0.41975489 0.99568212 -0.96462083 0.22990504 -0.12903589 0.0012677894
-0.036827281 -0.24336286 0.9158709 0.011293355 0.93927401 -0.34298202 0.006148282
-0.24705745 -0.30413654 0.85143882 0.012427037 0.16670035 -0.98592937 0.0055430843
-0.19031048 -0.073674709 1.2021515 0.010561459 0.9998368 -0.0146593 0.00017022119
-0.26502454 -0.32813925 0.84684354 -0.39743024 0.29496062 -0.86893469 0.020237504
-0.16004176 -0.30080721 0.86206615 0.15904692 0.18004133 -0.97071582 0.00080407824
-0.31316119 -0.20880707 1.2707835 -0.5186466 -0.11141695 0.84769809 0.036366381
0.057725269 -0.18863259 0.94257325 -0.51851553 0.11201719 -0.84769911 0.0080404831
-0.28552771 -0.34823802 0.85135931 -0.6339156 0.20643748 -0.7453419 0.022623992
-0.25157237 -0.23820874 1.0684555 -0.076403685 0.99678707 0.024042426 0.0012857531
0.04826799 -0.14778419 0.94929355 -0.52938503 -0.027481776 -0.84793651 0.0037537762
-0.01119215 -0.27738535 0.88765097 0.11213159 0.42929071 -0.89617854 0.0069598109
0.043783713 -0.19176418 0.95303977 -0.57090914 0.082982525 -0.81680882 0.0064722188
-0.28332013 -0.09533307 1.0535643 -0.56545532 0.78457803 -0.25435731 0.010808673
-0.26602665 -0.28226456 0.85504866 -0.3651813 0.21762055 -0.90514302 0.030171031
-0.12396845 -0.093294099 0.90309244 0.1320626 0.83043122 -0.54124248 0.0064876168
-0.3022804 -0.15728286 1.2740991 -0.36738601 0.22889477 0.9014625 0.031249847
0.11927105 -0.40927207 0.88857561 0.39229301 0.14543903 -0.90826958 0.015676912
-0.30992657 -0.16450195 1.2695652 -0.44313362 0.25751388 0.85867298 0.039205208
-0.12333512 -0.075857528 1.2528512 -0.12469199 0.97616917 0.17761089 0.010634319
-0.32989872 -0.22077519 1.2485938 -0.95756888 0.26824602 -0.10538437 0.021845421
-0.34177426 -0.26951942 1.2204214 -0.86897856 0.4591828 -0.18446505 0.01018126
-0.3326987 -0.34051752 1.1066027 -0.97816712 0.10102684 -0.18161118 6.3202759e-05
-0.31260362 -0.21758524 1.275719 -0.54388148 -0.027211577 0.83872068 0.054093558
-0.24229224 -0.23573884 1.0077558 -0.57334459 0.7517435 0.32581848 0.014524775
-0.35383621 -0.33575463 1.2423729 -0.99472988 0.10169655 0.013051901 0.00087228004
0.024592591 -0.15264401 0.96524942 -0.54893398 -0.01494609 -0.83573204 0.00044184836
-0.18772803 -0.34983838 0.84975386 0.12052014 0.16598621 -0.97873563 5.3781223e-05
0.084069364 -0.28552693 0.89866883 0.16933191 0.11448077 -0.97888756 0.010060845
0.039301302 -0.19097713 0.95531416 -0.56614959 0.070937783 -0.82124442 0.0059272842
0.058298472 -0.24700113 0.90506274 -0.0065753874 0.65763324 -0.75330949 0.033538423
0.043760322 -0.16104068 0.95294213 -0.56749964 -0.0054543545 -0.82335562 0.00031804488
-0.13032986 -0.37911943 0.85241061 0.14277779 -0.33109656 -0.93273234 0.05444964
0.13474028 -0.39601782 0.8952437 0.51201874 0.11580596 -0.85113209 0.015874933
-0.3091037 -0.26997501 1.012655 -0.9147253 0.40187433 -0.042126119 0.0046353494
0.1463194 -0.39279631 0.90186864 0.57215238 0.11925361 -0.81143099 0.017729484
-0.32132772 -0.35197029 1.0278043 -0.98532319 0.1318323 -0.10843669 0.00061038311
0.061289851 -0.14299005 0.94152635 -0.4188666 -0.077989615 -0.90469247 0.010383646
-0.11801474 -0.10092737 0.89808178 0.1504374 0.76410067 -0.62731075 0.0060239369
-0.046850756 -0.27398694 0.88247031 0.15820761 0.33432475 -0.92908418 0.011651329
0.015459507 -0.41008094 0.87378335 0.24502705 0.077643618 -0.96640223 0.0027036541
-0.11865145 -0.30426401 0.86903685 0.13977101 0.15372165 -0.97817874 0.002890826
-0.043774795 -0.38523269 0.86886644 0.11734305 0.21642113 -0.96922261 0.015844235
-0.20880611 -0.34818089 0.84725034 0.10453494 0.14968655 -0.98319191 0
-0.30798751 -0.37072197 0.89874965 -0.96887541 0.15672579 -0.1916178 0.00089837261
-0.20364644 -0.23986313 0.87979096 0.1445867 0.93817133 -0.31453028 0.023331048
0.020494318 -0.27582359 0.89240146 0.13667633 0.37805441 -0.9156388 0.011293029
-0.33860758 -0.2630015 1.2192309 -0.87012845 0.45275071 -0.19466208 0.010813696
-0.29061711 -0.23936476 1.1718842 -0.42230132 0.82056987 -0.3851321 0.012658798
-0.30788445 -0.24509658 1.1062676 -0.42220908 0.90373379 -0.070742942 0.034093495
-0.33973926 -0.25075606 1.2696946 -0.96719056 0.23547471 0.09536206 0.010055521
-0.27284077 -0.17208368 0.89669734 -0.54777718 0.23339082 -0.80341083 0.021539927
-0.30097112 -0.097027257 1.1657073 -0.56626564 0.80285513 -0.18645874 0.011404514
-0.12412086 -0.3867833 0.85542262 0.17297697 -0.47559071 -0.86249197 0.037036791
-0.20760061 -0.23058778 1.06217 -0.44858113 0.86636519 0.21951379 0.03020449
-0.17627616 -0.31133461 0.85815543 0.14822422 0.17841186 -0.97272748 0.00051485794
0.068200588 -0.28938812 0.89436781 0.14699918 0.13374203 -0.98005319 0.019079044
0.031363357 -0.1798525 0.96130526 -0.54114556 0.016188404 -0.84077305 0.0042329617
-0.33761573 -0.37001029 1.1135089 -0.96904135 0.16474372 -0.183898 0.00053758005
-0.081925444 -0.23970047 0.92958671 0.0019274182 0.98807055 -0.15399002 0.0016269655
-0.32336953 -0.35768768 1.0419383 -0.98304534 0.13559695 -0.1234315 0.0003569437
-0.23153389 -0.39685819 0.84074658 0.058390226 -0.0463842 -0.99721569 0.0034456693
-0.31910387 -0.3590188 0.99390274 -0.98248512 0.15877566 -0.097536378 0.00021638535
-0.14737065 -0.28181881 0.86772853 0.18380922 0.25763381 -0.94859844 0.013796763
-0.17703593 -0.24246135 0.8986696 0.23748907 0.93019062 -0.27990058 0.012784589
-0.27601641 -0.23980573 1.0680207 -0.17924935 0.98342526 0.027285501 0.005519277
-0.33253402 -0.27690792 1.1482617 -0.95645338 0.23153591 -0.1777302 0.0060234186
-0.2177379 -0.35198706 0.84570783 0.097833872 0.13421477 -0.9861111 0
-0.21479836 -0.28675339 0.85663003 0.1156287 0.083579436 -0.98976988 0.002151754
-0.25532028 -0.38034332 0.83949935 -0.071978994 -0.059954211 -0.99560261 0.0096923774
-0.1831924 -0.28456855 0.86198717 0.15752424 0.20149463 -0.96673995 0.0035605254
0.035627447 -0.26320532 0.89898324 0.05466133 0.47559518 -0.87796432 0.026500294
-0.042122561 -0.32476971 0.8767032 0.10315822 0.096195139 -0.99000245 0.0043991734
-0.25204089 -0.17086025 0.95400023 -0.7858004 -0.04656389 0.61672485 0.0045075454
-0.15499707 -0.24427496 0.90061462 0.18159345 0.91056073 -0.37135285 0.014402581
-0.045783721 -0.34852844 0.87405676 0.18934225 0.027701611 -0.98152024 0.014541485
0.048045054 -0.28816637 0.89239806 0.13880199 0.20585993 -0.96868759 0.0087487325
-0.054177243 -0.39775431 0.86518937 0.15479134 0.25551504 -0.95433313 0.021781547
-0.074912354 -0.072583072 1.2511984 -0.054851606 0.99706656 0.053381011 0.0065619415
-0.28589231 -0.091491766 1.0700055 -0.56306219 0.79721034 -0.21775351 0.016316148
-0.28169742 -0.24214573 0.94989634 -0.65463722 0.75521541 -0.033163145 0.024557849
-0.29161853 -0.24752012 0.96347314 -0.68014425 0.73136985 -0.050017931 0.02411668
-0.32740438 -0.41539317 0.97530955 -0.9669854 0.21442227 -0.13770403 0.0011824915
-0.31823418 -0.33981457 1.0091046 -0.98872757 0.11206485 -0.099294037 0.0004315447
-0.27753469 -0.23994201 1.0352088 -0.2490294 0.9654001 -0.077375807 0.0085092438
-0.31661192 -0.354047 0.9753738 -0.98574686 0.13897167 -0.094815768 9.7835393e-05
-0.29845709 -0.30184516 0.90167046 -0.96819204 0.12745517 -0.21531203 0.001785527
0.039728492 -0.17297953 0.95571578 -0.55515712 0.0098808752 -0.83168679 0.0046046805
0.042739999 -0.1466461 0.95333689 -0.55765194 -0.018882582 -0.82986009 0.0015418327
-0.072853632 -0.073081501 1.1490111 -0.0130726 0.99943787 0.030871646 0.00032564896
-0.066847704 -0.39071515 0.8661741 0.15007663 0.21773122 -0.96440142 0.025775297
-0.26567334 -0.17567492 0.88831025 -0.37010652 0.24823494 -0.89520979 0.037636898
-0.31934068 -0.39761207 0.94693118 -0.97829014 0.14685303 -0.14622821 0.00046020612
-0.31248841 -0.11693021 1.2361758 -0.94946778 0.27975258 0.1423005 0.011588576
-0.30785832 -0.27590024 0.96190977 -0.82896024 0.5423044 -0.13686037 0.012601403
-0.11025848 -0.38194463 0.8582536 0.19431883 -0.015115794 -0.98082191 0.035323054
-0.064588763 -0.30309117 0.87615842 0.13450959 0.13025656 -0.98231375 0.00058045
-0.22885934 -0.073583521 0.96329916 -0.11440778 0.99299943 0.029376203 0.00191765
-0.26698405 -0.28383598 0.85564584 -0.38544345 0.21778582 -0.89666194 0.032155983
-0.29623276 -0.26889887 0.90734488 -0.95853835 0.13911593 -0.24869843 0.00339694
-0.19771324 -0.073704764 0.97662449 -0.014372101 0.99974406 -0.017472088 0.00040374757
-0.10683244 -0.38329345 0.85739666 0.15487495 0.018312078 -0.98776436 0.027184658
-0.32043085 -0.31550136 1.031193 -0.99209416 0.053211309 -0.11365652 0.00027448064
-0.058595702 -0.36729667 0.87026429 0.19005972 0.13392091 -0.97259581 0.015607372
-0.24624844 -0.303408 0.8515262 0.015393161 0.16874698 -0.98553914 0.0046225996
-0.10054021 -0.29007542 0.87234163 0.13459334 0.17335778 -0.9756186 0.003048389
0.065226614 -0.35790154 0.88448173 0.12130554 0.065893129 -0.99042571 0.00067850231
-0.32294437 -0.40155813 0.96599406 -0.97444922 0.17708801 -0.13816175 0.00067446491
-0.14090754 -0.34409931 0.85697049 0.18949628 0.17353573 -0.96642452 0.0004840914
-0.054569814 -0.2819427 0.88029844 0.1116318 0.23430704 -0.96573204 0.0092912391
-0.25215393 -0.27524328 0.85569036 -0.080515534 0.23618139 -0.96836752 0.018171595
-0.29393643 -0.39142904 0.85376215 -0.53790599 0.51142919 -0.67014724 0.039169315
0.11117515 -0.16825792 0.93414629 0.66608912 0.11130034 -0.73752129 0.05133871
-0.31370699 -0.11889201 1.2282563 -0.95878553 0.26703861 0.097060412 0.0081026172
-0.31430295 -0.38081649 0.92451519 -0.97949922 0.12635911 -0.1568903 0.00052222254
0.00099462445 -0.23695989 0.94590074 -0.2013752 0.81968194 -0.53625506 0.041666906
0.022409871 -0.25694233 0.90071893 -0.16332974 0.73854148 -0.65412515 0.011089559
-0.14830109 -0.26354757 0.87018222 0.2560727 0.43461496 -0.86344469 0.034661405
-0.15915026 -0.32855356 0.85692179 0.13515647 0.18851037 -0.97272635 0.001335774
-0.063332871 -0.23847987 0.94016236 0.0084147938 0.9967472 -0.080151267 0.0019934529
-0.079276383 -0.31493604 0.87285674 0.13246384 0.1128167 -0.98474652 0.00058178487
0.13092844 -0.32904854 0.90599978 0.56412137 0.18656591 -0.8043384 0.0032483949
0.10263111 -0.28651965 0.90147173 0.22229852 0.13740358 -0.96524799 0.0064147324
-0.11687934 -0.37970439 0.85812789 0.30076486 -0.13876487 -0.9435491 0.044035155
-0.25613663 -0.38801175 0.83940268 -0.076206729 -0.13817824 -0.98747122 0.009132334
0.019810673 -0.37800437 0.87686002 0.17974918 0.088596016 -0.97971475 0.0015854402
0.072036847 -0.28823978 0.896056 0.14958629 0.13263334 -0.97981244 0.014678164
-0.24136283 -0.34839204 0.84527749 0.052378617 0.15251794 -0.98691171 0.00017111159
-0.091536611 -0.3444497 0.86828452 0.14330459 0.11789627 -0.98263139 0.00045192055
-0.21479517 -0.38984796 0.8419928 0.064584434 0.054251716 -0.99643642 0.0029575168
-0.072349921 -0.29403067 0.87640786 0.12517861 0.16405225 -0.97847688 0.0014563251
0.011512571 -0.28204361 0.89077574 0.11913369 0.40932491 -0.90457749 0.0099095488
-0.14264154 -0.28171793 0.86857045 0.19082816 0.26603597 -0.94488597 0.013916836
-0.027626557 -0.33402526 0.87664217 0.089832947 0.025935205 -0.99561918 0.0083423993
0.12196469 -0.37633786 0.89449823 0.33408308 0.1638552 -0.92819178 0.0039000122
0.0031936322 -0.346921 0.87873733 0.10278364 0.13007039 -0.98616278 0.00023683137
-0.13480239 -0.091480687 0.90256912 0.072554596 0.81834567 -0.5701282 0.011334774
-0.13697287 -0.38670272 0.85336828 0.17281818 -0.47484681 -0.86293358 0.036660094
0.0022902831 -0.23465121 0.94550431 -0.20601353 0.8191393 -0.53532141 0.041599538
-0.0030017782 -0.25865099 0.90697527 -0.051133387 0.7443698 -0.66580707 0.012913534
-0.049795765 -0.10574562 0.90714854 -0.039166514 0.61292672 -0.78916848 0.013430368
-0.12578212 -0.078576878 0.93166375 0.13561225 0.90657359 -0.39966702 0.0064201439
-0.19471899 -0.280384 0.86000216 0.15090959 0.15411086 -0.97646105 0.0069112377
0.1120119 -0.34408829 0.89569044 0.29880688 0.12366957 -0.94626653 0.0022600396
-0.2833221 -0.40600228 0.84639078 -0.35123006 0.11752172 -0.92888439 0.023605714
-0.065619536 -0.25585765 0.88903975 0.27691504 0.68422341 -0.67465281 0.018156083
-0.038468674 -0.10271242 0.90934038 -0.00050867116 0.60115141 -0.79913491 0.020233409
-0.34564027 -0.2831611 1.2380908 -0.97953969 0.19087844 -0.063776009 0.0019160942
-0.029636394 -0.39730239 0.86676425 0.12444054 0.38340652 -0.91515791 0.012341336
-0.008527901 -0.39312094 0.8690564 0.13621455 0.1159903 -0.9838658 0.008312528
0.036030926 -0.34831151 0.88160193 0.1083971 0.1204133 -0.98678809 0.00084579218
0.038476761 -0.39330512 0.88202417 0.18955448 0.069176182 -0.97943032 0.0023168542
0.006081237 -0.40410307 0.871553 0.20949253 0.080996022 -0.97444987 0.0022085467
0.0048816544 -0.36565304 0.87566543 0.11167315 0.14386229 -0.98327661 0.0011990999
0.023080371 -0.34281465 0.88139671 0.10630488 0.12474088 -0.98647803 0.00075213384
0.026848866 -0.36045706 0.87944603 0.12645987 0.10664269 -0.98622268 0.001142094
0.10976166 -0.29626611 0.9027912 0.25485611 0.13287331 -0.95780641 0.010088161
0.13303879 -0.40305305 0.89368016 0.49234596 0.13964601 -0.85912424 0.02183987
0.094635524 -0.36876464 0.88848656 0.24050725 0.1478136 -0.95932662 0.0008590084
-0.0038460123 -0.40881357 0.86897314 0.20055601 0.080251962 -0.97638971 0.0025443297
0.12271699 -0.29480949 0.90992051 0.50851476 0.18049037 -0.84192395 0.0086526824
0.067246459 -0.35416347 0.88402528 0.12217294 0.067209117 -0.99023062 0.00058552437
-0.057972491 -0.38648725 0.86827248 0.1856195 0.21139406 -0.95961344 0.023529364
-0.022545028 -0.41021174 0.86493975 0.12658796 0.27510181 -0.95304489 0.010194088
-0.099571228 -0.34941897 0.86486351 0.18857673 0.16373092 -0.96831346 0.0010843198
0.022049133 -0.33942267 0.88118768 0.10558993 0.12722376 -0.98623776 0.0006289953
-0.070678465 -0.10478268 0.90700698 0.029094998 0.47939792 -0.87711519 0.0084377714
-0.068292394 -0.095204361 0.91083741 -0.032270297 0.63435107 -0.77237123 0.015995167
-0.06220055 -0.36610076 0.86981767 0.18389717 0.13830802 -0.97316629 0.013702881
-0.04141191 -0.2378857 0.96852976 0.016210746 0.99802613 -0.060671743 0.0009116928
-0.061876718 -0.23480172 0.9923858 0.01161746 0.97201771 -0.23462039 0.010361422
-0.074163586 -0.24714728 0.9030441 0.19126405 0.907489 -0.37400773 0.0180762
-0.12306885 -0.30270827 0.8678416 0.14820792 0.16391248 -0.97527802 0.0022300901
-0.13521063 -0.38753331 0.85355687 0.17281818 -0.47484681 -0.86293358 0.036660094
-0.19292112 -0.073021144 1.0036341 -0.017315449 0.99983788 -0.0049267253 0.00031674479
-0.18287085 -0.36096123 0.84808189 0.13206404 0.12937485 -0.98276204 0
-0.17509621 -0.23721442 0.92656666 0.095045626 0.97108752 -0.21898729 0.0066575939
-0.17936732 -0.24276428 0.89537758 0.2408282 0.92913902 -0.28053957 0.010868996
-0.21887384 -0.27819154 0.85564512 0.11430701 0.079138301 -0.99028832 0.0029114867
-0.21886197 -0.29987493 0.85580492 0.10674544 0.092223436 -0.99000019 0.0028175965
-0.074862376 -0.215031 1.0102227 -0.26811364 0.55925673 -0.78444058 0.061751261
-0.21416453 -0.29374075 0.85609478 0.10902364 0.096648991 -0.98932946 0.0021881827
-0.14623876 -0.28390867 0.86791193 0.18147886 0.25783321 -0.94899291 0.013197661
-0.10877255 -0.38225868 0.85623795 0.17770137 -0.0019304393 -0.98408258 0.032787267
-0.23080048 -0.17769496 0.88442618 0.29804683 0.1113572 -0.94803363 0.046323627
-0.23099312 -0.40302387 0.84269965 0.032090031 -0.14435564 -0.98900539 0.0017865258
-0.26420891 -0.33448261 0.84456336 -0.3732658 0.27192155 -0.88697875 0.020163253
-0.26812211 -0.33128178 0.84622395 -0.40210947 0.29546925 -0.866606 0.021211362
-0.26594976 -0.28355503 0.85464865 -0.3449775 0.21823858 -0.9128868 0.027476739
-0.19139035 -0.097969502 0.89207226 0.14426515 0.72184998 -0.67684579 0.038507067
-0.2062667 -0.091143437 0.89175594 0.19983879 0.80250376 -0.56218517 0.038021594
-0.2828958 -0.2404886 1.0563451 -0.22235259 0.9748202 0.016880699 0.0066102846
-0.28792915 -0.092050523 1.0727987 -0.5820908 0.78903276 -0.19646281 0.016476674
-0.28489277 -0.2439869 0.96625984 -0.61845917 0.78554672 0.020606237 0.025589768
-0.28517869 -0.24438891 0.97095728 -0.58584684 0.80794448 0.063318022 0.029540779
-0.28588885 -0.24194995 1.0303293 -0.40137631 0.91136003 -0.091213435 0.016454609
-0.28670314 -0.2472692 0.8891843 -0.89141601 0.17329809 -0.41874245 0.0082529839
-0.2695851 -0.10300513 0.95210016 -0.87780994 0.2236397 -0.4235976 0.086892717
-0.30328524 -0.10044815 1.1634878 -0.64947557 0.73911017 -0.17859903 0.0085456856
-0.034485985 -0.28765225 0.88222462 0.12066113 0.16449037 -0.97897077 0.0022297285
-0.13803537 -0.28525865 0.86900491 0.1647436 0.25402477 -0.95306402 0.010763286
-0.14934343 -0.2641865 0.8703618 0.19453716 0.43488801 -0.87922001 0.039175872
-0.2719889 -0.27791747 0.86014336 -0.54208511 0.20181084 -0.81573045 0.038523491
-0.26003364 -0.29505202 0.85190171 -0.10673754 0.19870262 -0.97423017 0.010197913
-0.2710022 -0.094471134 0.95793879 -0.83227688 0.45545858 -0.31602654 0.099831283
-0.2703408 -0.094746873 0.94793177 -0.88608563 0.36590803 -0.28454086 0.073214658
-0.27118966 -0.10503151 0.9598645 -0.92253661 0.21851502 -0.31808394 0.10471052
-0.29589316 -0.32084391 0.8794353 -0.75228393 0.35756627 -0.5533672 0.010827787
-0.27306709 -0.090357028 0.97960275 -0.68648952 0.70056611 -0.19477995 0.04585439
-0.11815304 -0.077888206 1.2706362 -0.16425024 0.92586613 0.34028459 0.011482285
-0.28177848 -0.091651984 1.0599179 -0.55314738 0.79515088 -0.24852189 0.011717269
-0.25450861 -0.23802638 1.1098065 -0.054285172 0.9981699 -0.02664637 0.0005989538
-0.23923352 -0.23828951 1.0723487 -0.058845721 0.99753809 0.038145568 0.0015947026
-0.28398702 -0.24235593 0.95387578 -0.63667965 0.7704199 -0.03305066 0.02414565
-0.21171096 -0.23737773 1.0893533 -0.098297246 0.99484509 0.024918117 0.016850814
-0.25502634 -0.2355884 1.1483375 -0.24147968 0.96088719 -0.13558553 0.0059790718
-0.23679756 -0.23408113 1.0316192 -0.29571891 0.94693393 0.12596205 0.039558094
-0.21257386 -0.23705335 1.097754 -0.091958694 0.99574316 0.0062525989 0.014652032
-0.29343858 -0.24252908 1.0710635 -0.25237244 0.96749616 0.016102545 0.0059207468
-0.28553349 -0.24156716 1.0456302 -0.27887189 0.9576112 -0.072189242 0.013466564
-0.33225307 -0.33775842 1.1051283 -0.97836083 0.099998169 -0.18113638 4.5863824e-05
-0.2242846 -0.23718782 1.0723792 -0.094385773 0.99317986 0.068447508 0.0069825836
-0.26611805 -0.23879212 1.0510015 -0.11677932 0.99315786 0.00023126016 0.0013690753
-0.26469675 -0.23848358 1.0560726 -0.11444883 0.99342805 0.0014476234 0.0014828943
-0.29476628 -0.24262065 1.0659928 -0.27444136 0.96153861 0.011201636 0.0053846044
-0.33959153 -0.35193157 1.1345781 -0.97716814 0.11449842 -0.17897627 0.00033410109
-0.33360615 -0.369425 1.0923527 -0.96885967 0.17199714 -0.17812331 0.00057119387
-0.25543293 -0.23868948 1.0737292 -0.075359896 0.99715155 -0.0031228706 0.00085308467
-0.3438288 -0.35575023 1.1581496 -0.97801244 0.11034795 -0.17696014 0.00028253067
-0.26239425 -0.23838209 1.0755 -0.087844998 0.99612367 -0.0045590145 0.00082878722
-0.22901909 -0.23667306 1.1079776 -0.044298481 0.99721485 -0.06000118 0.0017100666
-0.22444132 -0.23250628 1.0434169 -0.4073889 0.89138597 0.19865896 0.035622478
-0.26290908 -0.23769158 1.0908383 -0.082583517 0.99654764 -0.0085290978 0.00074598711
-0.34142822 -0.36048177 1.1403277 -0.97507524 0.13479912 -0.17623119 0.00053256453
-0.33593306 -0.36860976 1.1069639 -0.97078359 0.15275018 -0.18505828 0.00042118898
-0.23304519 -0.23503558 1.0268948 -0.45325142 0.85269058 0.25977278 0.049531408
-0.33871061 -0.35590354 1.1292715 -0.97587466 0.12130382 -0.18153235 0.00044976847
-0.30915055 -0.27226421 0.97759235 -0.81889623 0.56925023 -0.073233321 0.012441991
-0.26269639 -0.074749298 1.2275058 -0.11849796 0.99043715 0.070657663 0.0032050307
-0.22539431 -0.23310781 1.0414066 -0.44142628 0.88079792 0.1712831 0.035031822
-0.33593747 -0.36237985 1.1113147 -0.97369498 0.13194411 -0.18576565 0.00036124277
-0.27726489 -0.23952533 1.0816748 -0.20531337 0.97788614 0.039813459 0.0064054676
-0.32938817 -0.3286182 1.0944704 -0.98010641 0.092291251 -0.17570931 8.8442997e-05
-0.28781584 -0.24749468 0.89257342 -0.90676653 0.1561494 -0.39165276 0.007700806
-0.25526422 -0.23541738 1.1502999 -0.24493013 0.9593699 -0.14006682 0.0062164767
-0.31144378 -0.25224257 1.0803959 -0.63979632 0.71659029 -0.27777523 0.054516323
-0.29068235 -0.27513921 0.88810778 -0.90881026 0.066164725 -0.41192988 0.0088012321
-0.28492686 -0.09444724 1.059621 -0.56593907 0.78457052 -0.25330251 0.011073378
-0.10007924 -0.074883133 1.2641033 -0.11185658 0.96887499 0.22083761 0.017037744
-0.32588485 -0.35736841 1.0581086 -0.98182088 0.11611076 -0.15015316 0.00024166427
-0.25746712 -0.078085542 1.0512395 -0.41308078 0.89422649 -0.17240439 0.018412326
-0.25288162 -0.23871501 1.0741117 -0.060405318 0.99817288 -0.0014155234 0.00080126867
-0.25329301 -0.076588705 1.0555164 -0.30451936 0.95058084 -0.060531307 0.015812645
-0.32295603 -0.37170994 1.0128095 -0.9815917 0.16365707 -0.098458149 0.00019190325
-0.25857863 -0.077458315 1.0693283 -0.3589879 0.93327659 -0.011063219 0.0097527122
-0.32622004 -0.2829912 1.1058218 -0.96000779 0.21278635 -0.18195368 0.0024634677
-0.30027965 -0.25237375 1.0030203 -0.66976136 0.74173164 -0.035410747 0.024171622
-0.23591651 -0.073889412 1.2187729 -0.032683782 0.99940401 0.011110066 0.00065676589
-0.21873748 -0.07388702 1.0457933 -0.050023023 0.99866289 0.013041133 0.0023749128
-0.28762993 -0.090412743 1.0862468 -0.57994974 0.80516708 -0.12395294 0.023116169
-0.29582375 -0.10079172 1.1111259 -0.85527194 0.51096874 -0.086144112 0.010153611
-0.17626303 -0.074211337 1.175346 0.014229387 0.99978435 -0.015124626 0.00014491897
-0.29053971 -0.09217824 1.0896966 -0.59659123 0.79777622 -0.087360844 0.022275023
-0.24218115 -0.076507345 1.0849627 -0.17492169 0.98204255 0.070673347 0.0035995641
-0.27817941 -0.21579997 1.197332 -0.54378307 0.6577459 -0.52122009 0.015312966
-0.27565405 -0.21465364 1.1955941 -0.54380929 0.6579473 -0.52093828 0.015476474
-0.19302307 -0.073858805 1.1515486 0.030541282 0.99950916 -0.0069719711 0.00014174583
-0.14322284 -0.074413002 1.185022 -0.00056553195 0.99999189 -0.0039961427 8.4220243e-05
-0.25063881 -0.074589871 1.1996374 -0.10609677 0.99299127 -0.052074518 0.0029453884
-0.17245781 -0.074456081 1.1457149 0.0098087052 0.99991566 -0.0085141612 0.00029186308
-0.30735701 -0.24632598 1.1730071 -0.58934307 0.77084923 -0.241798 0.0069851512
-0.15743978 -0.074026212 1.2061417 0.017937323 0.99978089 -0.010791413 0.00022218435
-0.18471131 -0.074227504 1.1710243 0.013020579 0.9997831 -0.01625533 0.00014856392
-0.2991178 -0.23315105 1.1966449 -0.59746885 0.73923069 -0.3107554 0.011289224
-0.19354352 -0.073051587 1.0009177 -0.018489739 0.99981338 -0.0055925669 0.0003418175
-0.08370959 -0.072740175 1.1149573 -0.058996614 0.99818075 0.012434793 0.00036033566
-0.18300837 -0.072758012 1.0078322 -0.017526446 0.99984634 0.00023260017 0.0001219707
-0.088917702 -0.073448628 1.1625448 -0.011387629 0.9996863 0.022307971 0.00047375058
-0.090518884 -0.076990411 0.94752932 0.032598607 0.98785186 -0.15194109 0.0095647275
-0.12251358 -0.092922352 0.90407526 0.13826773 0.82727963 -0.54450941 0.0066392645
-0.052215599 -0.089806184 0.91445899 -0.14186238 0.8277486 -0.54286963 0.023111653
0.053237252 -0.18495093 0.94630748 -0.55035883 0.065597698 -0.83234733 0.0070253471
0.050600149 -0.07504566 0.9984076 0.10987183 0.99331224 -0.035481401 0.0041636126
-0.075692534 -0.23913479 0.93258703 0.0050008441 0.9858892 -0.16732442 0.0041486993
-0.079226546 -0.3036527 0.8746357 0.1338712 0.11822113 -0.98392189 0.00076059299
0.057310596 -0.24695957 0.90586221 -0.03516062 0.67527139 -0.73673075 0.031219231
0.12663661 -0.29202253 0.90987355 0.51991194 0.18234783 -0.83453029 0.009883007
-0.063782223 -0.38214481 0.86707085 0.17913806 0.2019643 -0.9628706 0.02222462
-0.090019129 -0.075116098 0.98961598 0.0031108512 0.99987048 -0.015791006 0.00024449622
0.0092025539 -0.072307579 1.1487528 0.025843373 0.99901783 -0.03599431 0.00057338242
-0.033777226 -0.074141152 1.0037102 -0.013362529 0.99989045 0.0063620862 0.00020881665
-0.10470071 -0.075434856 0.97135103 -0.023207176 0.99856412 -0.048280116 0.0025222676
-0.083377942 -0.24568203 0.90075082 0.24188682 0.91066164 -0.33494213 0.016781133
-0.092423461 -0.075239874 0.99277091 0.0058713476 0.99980366 -0.018922042 0.00026276434
-0.048847731 -0.075384073 0.95404607 -0.047460295 0.97299212 -0.22590649 0.004751937
-0.10869491 -0.073266536 1.020028 0.02909757 0.9995482 -0.0075333863 0.00018731203
0.076100528 -0.28667969 0.89702594 0.1553302 0.13493705 -0.9786033 0.012965027
0.11433063 -0.19634673 0.93504673 0.39240259 -0.033188477 -0.91919458 0.056728218
0.0053967135 -0.073286094 1.1360275 0.014416835 0.99893522 -0.043823969 0.00046569304
-0.29072684 -0.33496931 0.8607713 -0.65786731 0.35379228 -0.6648621 0.028046567
-0.006296433 -0.083203048 0.93922925 0.20592663 0.90774232 -0.36551067 0.0057988274
-0.28270644 -0.26468804 0.8746624 -0.81806821 0.11863222 -0.5627529 0.01198863
0.017130643 -0.24449071 0.92090654 -0.19856471 0.82702541 -0.52592874 0.008614609
-0.10165452 -0.075442657 0.97081459 -0.020199448 0.99873537 -0.046039283 0.0025030847
-0.029911403 -0.074684292 0.95058435 0.026245877 0.9597159 -0.27974382 0.0034454737
-0.27517423 -0.27079278 0.86480957 -0.61790782 0.27293938 -0.73735601 0.027744209
0.025267538 -0.098218821 0.92243707 -0.027642032 0.62818837 -0.77757019 0.010645408
-0.18540055 -0.072914638 1.0028344 -0.016405895 0.99984497 -0.0063978513 0.00031532053
-0.21605855 -0.073921092 0.9324823 -0.00026072722 0.98738277 -0.15835181 0.012899933
-0.19888698 -0.073315024 0.98776382 -0.01577151 0.9998138 -0.011114967 0.00029387651
-0.19229849 -0.073162071 0.99067867 -0.016506208 0.99979752 -0.011505737 0.00033344375
-0.18221411 -0.072826199 1.0133208 -0.016842382 0.99983704 0.0065089134 0.00015743426
-0.24550053 -0.074880995 0.92397231 -0.27649999 0.93798018 -0.20914328 0.025074709
-0.27494335 -0.16684788 0.90338969 -0.69028813 0.27858022 -0.66775405 0.020161422
-0.26557663 -0.13651302 0.89627475 -0.7399087 0.098484732 -0.6654591 0.033964511
-0.29039058 -0.27003336 0.88680279 -0.90553337 0.070876993 -0.41831285 0.0094768116
-0.14496365 -0.072525978 1.0108377 0.0021477598 0.9998576 0.016739642 0.00013541667
-0.25947535 -0.1041142 0.89697117 -0.67179185 0.43080023 -0.60258353 0.042058434
-0.29698205 -0.25906599 0.91971844 -0.95535904 0.27673444 -0.10347594 0.0087986076
-0.2905643 -0.27181727 0.88696486 -0.90455848 0.06839557 -0.42082781 0.0095596872
-0.1228708 -0.073530778 1.0449275 6.6744069e-06 0.99970937 0.024105215 0.00085437839
-0.30029482 -0.26974353 0.93607461 -0.89196157 0.41087183 -0.18865031 0.016150936
-0.21529654 -0.22853646 1.0374435 -0.61858249 0.70938337 0.3378326 0.024354085
-0.2935389 -0.30878693 0.87997419 -0.83695918 0.24212807 -0.49078849 0.01248669
-0.31085369 -0.3808943 0.90166849 -0.97309875 0.14174409 -0.18162408 0.0011202883
-0.02584606 -0.080558382 0.93128258 0.04277426 0.92851257 -0.36882898 0.010186844
-0.2153465 -0.079919681 0.90835452 0.060124177 0.88243622 -0.46657413 0.017652595
-0.018225383 -0.075115055 0.97113484 0.06945426 0.99367338 -0.088256896 0.0074500535
-0.26634136 -0.094411217 0.92281264 -0.79346389 0.56341696 -0.23016599 0.015476937
-0.1420221 -0.073776789 0.93346357 0.15240546 0.88279718 -0.44434428 0.0084066568
-0.052071437 -0.074763663 1.0230012 -0.014228452 0.99960154 0.024379127 0.00033232768
0.0060032341 -0.074914418 1.1024213 -0.015642833 0.99936253 -0.032091789 0.00063758035
-0.28877369 -0.34021541 0.85570419 -0.65863287 0.35483205 -0.66354877 0.028573472
-0.062981218 -0.074806347 1.0104618 -0.015428428 0.99982309 0.010755109 0.00034552492
-0.043298896 -0.074693903 0.95486355 -0.028322626 0.97790796 -0.20710796 0.0053445157
-0.12937471 -0.07357426 1.0516508 -0.0045552789 0.99957538 0.02878033 0.00092192931
-0.21832976 -0.23017325 1.033252 -0.62224817 0.70435536 0.34160036 0.026432443
-0.32904226 -0.39891317 1.0192146 -0.9756577 0.19985098 -0.090286806 0.0012882556
-0.26563171 -0.23877037 1.0505407 -0.11647754 0.99319243 0.0013007254 0.0013644948
-0.28464133 -0.24188282 1.0452061 -0.27379632 0.95883405 -0.075318508 0.013532867
-0.3335484 -0.37125701 1.0913234 -0.96895152 0.17230903 -0.17732032 0.00055355683
-0.33216539 -0.37142125 1.0838959 -0.9693771 0.17371182 -0.17358643 0.00060045213
-0.24307024 -0.23718922 1.0681379 -0.069976464 0.99644488 0.046913482 0.0015964523
-0.32053152 -0.28164712 1.0756902 -0.93138433 0.2463112 -0.26805598 0.0060880166
-0.34560645 -0.41067591 1.1072783 -0.95998263 0.22923057 -0.16089344 0.001062797
-0.34646764 -0.40950409 1.113844 -0.96292311 0.22194214 -0.15336485 0.00095347589
-0.32429287 -0.37016097 1.0295609 -0.98124433 0.16237737 -0.10389008 0.00017944846
-0.29505825 -0.2425949 1.0584555 -0.29205129 0.95640266 0.00023665154 0.0055158576
-0.053051151 -0.075238436 1.1878062 0.0040617189 0.99968547 0.024747707 0.0014169365
-0.30939582 -0.25309274 1.0718019 -0.61231452 0.75628501 -0.23044294 0.041788999
-0.25479817 -0.2364402 1.1410167 -0.22645923 0.96699256 -0.11679742 0.0064611016
-0.24681634 -0.23796605 1.1145484 -0.075663783 0.99618399 -0.043502729 0.0024066959
-0.14974183 -0.074543774 1.1752691 -0.0038882385 0.99992967 -0.011198478 0.00012274706
-0.16987637 -0.075183511 1.1515292 0.0060433527 0.99989867 -0.012884069 0.00028483759
-0.22488526 -0.23357217 1.0388709 -0.4639124 0.86959159 0.16910267 0.03428591
-0.31931293 -0.24960375 1.108145 -0.90168875 0.40082362 -0.16216591 0.028741669
-0.32186821 -0.34674031 1.0395504 -0.98659283 0.1000604 -0.12892827 0.00060421275
-0.32980797 -0.35811871 1.0811266 -0.97987479 0.1078047 -0.16799848 0.00018450145
-0.18116121 -0.074490905 1.0489225 -0.0023970983 0.99938291 0.035042804 0.00013299007
-0.29033926 -0.081290968 1.103572 -0.65516144 0.75330126 -0.057451282 0.032627255
-0.16900654 -0.074292161 1.1817081 0.012901063 0.99978358 -0.016320666 0.00014910972
-0.35579419 -0.42434278 1.1489136 -0.95246208 0.27465132 -0.1318433 0.00082326774
-0.3380861 -0.31665328 1.1469079 -0.97627008 0.11950214 -0.18059903 0.00011748826
-0.27554208 -0.23988126 1.086646 -0.19164336 0.98106539 0.027991669 0.0061601391
-0.34866613 -0.42750672 1.1065705 -0.94696194 0.29113534 -0.13602695 0.0013962333
-0.166328 -0.073730566 1.1884876 0.012891503 0.99977851 -0.016638402 0.00015267429
-0.10869741 -0.074446842 1.2138039 -0.0018411606 0.99999774 0.0010769104 0.00010642607
-0.32753706 -0.39603439 1.0087119 -0.97663927 0.19358799 -0.093270525 0.00091078487
-0.23762138 -0.23728025 1.0998923 -0.030297562 0.99927247 -0.023165755 0.00037646716
-0.093961462 -0.074532986 1.2369338 -0.04632492 0.99858379 0.026159406 0.0021270807
-0.31190309 -0.25161034 1.0812795 -0.66791469 0.68805212 -0.28367999 0.050427642
-0.33298892 -0.28077751 1.1474565 -0.96441662 0.18649568 -0.1874032 0.0034509343
-0.10641994 -0.07410264 1.2101445 0.00017214644 0.99999952 0.0010379597 0.00012015357
-0.31908584 -0.24964663 1.1054945 -0.88164103 0.43416801 -0.18495207 0.034004923
-0.3140761 -0.25390607 1.0866592 -0.78301066 0.53033698 -0.32501847 0.046099816
-0.3525883 -0.38380077 1.1827482 -0.97230321 0.15208939 -0.17746897 0.00044241268
-0.22218519 -0.23677391 1.1101646 -0.064064696 0.99361825 -0.092836127 0.0027480542
-0.32315308 -0.3241123 1.0572194 -0.98668659 0.066104695 -0.14859243 0.00032495044
-0.34483284 -0.32238805 1.1804579 -0.97810483 0.11839668 -0.17115249 0.00017254961
-0.34513584 -0.32672524 1.1793934 -0.97896922 0.10872265 -0.17262259 0.00020222628
-0.34344414 -0.37153497 1.1442711 -0.97232836 0.15301238 -0.17653553 0.00049730664
-0.092450447 -0.075107381 0.98935503 0.002424527 0.99987972 -0.015321592 0.00025595387
-0.30706275 -0.099361144 1.1786847 -0.58114189 0.78862607 -0.20085575 0.0096924081
-0.12104838 -0.075355947 1.1439506 -0.029375378 0.99952358 -0.0094718719 0.00042745247
-0.10879135 -0.077336207 1.2738189 -0.027989874 0.91694975 0.39801994 0.017359955
-0.29295179 -0.078969538 1.2126615 -0.460926 0.88409257 -0.076990597 0.033780005
-0.34524077 -0.28392267 1.2259251 -0.97585416 0.20017844 -0.087390967 0.0015715314
-0.27011243 -0.23930639 1.1468575 -0.19197321 0.97850984 -0.075264275 0.0037193829
-0.21490331 -0.23755977 1.0804585 -0.10582807 0.99316829 0.049164567 0.0145678
-0.34802943 -0.36466786 1.1743207 -0.97513938 0.11996963 -0.18630737 0.00017587921
-0.3262293 -0.26096967 1.1333405 -0.91274989 0.39834026 -0.090623572 0.013662458
-0.25800365 -0.23623213 1.1503673 -0.24229887 0.95963347 -0.14281008 0.0059212251
-0.2928693 -0.082609579 1.1926715 -0.42673704 0.87287164 -0.23662309 0.013781294
-0.35382953 -0.33735478 1.2380784 -0.99453622 0.10433845 0.0033649225 0.00091253809
-0.19133031 -0.072329998 1.2139318 0.0054807058 0.9999603 -0.0070225457 0.00027777883
-0.30537295 -0.24008411 1.1913309 -0.59103489 0.75490594 -0.28424445 0.0048832297
-0.31862909 -0.2442746 1.2058426 -0.70641929 0.57817292 -0.40827423 0.014273971
-0.31687623 -0.24021265 1.2104945 -0.71010137 0.54236317 -0.44899687 0.014407145
-0.3041347 -0.089986153 1.2071608 -0.81290841 0.58224702 0.012971897 0.036628373
-0.28087515 -0.07872647 1.2017821 -0.35020119 0.91769862 -0.18758543 0.018834891
-0.32142538 -0.3674494 1.0022631 -0.98156697 0.16447251 -0.097340152 0.00023582872
-0.33348322 -0.2271945 1.2641425 -0.96179497 0.27009577 0.04470706 0.015169503
-0.33613318 -0.2744953 1.1739848 -0.91772711 0.3699865 -0.14452305 0.0089223729
-0.30467308 -0.24039945 1.1881715 -0.59103489 0.75490594 -0.28424445 0.0048832297
-0.18365298 -0.074461684 1.1622717 0.013537951 0.99979246 -0.015218844 0.00017847674
-0.33210605 -0.22274403 1.2558604 -0.96715981 0.25315541 0.022677677 0.01787426
-0.34722891 -0.31177035 1.2798527 -0.87643683 0.17107227 0.45010304 0.023486121
-0.33712295 -0.28677973 1.2844433 -0.68299109 0.091921426 0.72461969 0.0218389
-0.29936585 -0.081841528 1.2110711 -0.64426076 0.76363254 -0.042349398 0.042562835
-0.360264 -0.39409295 1.2971628 -0.51293385 0.13082527 0.84840065 0.015130038
-0.35227329 -0.32630807 1.2690707 -0.97614825 0.14226596 0.16399691 0.013185217
-0.27425644 -0.23952878 1.0743629 -0.17771739 0.98369914 0.027433112 0.0059748213
-0.32556522 -0.19437605 1.2631408 -0.77590042 0.081404395 0.62558115 0.038807508
-0.344686 -0.31583679 1.1847376 -0.97748089 0.12680352 -0.16867715 0.00020578747
-0.12431873 -0.073494397 1.0586671 -0.024048558 0.99933642 0.02735691 0.0012124769
-0.30670157 -0.097998053 1.1804154 -0.63455617 0.75362837 -0.17141362 0.016525913
-0.34350353 -0.28527448 1.2787552 -0.80775625 0.11245438 0.5786916 0.022775125
-0.35339123 -0.42188406 1.1380913 -0.96320999 0.23026894 -0.13857399 0.00092843152
-0.34605131 -0.37016502 1.160172 -0.97497869 0.14012682 -0.17257209 0.0002737446
-0.32342759 -0.16359577 1.2454506 -0.88310558 0.28672662 0.37136549 0.03190767
-0.10647799 -0.073776938 1.1374232 -0.042604458 0.99908811 0.0028096321 0.00024021443
-0.32569259 -0.18440871 1.262025 -0.7902872 0.20895654 0.57600635 0.041021109
0.068690866 -0.24524574 1.3448879 0.67802024 0.27738369 0.68069589 0.013892974
-0.023879413 -0.41975197 1.3682983 -0.16492736 0.18920866 0.96798712 0
-0.045169543 -0.24381177 1.3190583 0.071132593 0.66976535 0.73915797 0.013232418
-0.23624647 -0.075544044 1.2471851 0.0746907 0.95999897 0.26985779 0.012174551
-0.32288501 -0.18263115 1.2685844 -0.6097641 0.19956487 0.76704735 0.038744498
-0.31447741 -0.14086692 1.2637973 -0.6605525 0.25388297 0.70655072 0.067037009
-0.35151592 -0.35180414 1.2905871 -0.57184011 0.29629683 0.7649883 0.032353882
-0.35702437 -0.37680686 1.294292 -0.67783719 0.21490303 0.70310271 0.028567363
-0.32133999 -0.15679964 1.2387279 -0.92550033 0.27424803 0.26122242 0.013918331
-0.34198439 -0.28657243 1.2808584 -0.7643733 0.090227492 0.63842964 0.02222693
-0.32116762 -0.15920962 1.2535444 -0.75060439 0.34067887 0.56615466 0.053589568
-0.32192591 -0.17072906 1.2611771 -0.72032821 0.28976285 0.63021004 0.052237939
-0.31843331 -0.17378356 1.2687801 -0.59415841 0.23609982 0.76891655 0.046885177
-0.33754811 -0.32766512 1.1358379 -0.97769493 0.10082871 -0.18424475 0.00012618967
-0.35436291 -0.36672366 1.2930696 -0.55939013 0.25923222 0.78732538 0.023747504
-0.32080287 -0.15804735 1.2283422 -0.96243387 0.24674477 0.11330487 0.0027226948
-0.31106243 -0.11466809 1.2562327 -0.90371883 0.28853872 0.31628737 0.044138119
-0.040087063 -0.25526932 1.3328333 -0.069393672 0.49168399 0.86800432 0.022986462
-0.32046723 -0.15400314 1.2430642 -0.88005918 0.32136536 0.3495999 0.021439327
-0.30537611 -0.10421043 1.2614716 -0.79813129 0.40686294 0.4443523 0.0492003
-0.14454547 -0.3883988 1.3388481 -0.15377305 0.21621606 0.96415991 0.0011654823
-0.0827647 -0.073072195 1.2531233 -0.068086997 0.99467069 0.077423379 0.0083065135
-0.34583396 -0.2756148 1.2695938 -0.92259812 0.13366829 0.36186397 0.030675672
-0.20676476 -0.20200057 1.02192 -0.73557317 0.41065517 0.53878981 0.0095520737
-0.30908391 -0.097898602 1.2298559 -0.88755548 0.45242569 0.086926207 0.01417633
-0.34357688 -0.27048558 1.2742368 -0.85079032 0.12319542 0.51086086 0.033066411
-0.11272075 -0.088560805 1.2856649 -0.073605478 0.84871107 0.52370954 0.0062422128
-0.11561646 -0.089108817 1.2863021 -0.081235349 0.84495628 0.52862996 0.0059824511
-0.35604194 -0.36314186 1.2252727 -0.99085623 0.10205114 -0.088258237 0.00069344393
-0.25505319 -0.080441199 1.2636801 -0.22535044 0.76370007 0.60496223 0.07369744
-0.071636349 -0.2445197 1.321894 -0.17048004 0.50681841 0.84502769 0.044087589
-0.26210102 -0.074784622 1.1958671 -0.13655765 0.98746222 -0.079186261 0.002692695
-0.17507309 -0.075062834 1.1521337 0.013151664 0.99979842 -0.015167702 0.00028198442
-0.22444479 -0.073849104 1.1819501 -0.0044606146 0.99986547 0.015783591 0.00024151926
-0.2169286 -0.23071569 1.0352904 -0.62139523 0.71143657 0.3282164 0.025089175
-0.23301452 -0.073736891 1.1939732 -0.017854111 0.99980026 0.0089870794 0.00015298229
-0.085512213 -0.073321223 1.1577135 -0.016996887 0.9995172 0.02601183 0.00042242798
-0.2322745 -0.23553002 1.0273645 -0.43673322 0.8552202 0.27903837 0.053257328
-0.20178346 -0.20952871 1.0355031 -0.74313718 0.47548276 0.47081128 0.015641864
-0.32771015 -0.42018172 0.97232181 -0.96454102 0.21162741 -0.15771693 0.0018138879
-0.28879586 -0.081873089 1.2468419 -0.41839781 0.83717078 0.35226166 0.023606824
0.017141309 -0.2452926 1.3341107 -0.4214111 0.49221721 0.76166588 0.0079062823
-0.13618092 -0.24074437 1.2759074 -0.030907452 0.98727524 0.15598826 0.0043852343
-0.13991252 -0.24059686 1.2775878 -0.033963952 0.98618317 0.16213992 0.0044715614
-0.12653026 -0.24149527 1.282209 -0.049292181 0.98636103 0.15704235 0.006799506
-0.14252859 -0.24646699 1.2968701 -0.082503341 0.86258185 0.499145 0.021364031
0.076071873 -0.30950898 1.3604382 0.4085958 0.44834194 0.79500878 0.034204721
-0.12770979 -0.2417495 1.2911069 -0.052197281 0.98196006 0.18174128 0.0097401384
-0.1931065 -0.24383335 1.2994729 -0.20984901 0.88548732 0.41457871 0.054363854
-0.15178467 -0.24447605 1.2943238 -0.061116487 0.86637741 0.49563593 0.022815228
-0.11716916 -0.24069166 1.2762755 -0.066662163 0.98957378 0.12767085 0.0048245639
-0.20513338 -0.24385947 1.2971866 -0.42281473 0.74320996 0.51852351 0.033976719
-0.18985854 -0.24251477 1.2958552 -0.073610947 0.95060813 0.30153883 0.025322065
-0.29721674 -0.080697477 1.2389346 -0.60458422 0.76173216 0.23289947 0.036645215
-0.055086188 -0.084119402 1.3096913 -0.10297525 -0.23070921 0.96755844 0.0065129441
-0.12355302 -0.41419685 1.3505207 -0.1681278 0.26762319 0.94874173 0.0026550186
-0.076444224 -0.40930495 1.3565059 -0.15815689 0.20602012 0.96568221 0.0010359377
-0.35377401 -0.32930171 1.242162 -0.99515939 0.096670091 0.017681379 0.00096340332
-0.35790768 -0.39607349 1.2987795 -0.46573314 0.12628661 0.87586778 0.010272816
-0.31884769 -0.15276651 1.2581303 -0.73441833 0.26453811 0.62501949 0.052505769
-0.20090081 -0.39355087 1.3360583 -0.064712517 0.24714324 0.96681565 0.00092576735
-0.15324374 -0.36461079 1.3348559 -0.11836714 0.12283646 0.98534286 0.00037174695
-0.29251641 -0.079717726 1.2107663 -0.46281657 0.8827523 -0.080927186 0.03326866
-0.29349431 -0.08165399 1.2431421 -0.52417892 0.80671954 0.27283725 0.028148711
-0.3228744 -0.18719314 1.2692109 -0.56156301 0.13604099 0.81617391 0.033136521
-0.11585106 -0.23996063 1.2674277 -0.034064636 0.9938308 0.10554638 0.0025180876
-0.10466563 -0.073623501 1.1583205 -0.027210083 0.99953288 0.013916546 0.00034052893
-0.32109779 -0.15731192 1.2480389 -0.84448582 0.33823499 0.41525993 0.03862837
-0.2623575 -0.23832287 1.0856757 -0.085098632 0.99635684 -0.005592112 0.00075095851
-0.32498023 -0.35475683 1.0542498 -0.98236179 0.11343393 -0.14865436 0.00027575466
-0.14138632 -0.24786167 1.2996199 -0.068282403 0.85382521 0.51606202 0.019445045
-0.29095727 -0.21285871 1.2835029 -0.26902318 0.019936327 0.96292734 0.018743247
-0.34535158 -0.27657443 1.2609403 -0.97946739 0.13779037 0.14716505 0.023380738
-0.30300137 -0.27649435 1.302165 -0.33347592 0.23613726 0.91270638 0.0099092778
-0.16704497 -0.073893718 1.2083243 0.017427702 0.99976408 -0.012964239 0.00017448496
-0.34288773 -0.32168767 1.1687372 -0.97787982 0.11525969 -0.17454569 0.00023733225
-0.32304877 -0.38520589 0.98872149 -0.97812426 0.17748019 -0.1085067 0.00035432246
-0.32683635 -0.3951022 1.0059707 -0.97688556 0.19124605 -0.095496736 0.0008164873
-0.21403643 -0.36864391 1.3305037 -0.053608131 0.15368037 0.98666531 0
-0.31993029 -0.39416012 1.3141448 -0.32656473 0.10314117 0.93953031 0.00088122691
-0.36419243 -0.4034763 1.2917726 -0.59992409 0.096783005 0.79418147 0.019005857
-0.19773445 -0.21406367 1.045252 -0.75214195 0.51427901 0.41206732 0.017092142
-0.24264108 -0.3995389 1.3335495 -0.1158952 0.25774911 0.95923597 0.00075516704
-0.31428558 -0.1271553 1.2221152 -0.97579306 0.2152178 -0.038848184 0.0012789773
-0.26429889 -0.076615147 1.247063 -0.16721579 0.90637046 0.38798386 0.030238433
-0.35288748 -0.40973169 1.1553156 -0.96718091 0.21188764 -0.14023112 0.00044522743
-0.066768393 -0.25219697 1.3291337 -0.18194357 0.3568109 0.91628736 0.015757266
-0.11819159 -0.29422337 1.3311675 -0.13933781 0.16441803 0.97649968 0.0012869026
-0.24211249 -0.23767607 1.1022284 -0.032881681 0.99904251 -0.028860429 0.00042045009
-0.13594723 -0.099651881 1.2975826 -0.048775874 0.78074235 0.62294644 0.002957029
-0.33089459 -0.28075245 1.1366307 -0.96819782 0.18727884 -0.16589035 0.0035092731
-0.12594034 -0.074098006 1.1515671 -0.023420583 0.99948031 -0.022153106 0.00039842882
-0.20614727 -0.2330386 1.0732037 -0.35667169 0.91361719 0.19516407 0.030448658
-0.32996154 -0.27066919 1.1408834 -0.931602 0.33954144 -0.12972775 0.010838224
