# .PCD v0.7 - Point Cloud Data file format
VERSION 0.7
FIELDS x y z normal_x normal_y normal_z curvature
SIZE 4 4 4 4 4 4 4
TYPE F F F F F F F
COUNT 1 1 1 1 1 1 1
WIDTH 579
HEIGHT 1
VIEWPOINT 0 0 0 1 0 0 0
POINTS 579
DATA ascii
0.078728259 -0.046751056 0.63842684 0.68536431 0.56652838 -0.4575164 0.041302927
0.038345654 -0.35092184 0.78100377 -0.20075735 -0.948093 -0.24660935 0.053517904
-0.0090915402 -0.072173156 0.79805911 -0.14954111 0.36407667 0.91928542 0.038139723
-0.080381587 -0.20981294 0.71845573 -0.95276904 -0.11687983 0.28030393 0.0087836115
-0.070410118 -0.28928286 0.71447527 -0.93266457 -0.17114216 0.31756449 0.011065155
0.0077049388 -0.12540586 0.81167835 -0.073879436 0.090825863 0.99312258 0.018689264
-0.039771102 -0.087706491 0.79662091 -0.42135042 0.26141685 0.86840379 0.042184941
-0.084203079 -0.23590194 0.70177215 -0.97663164 -0.15569605 0.14815313 0.015295305
-0.10380818 -0.065202169 0.70567697 -0.8883341 0.36096078 0.2838484 0.09115544
0.27030352 -0.36770299 0.72387552 -0.046042997 -0.99848944 -0.029980555 0.00024497509
0.0585077 -0.36375901 0.81787163 -0.13673829 -0.96781749 -0.21126297 0.027771968
0.041830752 -0.066765204 0.79315245 0.19538736 0.57843912 0.79197979 0.044351708
0.016284868 -0.070123434 0.80217838 0.085302606 0.39085221 0.91649222 0.040589973
-0.054668434 -0.26000777 0.7577166 -0.83954364 -0.19831869 0.50580245 0.0026691738
-0.050812937 -0.079470567 0.79241997 -0.51554036 0.33574039 0.78835052 0.051259801
0.012859522 -0.13293961 0.81243807 -0.064944603 0.06572175 0.99572229 0.014996829
-0.019668004 -0.11028275 0.80580759 -0.2957263 0.11766197 0.94799876 0.024562167
0.054906923 -0.36518043 0.88620245 -0.12482971 -0.99203402 -0.016914463 0.0023112607
-0.014307176 -0.10718565 0.80642045 -0.26785168 0.14859696 0.95193195 0.025295794
0.046935011 -0.35631531 0.79709828 -0.15749222 -0.96185952 -0.2236568 0.03810437
-0.010757113 -0.098887585 0.80655879 -0.19555092 0.20052421 0.95997393 0.028344261
-0.075353071 -0.060328718 0.7365222 -0.50672603 0.79115534 0.34249374 0.042411305
-0.04412492 -0.06909389 0.78778744 -0.44550577 0.50655061 0.73819447 0.054015078
-0.020190766 -0.26271439 0.79828197 -0.75322688 -0.19790275 0.6272828 0.0015674408
0.29708055 -0.36859909 0.75462317 -0.033523045 -0.99934256 -0.013803332 0.00037823035
0.055896766 -0.35655332 0.78909796 -0.13474526 -0.96565431 -0.22216095 0.039228328
0.0037977172 -0.090588413 0.80711114 -0.057541497 0.26810655 0.96166927 0.033898406
0.013432845 -0.091005683 0.80728871 0.031051192 0.28254974 0.95874995 0.037008621
0.033023525 -0.0739972 0.79970896 0.16302784 0.44667944 0.87971556 0.044251978
0.25355005 -0.36462584 0.57211298 -0.050256334 -0.99872595 0.0045524677 0.00048364309
0.019695638 -0.04629432 0.60176462 0.19670725 0.41315389 -0.8891626 0.030692417
0.2995199 -0.36836746 0.73662049 -0.032726884 -0.9992857 -0.018896658 0.00031874247
-0.060328927 -0.10409532 0.78624922 -0.59911507 0.18232831 0.77962649 0.037613627
-0.018557083 -0.09054216 0.80459172 -0.25380775 0.21682143 0.94263995 0.031088106
-0.033727333 -0.2660082 0.78194773 -0.77865058 -0.20133486 0.59427911 0.0019764202
0.025515873 -0.074653521 0.80215532 0.12615819 0.3875348 0.91318178 0.041368008
0.090549126 -0.33779019 0.7598747 -0.33269697 -0.81769407 -0.46977571 0.0837707
-0.059619188 -0.21274062 0.76614547 -0.84818172 -0.16447419 0.50352365 0.0054144352
0.095705755 -0.36060739 0.76114476 -0.29263178 -0.89590007 -0.3342599 0.076232165
-0.097454086 -0.085848927 0.72233343 -0.91339797 0.2020351 0.35339203 0.063888498
-0.054833803 -0.27303296 0.75303733 -0.84206647 -0.1814872 0.50792372 0.0029840551
-0.027165212 -0.18959579 0.80497092 -0.52439255 -0.086723141 0.8470487 0.02175742
0.03609037 -0.11739874 0.80706805 0.18340325 0.14250387 0.97265404 0.01934219
0.063876323 -0.073819675 0.785761 0.40686625 0.52743596 0.74583584 0.039600965
-0.078428209 -0.2497766 0.7128306 -0.95782912 -0.14971986 0.24524938 0.011972929
0.21714002 -0.36446589 0.73841649 -0.054309651 -0.99818218 -0.026129898 0.00051925721
0.21335725 -0.36406901 0.72102785 -0.066757038 -0.99730593 -0.030402349 0.0035599158
0.22625406 -0.36343235 0.57773221 -0.046648227 -0.99891138 -0.00025101379 0.00051991979
0.082603723 -0.34963092 0.76683933 -0.17177296 -0.93807691 -0.30084172 0.060792875
-0.072931983 -0.29225868 0.70758563 -0.95248991 -0.18223844 0.24403313 0.01145447
-0.044977751 -0.097321995 0.79566115 -0.466802 0.18798204 0.86415201 0.036405552
0.0038579025 -0.099794373 0.80838138 -0.075662762 0.2001837 0.97683245 0.031331249
-0.052184809 -0.088381752 0.79199719 -0.52906805 0.28365102 0.79976821 0.046898734
0.060804404 -0.36406294 0.87649441 -0.13224921 -0.9909007 -0.025016423 0.0027274829
-0.02739808 -0.10845694 0.80361903 -0.33445525 0.12046088 0.93468112 0.026412297
0.024016265 -0.12292144 0.81033963 0.060994651 0.10485849 0.99261492 0.020233806
0.017857715 -0.15940645 0.81102061 -0.19324343 -0.020420242 0.98093832 0.011094936
-0.089934222 -0.053996336 0.64372027 -0.70360219 0.67934358 -0.20841356 0.086082585
-0.059413366 -0.33476964 0.71664065 -0.89841467 -0.1931275 0.39440176 0.021882268
-0.066220373 -0.16244937 0.77271283 -0.8055706 -0.084830016 0.58639562 0.018548973
0.31911689 -0.36704034 0.68817616 -0.02404619 -0.99934161 -0.02717017 6.3436732e-05
0.099964447 -0.055443611 0.69566423 0.80640656 0.58997089 0.040532216 0.028182415
0.14964829 -0.35649893 0.68567014 -0.3274653 -0.93059927 -0.16355897 0.087195456
0.12029482 -0.15279175 0.66076303 0.87644011 0.19956043 -0.43821043 0.0069658156
0.062581033 -0.35715687 0.56634098 0.2926904 0.12714735 -0.94771612 0.029402606
0.056101523 -0.3616696 0.5599007 0.28715283 0.19566359 -0.93768817 0.028616777
0.14980094 -0.35525557 0.66651255 -0.6684733 -0.68484712 0.29004812 0.11961424
0.069116756 -0.36399934 0.84562528 -0.28644875 -0.9446345 -0.16003998 0.031569596
0.098235384 -0.057448514 0.67381179 0.90242624 0.40257812 -0.15348557 0.020325592
0.11110861 -0.09174002 0.6721341 0.94393253 0.29113376 -0.15566789 0.011353179
0.12190846 -0.34434289 0.61638886 0.75539595 0.049060468 -0.65342945 0.055650502
0.12016965 -0.14319895 0.6628747 0.90332901 0.21008271 -0.37398139 0.0097298231
0.084845528 -0.050076611 0.64564341 0.7493614 0.52349043 -0.40548149 0.041479487
0.12010102 -0.15415876 0.65861529 0.87644011 0.19956043 -0.43821043 0.0069658156
0.081031777 -0.051260862 0.63562357 0.71355617 0.48905995 -0.50165522 0.040308345
0.086851552 -0.047884095 0.65331525 0.82370204 0.47410607 -0.31102794 0.030009812
0.13903119 -0.28883705 0.64041483 0.81593448 0.098560818 -0.56968117 0.034629799
0.10037832 -0.057824187 0.69675076 0.8282848 0.55915278 0.035951078 0.028848164
0.067316584 -0.36299101 0.80962402 -0.10481189 -0.9681716 -0.22728451 0.030142106
0.14615583 -0.33662742 0.67314219 0.68707103 0.72333235 -0.068730265 0.14674602
0.13658401 -0.29416525 0.63282722 0.80544877 0.10195206 -0.58383042 0.034574587
0.092585653 -0.15118726 0.6179288 0.65501064 0.18442903 -0.73276669 0.010815804
0.14084755 -0.30626547 0.64180028 0.84867543 0.11762562 -0.51566869 0.050770149
0.14077763 -0.30877906 0.64212734 0.84372181 0.13731135 -0.51892108 0.065354474
0.10033448 -0.23881409 0.59148407 0.61949062 0.11008736 -0.77724648 0.021250706
-0.065791205 -0.35659266 0.45038822 0.03317935 -0.99868476 -0.039087195 0.0012221313
0.12751064 -0.30691162 0.61446995 0.74343276 0.070441321 -0.6650908 0.037091367
0.073445641 -0.044947706 0.63119417 0.60449386 0.60635 -0.51664966 0.052406199
0.089277864 -0.046857111 0.66389978 0.83609283 0.50086313 -0.22379667 0.029437251
-0.057761844 -0.35636249 0.48332894 0.041556664 -0.99905938 -0.012388239 0.0015415389
0.091014467 -0.064578958 0.64346468 0.8439557 0.37630185 -0.38227695 0.025435211
0.10171371 -0.061692171 0.69655865 0.8469159 0.530738 0.032414034 0.029235858
0.11672704 -0.20435347 0.62458986 0.8060593 0.20377895 -0.55564594 0.0033039558
0.073254235 -0.044088788 0.6331895 0.59674102 0.62878066 -0.49853286 0.052599285
0.10661592 -0.34183165 0.59490603 0.63158274 0.063696936 -0.77268749 0.036986895
0.14329323 -0.32848433 0.64680552 0.81695127 0.29176682 -0.49745628 0.10700529
0.14940362 -0.35401419 0.6578359 0.6871534 0.61358547 -0.38901553 0.12665208
0.14375798 -0.34119022 0.64991236 0.81286144 0.31015727 -0.49300984 0.11536474
0.11838539 -0.13610436 0.65869033 0.93054688 0.2138743 -0.29722106 0.011296425
0.13244383 -0.34913838 0.62835646 0.77474517 0.20102924 -0.599464 0.099127784
0.13880843 -0.31680024 0.63722986 0.81626934 0.12863323 -0.56316763 0.071821906
0.082400322 -0.24550954 0.57601804 0.44377351 0.065625139 -0.89373296 0.021206552
0.11443877 -0.34048516 0.604065 0.69100344 0.052548766 -0.72093886 0.044540606
0.099872999 -0.14113969 0.62661141 0.71554697 0.18732306 -0.67298037 0.0093018003
0.11417442 -0.28760135 0.597758 0.6676479 0.022443112 -0.74413884 0.025845058
0.10331991 -0.29623866 0.5892024 0.61383665 0.033135615 -0.78873742 0.028755555
0.10256645 -0.16077799 0.62429148 0.71745306 0.20981498 -0.66425806 0.010299766
0.098978169 -0.14684582 0.62442666 0.70491236 0.18978398 -0.683433 0.0099625988
0.098434821 -0.05779947 0.67379791 0.90242624 0.40257812 -0.15348557 0.020325592
0.13682744 -0.34531945 0.63774586 0.79994386 0.26914868 -0.53632903 0.10383268
0.063210338 -0.042113591 0.62193513 0.50462055 0.49257949 -0.70903003 0.04206093
0.078239545 -0.36557627 0.85781312 -0.12990977 -0.98994207 -0.056018498 0.0023198151
-0.022599349 -0.33269089 0.56350708 -0.20466958 0.48680368 -0.84919518 0.1123701
-0.066801123 -0.35601661 0.44292444 0.032095186 -0.99866378 -0.040504847 0.0013910711
0.051455107 -0.35476169 0.56513518 0.26578295 0.17800498 -0.94745636 0.029577943
0.12340098 -0.29357135 0.60857576 0.71713406 0.0483982 -0.69525272 0.029283371
0.1089678 -0.15921211 0.63468891 0.81069732 0.19465367 -0.55215919 0.006001268
0.12678948 -0.34486711 0.62460494 0.76199168 0.100993 -0.63966322 0.066548482
0.11109447 -0.10197052 0.65713423 0.92989236 0.26836252 -0.25155872 0.0080489554
0.20649745 -0.36444178 0.77030742 -0.054901324 -0.99804723 -0.029791744 0.0008163281
0.14106914 -0.29506382 0.64460069 0.84749937 0.10514186 -0.52027887 0.04444281
0.10128624 -0.36348224 0.56780922 0.47935069 0.17127134 -0.86074907 0.036046375
0.087772228 -0.059775852 0.63694024 0.76353925 0.42334536 -0.48763368 0.036636032
0.085411102 -0.06315238 0.75188214 0.46571589 0.81261301 0.35038382 0.021655682
0.017902477 -0.046598315 0.60118854 0.18519647 0.41235 -0.89200324 0.031825524
0.11622879 -0.30119222 0.60062397 0.68098813 0.032188416 -0.73158658 0.029387118
0.086764984 -0.33838704 0.58280194 0.47892967 0.066404775 -0.87533814 0.035025526
0.097979598 -0.34278491 0.59174091 0.59890944 0.067361079 -0.79797864 0.038280688
0.079816461 -0.35172829 0.57712346 0.38503218 0.12094346 -0.91494417 0.030172873
0.14746159 -0.333635 0.68771279 -0.48345357 -0.84941953 -0.21156338 0.11729057
0.11825626 -0.28312546 0.60351259 0.67960125 0.016043467 -0.73340619 0.022831453
0.088211082 -0.24978651 0.57755631 0.47921136 0.059867639 -0.87565535 0.018207759
-0.008119802 -0.34714395 0.55473745 0.0048061642 0.50706452 -0.86189473 0.092544034
-0.070570268 -0.35910121 0.46876854 0.035411995 -0.99920636 -0.018239381 0.00069824664
0.1022236 -0.23245491 0.5954991 0.63559353 0.17612518 -0.75166529 0.013779761
0.10049945 -0.11828919 0.63469994 0.83691335 0.23791507 -0.49292231 0.0062927767
0.13697712 -0.2707887 0.64378154 0.86907732 0.072855003 -0.48928189 0.0075656679
0.10187977 -0.23776862 0.59344745 0.63005364 0.12295488 -0.76675576 0.019489946
0.13663599 -0.30813077 0.63088489 0.82380378 0.096702643 -0.55856597 0.048018593
0.11634079 -0.15099357 0.65057695 0.87638223 0.1997845 -0.43822408 0.0065959115
0.12545009 -0.17975357 0.66544765 0.86764324 0.17382638 -0.46581078 0.0040835291
0.00452284 -0.33016825 0.56510901 -0.01442505 0.37048805 -0.92872524 0.06942483
-0.018108113 -0.35487923 0.53368759 0.030285077 -0.88887638 0.45714515 0.11348371
-0.05761905 -0.35763568 0.48079053 0.041556664 -0.99905938 -0.012388239 0.0015415389
-0.031869523 -0.34303805 0.56314659 -0.23677024 0.57062328 -0.78633898 0.12050433
-0.030404164 -0.3550224 0.53405559 0.041566983 -0.93575782 0.35018495 0.088622458
0.079894125 -0.25874063 0.57344067 0.40505171 0.019129347 -0.91409361 0.019773511
0.11356679 -0.3439396 0.60217905 0.68581057 0.059714857 -0.72532618 0.044459134
0.097027123 -0.32283252 0.58821625 0.60185808 0.024316244 -0.79823273 0.033429354
0.079888344 -0.070094198 0.62407434 0.697685 0.34041038 -0.63036215 0.030525075
0.082398631 -0.13400871 0.61048019 0.60054559 0.18244112 -0.77849871 0.011459493
0.11263657 -0.25148115 0.60123491 0.6874848 0.032079231 -0.72548991 0.017496618
0.12554118 -0.18580046 0.66352057 0.8682071 0.18153015 -0.46180442 0.0047545405
0.14975567 -0.36072144 0.68598074 -0.3185198 -0.93492973 -0.15637001 0.085635535
0.10233204 -0.33978292 0.59426779 0.62051177 0.058577452 -0.78200626 0.03732156
0.10543956 -0.14743978 0.63264084 0.77658492 0.19580963 -0.59881091 0.0071826801
0.1028784 -0.064329043 0.69659323 0.86863577 0.4941985 0.035208046 0.029669026
0.068482123 -0.038734045 0.63053644 0.48765013 0.76667112 -0.41762754 0.048544139
0.11409961 -0.29842877 0.59730983 0.67516118 0.020590538 -0.73738277 0.027691783
-0.068928823 -0.3562803 0.44286722 0.032095186 -0.99866378 -0.040504847 0.0013910711
0.046984967 -0.29695618 0.57019597 0.19002113 0.05238777 -0.98038137 0.017563637
0.014971006 -0.33290112 0.56425089 0.056632984 0.28035924 -0.95822304 0.059957389
0.11944056 -0.29432547 0.60402203 0.70167989 0.037849225 -0.71148628 0.030519729
-0.093774602 -0.3556301 0.43930322 0.030968806 -0.99847001 -0.045809984 0.0014304203
0.099412598 -0.26971593 0.58395469 0.61211711 0.017479315 -0.79057389 0.017215848
0.10709613 -0.12925237 0.64106733 0.88479048 0.21783352 -0.41193974 0.0042560338
0.1435443 -0.34364182 0.64404523 0.81672072 0.30851403 -0.48763338 0.11037388
0.093635865 -0.099127024 0.63248575 0.82925099 0.29610044 -0.47399086 0.011208858
0.1532416 -0.35724664 0.64955425 0.68439376 0.5959301 -0.42008635 0.11830878
0.061292674 -0.040790863 0.62081677 0.48320234 0.50578845 -0.71462822 0.041441705
-0.068439439 -0.061602626 0.74448568 -0.51341766 0.75390977 0.40990523 0.041378614
0.10305119 -0.13100782 0.634781 0.79785347 0.20117201 -0.56829554 0.0088365227
0.068756796 -0.32399869 0.57593489 0.36889938 0.02112106 -0.92922938 0.02621411
0.12072432 -0.24691348 0.611889 0.77023637 0.11802019 -0.62674332 0.0094608897
0.096911147 -0.13219616 0.6267035 0.71565711 0.17821325 -0.67533314 0.0084364424
0.11410652 -0.24430117 0.6044997 0.70805836 0.096239947 -0.69956499 0.016510988
0.10892988 -0.13790801 0.64060372 0.87343287 0.20303182 -0.44259816 0.0043813498
0.11177541 -0.1737411 0.63210231 0.8070693 0.21134524 -0.55133682 0.0033949604
0.12594904 -0.36224854 0.56889933 0.55237931 0.13615806 -0.82239777 0.036038008
0.096186846 -0.14964806 0.62172866 0.68039387 0.1992577 -0.70523787 0.010578705
-0.041479569 -0.35629404 0.53084815 0.0048255716 -0.94818503 0.31768224 0.087971926
0.072287858 -0.033329189 0.64787632 0.55125159 0.76392323 -0.33547425 0.050308052
0.073085889 -0.3538357 0.57142967 0.33970627 0.12097458 -0.93271905 0.030304262
-0.10845853 -0.35744607 0.45178071 0.030955486 -0.9984687 -0.045846511 0.0014546257
0.011720343 -0.32171404 0.56402892 -0.016150411 0.28251612 -0.95912659 0.065825745
-0.059582774 -0.35446873 0.56825519 -0.2674849 0.67326224 -0.68932563 0.12521023
-0.075417191 -0.051889069 0.61475027 -0.25506657 0.94975358 -0.1814087 0.044504698
-0.052972306 -0.33644536 0.5946092 -0.72354549 0.29051378 -0.62616581 0.10256216
-0.053093836 -0.21529925 0.5982632 -0.78110725 -0.03213178 -0.62356955 0.017899098
-0.090065673 -0.18394415 0.65297967 -0.97864372 -0.17563693 -0.1068092 0.0087492466
-0.10803606 -0.35832405 0.8776744 0.036066543 -0.99492222 0.09396258 0.0061571267
-0.074757539 -0.29279795 0.6938926 -0.97486532 -0.19296153 0.11137125 0.013729597
-0.063037649 -0.35917121 0.55247962 -0.061284073 -0.89913368 0.43336219 0.10272532
-0.071540505 -0.35772699 0.86900395 0.026214287 -0.99288523 0.116154 0.0090912571
-0.074662887 -0.24596317 0.63337708 -0.95097685 -0.16533524 -0.26135653 0.013900745
-0.080934957 -0.219576 0.6395973 -0.96512651 -0.17633939 -0.1934818 0.010918628
-0.049566668 -0.054070767 0.60428715 -0.27302048 0.69591528 -0.66419989 0.071085341
-0.060821936 -0.36540976 0.76253241 -0.78401589 -0.19276914 0.5900501 0.042247124
-0.087945707 -0.2098482 0.66025394 -0.97563863 -0.18726505 -0.11428491 0.0087922812
-0.10688947 -0.059330627 0.68751597 -0.86722755 0.46413967 0.1802516 0.10378321
-0.090644151 -0.21245773 0.68412864 -0.9859342 -0.16699128 0.0069067851 0.012785937
-0.11202831 -0.066804215 0.66347265 -0.90655369 0.42194596 -0.011047969 0.10239208
-0.0089482218 -0.047096655 0.60038149 -0.059954002 0.3913148 -0.91830182 0.036427833
-0.070894748 -0.27613202 0.63580871 -0.95356411 -0.18265435 -0.23948471 0.012655361
-0.073206544 -0.30467263 0.69727319 -0.96822625 -0.19462691 0.15702945 0.014463115
-0.10853034 -0.057703145 0.66603118 -0.82847416 0.55960351 0.021784935 0.10396501
-0.063033834 -0.34509331 0.69730163 -0.94826603 -0.22347221 0.22550328 0.021706067
-0.09093453 -0.1707904 0.70283186 -0.96607304 -0.14089207 0.21645384 0.0098719727
-0.11327158 -0.084369771 0.66312605 -0.97433692 0.2247514 -0.012425157 0.10231996
-0.10030535 -0.055463426 0.64369124 -0.77133036 0.59513289 -0.22553562 0.086592562
-0.11062978 -0.062525675 0.67956096 -0.8798573 0.46245357 0.10948942 0.10597797
-0.10577939 -0.056815151 0.66549891 -0.8034696 0.59519547 0.013377122 0.10517029
-0.017812505 -0.060277469 0.77237231 -0.26320294 0.72379303 0.63784629 0.052558657
-0.10814408 -0.084536321 0.70233089 -0.94096547 0.19122697 0.27931377 0.098576136
-0.10824969 -0.073696241 0.70081699 -0.91623932 0.29422578 0.27191329 0.10099038
-0.1077224 -0.065256909 0.69818366 -0.90798366 0.3225024 0.26750299 0.10190277
-0.083317421 -0.061599243 0.73307413 -0.63307458 0.68608147 0.35848117 0.053651799
-0.076205283 -0.060650695 0.74174273 -0.55148375 0.73574322 0.39312539 0.042954732
-0.095380172 -0.13729246 0.70504016 -0.95414615 -0.14488517 0.26194176 0.0084516788
-0.10686383 -0.11816393 0.67279744 -0.99313539 -0.085825093 0.079475164 0.032134566
-0.10436521 -0.12701893 0.66977996 -0.9889186 -0.13442254 0.063012287 0.011275555
-0.097564653 -0.13179532 0.64248472 -0.98361653 -0.16572601 -0.070946805 0.0060137254
-0.112046 -0.081055678 0.68690437 -0.95031446 0.20319749 0.23582444 0.10376971
-0.07093738 -0.14878796 0.76914787 -0.80721033 -0.073434122 0.58567822 0.018038366
-0.042923536 -0.35615 0.86736995 0.073641151 -0.98126572 0.17802975 0.011590838
-0.088365704 -0.22197504 0.69111431 -0.98582101 -0.16390638 0.035940655 0.014959152
-0.072949357 -0.14776346 0.76420456 -0.82518297 -0.081906646 0.55889553 0.016067458
-0.11019658 -0.074314415 0.69363147 -0.93147099 0.27443135 0.23885001 0.10115302
-0.10804018 -0.093388103 0.69930917 -0.95214462 0.10000589 0.28882405 0.091629036
-0.076865561 -0.26885599 0.70954978 -0.96393061 -0.16271962 0.21061848 0.012657737
-0.061280515 -0.33358246 0.71347225 -0.90666467 -0.19354019 0.37483516 0.02087087
-0.070501752 -0.31647465 0.6802308 -0.9749282 -0.21534491 0.05604922 0.0153357
-0.10828456 -0.060627814 0.65305936 -0.82690459 0.54828799 -0.12493646 0.094079323
-0.10516191 -0.085707836 0.71050817 -0.92798185 0.21207939 0.30638528 0.081250697
-0.091528654 -0.18344642 0.67996943 -0.9842639 -0.17632373 -0.011600071 0.010123629
-0.082523614 -0.060252573 0.72422326 -0.68815947 0.64218128 0.33769768 0.05751399
-0.067203619 -0.26550785 0.61941248 -0.90569443 -0.10463146 -0.41081607 0.019574586
-0.079140812 -0.23339418 0.64197803 -0.96589923 -0.18654385 -0.17955543 0.0095650284
-0.088160083 -0.22340199 0.69047683 -0.98522097 -0.16970542 0.023232628 0.014337238
-0.09973298 -0.064340614 0.71319157 -0.88789934 0.34762263 0.30131918 0.07566534
-0.087605104 -0.22674546 0.6808396 -0.98388898 -0.1757758 -0.032639503 0.012143547
-0.1062796 -0.056513693 0.67965877 -0.79449493 0.60060871 0.089704603 0.096444041
-0.010142496 -0.29854286 0.80075848 -0.55124509 -0.26874295 0.7898773 0.046630137
-0.11102024 -0.097334273 0.6634897 -0.9965632 0.075354278 -0.034401085 0.084538691
-0.067817755 -0.35828668 0.46477589 0.041123215 -0.9988665 -0.023970485 0.00077199418
-0.066423073 -0.089807428 0.78435975 -0.64727151 0.26187438 0.71586412 0.045880999
-0.10688312 -0.071820073 0.70815754 -0.90810937 0.29756781 0.29460263 0.087556228
-0.089263223 -0.20763876 0.69818956 -0.98124605 -0.14143097 0.13097115 0.014748572
-0.090093486 -0.2150843 0.68311477 -0.98641425 -0.1642677 -0.0017213306 0.012853151
-0.058541466 -0.29491335 0.73820442 -0.8617093 -0.16082276 0.48124132 0.010426648
-0.091313347 -0.17433068 0.6970858 -0.97372264 -0.15619545 0.1657322 0.01183709
-0.070139885 -0.057553649 0.71461493 -0.53501695 0.80153084 0.26703021 0.050766818
-0.096050948 -0.15766087 0.68486732 -0.98430443 -0.17447799 0.026500747 0.0060059261
-0.065049395 -0.245121 0.61425155 -0.86931217 -0.053297512 -0.4913815 0.014887847
-0.056152493 -0.35786888 0.48002625 0.041556664 -0.99905938 -0.012388239 0.0015415389
-0.068636551 -0.24431245 0.620525 -0.90350986 -0.079823345 -0.4210678 0.015969077
-0.11020901 -0.10451004 0.66840875 -0.99833757 0.01550428 0.055513788 0.077226371
-0.054306928 -0.34212667 0.59730089 -0.75963193 0.27083662 -0.59127557 0.11521478
-0.10291602 -0.11553999 0.69989628 -0.93254262 -0.061311804 0.35581619 0.040564686
-0.090195701 -0.19146886 0.69359577 -0.98325092 -0.14928772 0.10455076 0.012722882
-0.087580599 -0.20144074 0.7041133 -0.97553301 -0.11650739 0.18644391 0.012953616
0.015356781 -0.043000929 0.6051749 0.16346695 0.47494635 -0.86469907 0.032319356
-0.060047973 -0.26387522 0.74693525 -0.85716349 -0.17590441 0.48407483 0.0038943298
-0.041048851 -0.34731534 0.75077021 -0.77589375 -0.23640311 0.58489537 0.037563749
-0.11264876 -0.073324233 0.67529392 -0.9136281 0.39063966 0.11262523 0.1118515
-0.017277734 -0.20056666 0.80568677 -0.52790225 -0.090679392 0.84445041 0.021473613
-0.021906769 -0.33296642 0.56853527 -0.21125545 0.49383667 -0.84350258 0.1120012
0.042192556 -0.044371851 0.60858482 0.37657326 0.43534264 -0.81772208 0.03421659
-0.08539959 -0.059666943 0.71682274 -0.82502484 0.47334179 0.30867723 0.066463187
-0.076034397 -0.2882708 0.6919347 -0.97785431 -0.19014159 0.087448023 0.013412138
-0.024854843 -0.069955342 0.79614872 -0.32130504 0.41621199 0.85060602 0.04513707
-0.014363796 -0.30972871 0.79178524 -0.54768306 -0.23499981 0.80300575 0.065080099
-0.0655616 -0.22584532 0.75014037 -0.87810838 -0.15731952 0.45185882 0.0057799672
-0.068820372 -0.20520054 0.75243539 -0.88034517 -0.14594077 0.45132437 0.0065299752
-0.10581785 -0.1175405 0.68319595 -0.98094982 -0.061298989 0.18433651 0.043114331
0.0025167025 -0.33508846 0.7876156 -0.35172674 -0.29978976 0.88680011 0.080131911
-0.1034949 -0.078753285 0.71468222 -0.90979916 0.27284127 0.31276682 0.075755715
-0.077325046 -0.060826998 0.74201137 -0.55147362 0.73575842 0.39311111 0.042954475
-0.087874234 -0.2186829 0.66758782 -0.97851211 -0.17948674 -0.10148206 0.0081230663
-0.090609431 -0.20206679 0.68237406 -0.9847573 -0.17383777 -0.0057869651 0.011968708
-0.10011217 -0.087598793 0.71820873 -0.92612594 0.17429726 0.3345314 0.0689632
-0.11028003 -0.35922652 0.8911649 0.036132019 -0.99489695 0.094205022 0.0063435915
-0.090605207 -0.19105326 0.6915049 -0.98445189 -0.15444872 0.08366584 0.012664465
-0.083216079 -0.059066176 0.716178 -0.82007116 0.48152652 0.30921754 0.06625659
-0.1077827 -0.063223347 0.69441003 -0.89427304 0.37991467 0.23651738 0.10056117
-0.087258436 -0.052956186 0.62135381 -0.59413284 0.71579003 -0.36694801 0.067804664
-0.088200107 -0.18569174 0.64340705 -0.97433376 -0.18401559 -0.12966096 0.0095020644
-0.059750468 -0.2027235 0.7691201 -0.8389498 -0.15452214 0.52181041 0.0080695776
-0.041774292 -0.17149062 0.79696625 -0.55482274 -0.080791071 0.82803655 0.018458935
-0.071592867 -0.093441233 0.77523947 -0.70259124 0.22370082 0.6755172 0.041669816
-0.10997721 -0.058077902 0.6677385 -0.83695215 0.54609191 0.035982024 0.10530128
-0.10900024 -0.10034548 0.68759459 -0.96003747 0.046982035 0.27589989 0.086624451
-0.094981737 -0.15918078 0.65412349 -0.97892243 -0.19629742 -0.056375995 0.0066872369
-0.096301258 -0.054519344 0.6435656 -0.77198952 0.59279603 -0.22940187 0.087453306
-0.00068407063 -0.048180416 0.59912765 -0.0043613999 0.37239584 -0.92806375 0.025118841
-0.086505957 -0.052911088 0.62813771 -0.6823622 0.58059639 -0.44417295 0.069682375
-0.078956164 -0.24445863 0.71291566 -0.9587037 -0.14283639 0.24593692 0.011098873
-0.088861868 -0.18612893 0.69928008 -0.97583187 -0.13748513 0.16985317 0.012903948
-0.07511884 -0.29035196 0.70248079 -0.96423346 -0.18944097 0.18538085 0.012392389
-0.06378521 -0.16867566 0.77473813 -0.77094656 -0.089444511 0.63058782 0.020062212
-0.069524586 -0.1882751 0.76028693 -0.86885649 -0.13123597 0.47735271 0.0083254809
-0.072210416 -0.2833977 0.71352881 -0.93691981 -0.16905493 0.3059442 0.0098649804
-0.03437363 -0.17620115 0.8034144 -0.50585252 -0.083873175 0.85853273 0.025662107
-0.050459176 -0.35643902 0.76399773 -0.78557056 -0.20771557 0.58286625 0.047943648
-0.11028147 -0.1003869 0.67938662 -0.98313272 0.043510906 0.17764242 0.086976834
-0.11186261 -0.067324266 0.67887586 -0.90002364 0.41799697 0.12343404 0.10848781
-0.065796174 -0.065768301 0.78165776 -0.52730757 0.57803744 0.62275153 0.046831436
-0.024391115 -0.26627046 0.79203582 -0.7525202 -0.20381819 0.62623602 0.0019941323
-0.10306258 -0.066431507 0.71153229 -0.889099 0.34673434 0.29879475 0.078600273
-0.10051661 -0.068097852 0.72072482 -0.88945818 0.32440242 0.32191199 0.06997481
-0.07658831 -0.25972486 0.71362728 -0.9500491 -0.15571536 0.27047989 0.012430761
-0.019207284 -0.12716277 0.80824482 -0.33395791 0.074305348 0.93965459 0.023476269
-0.026549503 -0.13476989 0.8058672 -0.35991967 0.018026311 0.93280917 0.015433579
-0.029742504 -0.069778137 0.79447562 -0.35091332 0.43456438 0.82946587 0.04920961
-0.066956885 -0.17032826 0.77043557 -0.82971156 -0.084380671 0.55177766 0.016827039
-0.020090755 -0.23642968 0.80762357 -0.67656052 -0.14727779 0.72150892 0.010852334
-0.05901755 -0.28347296 0.74184483 -0.86011779 -0.16035104 0.48423642 0.0058712298
-0.059825778 -0.3255384 0.72048378 -0.89438558 -0.18727373 0.40620551 0.019822856
-0.10625909 -0.080203719 0.70825154 -0.91674984 0.26689172 0.29721797 0.084697485
-0.047760807 -0.31402963 0.74769139 -0.82256782 -0.1978671 0.53313303 0.017554205
-0.10105651 -0.13535887 0.67836499 -0.98691261 -0.14532277 0.069892183 0.006148072
-0.10105711 -0.12882321 0.65038264 -0.98891616 -0.14573564 -0.028386055 0.010496587
-0.094138391 -0.17074822 0.67239803 -0.98095638 -0.18466848 -0.060184669 0.0067460546
-0.1051876 -0.057549711 0.65039438 -0.82078177 0.55673504 -0.12791976 0.093644865
-0.093885913 -0.17204264 0.67121804 -0.98095638 -0.18466848 -0.060184669 0.0067460546
-0.051698927 -0.22833966 0.77154726 -0.82283092 -0.18255261 0.53816706 0.0035717159
0.045640491 -0.043575082 0.61218387 0.38492617 0.44837755 -0.80671519 0.034248192
-0.080110833 -0.24325953 0.71062988 -0.96385503 -0.14715259 0.22210252 0.011976525
-0.0687778 -0.077587321 0.77949393 -0.63896704 0.35453871 0.68265903 0.047674958
0.060299072 -0.36413357 0.85637182 -0.1705595 -0.9827112 -0.07202892 0.0035399385
-0.041754309 -0.15438008 0.79699695 -0.48876163 -0.052505635 0.87083596 0.015476843
-0.068103135 -0.1594971 0.77117145 -0.81629497 -0.088905908 0.57075238 0.017786022
-0.071516864 -0.060922973 0.74694723 -0.53876001 0.72837865 0.42332301 0.040978506
-0.022192782 -0.34430256 0.76820689 -0.63737911 -0.34145296 0.6907661 0.064379677
0.063750774 -0.36406517 0.83666247 -0.16918287 -0.96854788 -0.18246117 0.029451221
-0.073396616 -0.28862649 0.70799547 -0.95483166 -0.17994674 0.2364649 0.011231871
-0.059121411 -0.19624612 0.77187288 -0.81659526 -0.13997144 0.5599823 0.013405557
-0.092784293 -0.064499691 0.73051441 -0.81879854 0.44618642 0.36122933 0.05667603
-0.069913268 -0.092690594 0.77866465 -0.68678433 0.23235317 0.68872291 0.043207869
-0.11035948 -0.06372527 0.65790164 -0.88440484 0.46122622 -0.071403429 0.10195366
-0.10039563 -0.065925412 0.71629804 -0.8883251 0.34035748 0.30827805 0.072616637
-0.058575198 -0.34366253 0.71524823 -0.90362388 -0.18810497 0.38481209 0.025962444
-0.071899056 -0.052729804 0.65781599 -0.41082695 0.91149884 -0.01977735 0.06245828
-0.11126463 -0.061175421 0.67231208 -0.84930879 0.52367282 0.066643506 0.10679387
-0.065238461 -0.35586193 0.44160485 0.032095186 -0.99866378 -0.040504847 0.0013910711
-0.071522444 -0.26116461 0.63116539 -0.94153517 -0.16968961 -0.29106182 0.014428917
-0.071103066 -0.26930782 0.63310474 -0.94500136 -0.17488343 -0.27638412 0.014308097
-0.063151404 -0.24266155 0.74992031 -0.87317014 -0.16696811 0.45792532 0.0046244953
-0.085158348 -0.22385004 0.70668435 -0.97236449 -0.1264205 0.19627835 0.0132437
-0.10744546 -0.35996363 0.89581442 0.036132019 -0.99489695 0.094205022 0.0063435915
-0.0095980894 -0.28900039 0.81071901 -0.64325148 -0.27541816 0.71440345 0.013347993
-0.021251721 -0.35625568 0.53087872 0.070491217 -0.93555087 0.34608614 0.094791107
-0.091630317 -0.16343004 0.64116418 -0.97617781 -0.19568573 -0.093722843 0.0083298646
-0.088096283 -0.22119518 0.67263675 -0.9802599 -0.17828374 -0.085472152 0.0075493571
-0.064462319 -0.26206625 0.61395669 -0.85401082 -0.029675804 -0.51940817 0.014828544
0.0057281256 -0.049793724 0.59776831 0.077092223 0.39322689 -0.9162038 0.030552436
0.057327267 -0.047859777 0.61488879 0.44989008 0.50345868 -0.73765045 0.038648233
-0.085421816 -0.22207673 0.65894008 -0.97614175 -0.18041821 -0.12081574 0.0075705531
-0.039865494 -0.35855326 0.86274582 0.092994556 -0.97256255 0.21324642 0.012670801
0.064244017 -0.05268399 0.61635792 0.5301947 0.36929408 -0.76322699 0.038748614
-0.069160953 -0.31051236 0.65294784 -0.97160119 -0.20273378 -0.12202536 0.0064950441
-0.097365402 -0.054664254 0.63538045 -0.81263894 0.43548632 -0.38725904 0.077868983
-0.10944299 -0.058639634 0.6608637 -0.83760494 0.54464823 -0.042145211 0.098993786
-0.03645036 -0.080262318 0.59440756 -0.27826747 0.25957739 -0.92476302 0.058289152
-0.034178987 -0.19887136 0.79928744 -0.60366744 -0.11147988 0.78940356 0.012213039
-0.085212804 -0.19935209 0.71045583 -0.96521109 -0.11775521 0.23345484 0.010923137
-0.11308174 -0.076469176 0.6706953 -0.93895829 0.33947632 0.055796042 0.11069933
0.09505526 -0.055518039 0.72555429 0.74602383 0.61067396 0.26556665 0.025322273
0.018150577 -0.068190373 0.80136216 0.097343639 0.40609291 0.90863234 0.041045252
-0.041376997 -0.15470068 0.79738641 -0.48876163 -0.052505635 0.87083596 0.015476843
-0.021019252 -0.26112935 0.79821563 -0.74303591 -0.19044469 0.64158273 0.0027695773
-0.044705655 -0.27371216 0.58612448 -0.71103799 0.044258088 -0.7017594 0.026866511
0.034586597 -0.35964411 0.8207466 -0.16910163 -0.96366543 -0.20676948 0.039500691
0.077185139 -0.36521456 0.85748672 -0.12990977 -0.98994207 -0.056018498 0.0023198151
-0.003363299 -0.069605403 0.79704601 -0.12414102 0.38307783 0.91533619 0.04116936
0.21970199 -0.36472419 0.76608026 -0.055965122 -0.99815476 -0.023557635 0.00054952537
0.21005967 -0.36533439 0.77652389 -0.053800542 -0.99807966 -0.030699993 0.00076236762
0.014185211 -0.070208102 0.80222726 0.066953622 0.3802852 0.92244262 0.040742271
0.091482177 -0.34662774 0.76099855 -0.28024724 -0.89141381 -0.35615018 0.076600343
0.22555727 -0.36461291 0.75434536 -0.055010457 -0.99812388 -0.026879108 0.00041599633
0.04045324 -0.067520559 0.79419166 0.1940925 0.57440656 0.79522657 0.044668302
-0.071357027 -0.057415772 0.7138685 -0.56896329 0.7753408 0.2740939 0.054304607
-0.071031787 -0.059973113 0.7363925 -0.49795744 0.79654723 0.34285694 0.042082105
0.21343537 -0.36397636 0.72007108 -0.064274609 -0.99761987 -0.024966413 0.0034090392
-0.077206507 -0.060832161 0.74217808 -0.55147362 0.73575842 0.39311111 0.042954475
0.0412203 -0.068221614 0.7939555 0.19538736 0.57843912 0.79197979 0.044351708
0.069001652 -0.36400288 0.84545213 -0.29996878 -0.94050956 -0.15956339 0.03114477
-0.032374404 -0.062378686 0.77658504 -0.38176119 0.61072755 0.69373643 0.050936162
-0.082625769 -0.060045902 0.72416115 -0.68815947 0.64218128 0.33769768 0.05751399
0.05822888 -0.069455594 0.78741002 0.25703025 0.71113241 0.65438992 0.045394596
-0.073035836 -0.35990897 0.86589319 0.026214287 -0.99288523 0.116154 0.0090912571
0.064479768 -0.081584506 0.78761494 0.44696563 0.42144889 0.78905165 0.039374392
0.07411617 -0.3642523 0.78846633 -0.14025807 -0.96508676 -0.22121318 0.035419699
0.059460651 -0.36409956 0.87695879 -0.13224921 -0.9909007 -0.025016423 0.0027274829
0.058798466 -0.072419345 0.78938818 0.30297667 0.62098056 0.7229026 0.047400653
0.073679015 -0.046425149 0.63091618 0.61169595 0.58260351 -0.53516465 0.052194148
0.072119586 -0.064583503 0.76954275 0.32711473 0.82999068 0.45178697 0.030252701
0.24210335 -0.36608607 0.7628414 -0.050324734 -0.99850768 -0.021209305 0.00037204262
-0.036161579 -0.35763618 0.86481732 0.092994556 -0.97256255 0.21324642 0.012670801
0.20441078 -0.36297378 0.64131761 -0.14608872 -0.98921806 -0.010284876 0.017391149
0.078222826 -0.064936861 0.76475501 0.35507119 0.84106451 0.40808702 0.028466038
0.080327258 -0.063266233 0.75996625 0.3850354 0.84451604 0.37221014 0.024620852
-0.072979681 -0.3590686 0.87062407 0.026214287 -0.99288523 0.116154 0.0090912571
0.080721684 -0.36705732 0.87407559 -0.13220319 -0.99090421 -0.025122197 0.0027235297
0.2682339 -0.3669253 0.74065048 -0.043819278 -0.99871445 -0.025480052 0.0002740029
0.096157081 -0.054519024 0.72157431 0.6900385 0.68171704 0.24312288 0.024553651
-0.10319188 -0.3589223 0.87764657 0.036946807 -0.99308836 0.11140221 0.0064518005
0.066620633 -0.3656846 0.90131503 -0.13092133 -0.99116945 -0.021041842 0.0030213797
0.16652346 -0.3607766 0.63003278 -0.40259483 -0.91318208 0.063371122 0.11868183
0.21234351 -0.36427486 0.75483829 -0.059510756 -0.99781942 -0.02854603 0.00067681039
0.10251676 -0.088019237 0.72902799 0.8990581 0.32336414 0.29517829 0.02696701
0.073601447 -0.07111752 0.77524757 0.4707725 0.58715469 0.65850031 0.036977451
0.24626617 -0.36573082 0.75495219 -0.05019664 -0.99844909 -0.024076959 0.00034693684
0.28598332 -0.36806366 0.72911823 -0.039622482 -0.99895233 -0.02289982 0.00024378789
0.00077478896 -0.34294066 0.78282201 -0.36296839 -0.39179856 0.84542763 0.094634853
-0.0040545673 -0.073963955 0.80017346 -0.11887874 0.34637728 0.9305324 0.037561558
0.091546699 -0.060655575 0.7383036 0.57922137 0.75240898 0.31366119 0.021501949
0.29560146 -0.36852962 0.75847435 -0.033687942 -0.99935883 -0.012127021 0.000375481
0.21478236 -0.36449641 0.73053008 -0.049750768 -0.9985522 -0.020451775 0.00074269006
0.091252379 -0.056933552 0.73518056 0.61983562 0.71880549 0.31483728 0.021306716
0.099356733 -0.36920193 0.8365621 -0.12512319 -0.98098636 -0.14835757 0.01895088
0.077649914 -0.3377513 0.76995289 -0.16432028 -0.94031954 -0.29798993 0.053816389
-0.052533191 -0.058781754 0.71987522 -0.4031198 0.87515038 0.26759326 0.03314589
0.10037567 -0.06258592 0.71423131 0.83847308 0.51958489 0.16430001 0.027531991
-0.012858035 -0.31186104 0.79318136 -0.54132915 -0.24119698 0.80547303 0.066236466
0.26341444 -0.36643511 0.75408542 -0.043724023 -0.99886471 -0.018908165 0.00031688198
0.078384288 -0.079941966 0.77378964 0.56576222 0.43653476 0.69953585 0.036725041
0.055549257 -0.36363655 0.81457114 -0.12910631 -0.96731055 -0.21827018 0.030622927
0.25119027 -0.36549956 0.74372435 -0.050279152 -0.99843061 -0.024665564 0.00035730019
0.097958453 -0.05393409 0.69469625 0.80255157 0.59566623 0.033057313 0.028499907
0.096139267 -0.053495217 0.69758642 0.80685979 0.58905733 0.044595554 0.028116537
-0.085111789 -0.062001642 0.73544312 -0.60162169 0.71515328 0.35581899 0.051773906
0.095460944 -0.050631549 0.6811533 0.85101217 0.51961267 -0.076031953 0.028180232
0.3240104 -0.36848068 0.83196169 0.02277704 -0.99973351 0.003755399 0.00023505373
0.24180111 -0.36247012 0.60041177 -0.047043033 -0.99888998 -0.002398567 0.00043617043
-0.0046886588 -0.31245825 0.79407197 -0.46961266 -0.26528996 0.84207201 0.069324531
0.32308522 -0.36856377 0.85247844 0.03461976 -0.99937606 0.0070079435 0.00014812908
0.16431074 -0.36030486 0.62872851 -0.45733899 -0.88478893 0.08938469 0.13008042
0.052339654 -0.066674568 0.78667009 0.21889408 0.72203362 0.65631759 0.042920001
0.085985005 -0.06564422 0.75508243 0.49828485 0.77067661 0.39720243 0.025805702
0.23916507 -0.3650234 0.72102296 -0.05286549 -0.99826008 -0.026114538 0.00039113712
0.069762155 -0.36553156 0.89736336 -0.1344576 -0.99071461 -0.020142162 0.0028690146
0.071707793 -0.068743698 0.77635735 0.43776599 0.62656987 0.64480329 0.037245173
0.14920737 -0.36219606 0.70295739 -0.14588912 -0.98408341 -0.10147028 0.037754439
0.27729535 -0.36444455 0.58531517 -0.035714369 -0.99930263 -0.010894299 0.00022397854
0.089078121 -0.061991554 0.74550563 0.49781856 0.79849917 0.33849034 0.020684104
0.079222128 -0.072839677 0.7703833 0.41207442 0.76551205 0.4941518 0.034098759
0.26140997 -0.36652148 0.75109094 -0.045783862 -0.99872077 -0.02146001 0.00030634581
0.082775399 -0.045952961 0.64719957 0.70211399 0.60584474 -0.37414992 0.042772327
-0.10561972 -0.058621969 0.66883451 -0.80732065 0.58874446 0.04016659 0.10203259
-0.10109355 -0.058841739 0.6949085 -0.86090237 0.45694631 0.22371235 0.097132608
-0.10976212 -0.058915675 0.66767359 -0.83695215 0.54609191 0.035982024 0.10530128
-0.013625126 -0.29109618 0.80117148 -0.64907867 -0.26609644 0.71266371 0.016607504
0.096842818 -0.070982136 0.73381925 0.73516142 0.60452288 0.30674043 0.023496922
0.28078732 -0.36778054 0.72510761 -0.042067159 -0.99879545 -0.02525699 0.00022489791
0.089339897 -0.056715716 0.73967212 0.56775969 0.76127017 0.31323579 0.021468448
0.098423421 -0.064834438 0.72409111 0.82524151 0.49621516 0.26971641 0.026830459
0.088262521 -0.046534952 0.66179138 0.82536095 0.5186075 -0.22321637 0.029300308
-0.018442672 -0.061052356 0.77003676 -0.27237087 0.72340345 0.63443011 0.052124508
0.063324101 -0.067496084 0.78171229 0.34216261 0.70052123 0.62625468 0.040277354
5.4957589e-05 -0.32544601 0.7889924 -0.3896527 -0.26944032 0.88066608 0.073078386
0.34302554 -0.36755896 0.80024046 0.017046357 -0.99985468 5.3206531e-05 0.0002073372
0.32587713 -0.36850303 0.8150686 0.013445451 -0.99990875 -0.0013274346 0.00033091541
0.30591074 -0.36942786 0.81428027 -0.0050792778 -0.99996763 -0.0062471102 0.00046764541
0.32949066 -0.36854273 0.82734531 0.020496607 -0.99978793 0.0019945295 0.00022755878
0.31249693 -0.36880088 0.83657718 0.024936073 -0.99967843 0.004599371 0.00020301157
0.30607608 -0.36893216 0.84238863 0.0316489 -0.99949586 0.0025122908 0.00015552368
-0.13956349 -0.35823497 0.87945855 0.037240688 -0.99630284 0.07741981 0.017682252
0.30346468 -0.36935228 0.79040146 -0.028822431 -0.99955988 -0.0070115966 0.00042305666
-0.032742634 -0.12792055 0.80263811 -0.37724337 0.061657984 0.92405939 0.022431357
-0.0042077219 -0.31737602 0.79279941 -0.45208797 -0.26117924 0.85287857 0.069814697
0.25945154 -0.36760768 0.70323074 -0.047306828 -0.99850225 -0.027482405 0.00014002249
0.15042713 -0.36630315 0.68562651 -0.27142319 -0.94966835 -0.1563957 0.079522617
0.27548239 -0.36461702 0.60171211 -0.042089224 -0.99909878 -0.0054915734 0.00036526908
0.30679959 -0.36881983 0.75566459 -0.029624201 -0.99946886 -0.013579848 0.00036146672
0.29135928 -0.36766306 0.7197811 -0.040050264 -0.99890816 -0.024050899 0.00021151437
0.32767594 -0.36819321 0.85134745 0.031466525 -0.99948651 0.0060503688 0.00013212312
0.26775104 -0.36724782 0.76094288 -0.040798742 -0.99907303 -0.013733491 0.00035362146
0.2960158 -0.36861345 0.7380141 -0.034240704 -0.99923968 -0.018643459 0.00031357247
0.31463215 -0.36934286 0.76257259 -0.027735794 -0.99954563 -0.011797432 0.00038608929
0.32116398 -0.36898699 0.71868879 -0.024308315 -0.99949604 -0.020415695 0.00018729287
0.3335138 -0.3693431 0.76084536 -0.011398776 -0.99985749 -0.012452153 0.00026599463
0.29601794 -0.36496025 0.60102129 -0.028477514 -0.99954545 -0.0099032354 0.00011352007
0.33788386 -0.3696616 0.76709139 -0.0074360813 -0.99993736 -0.0083769439 0.00027409437
0.292853 -0.36928007 0.77469546 -0.035512075 -0.99933839 -0.007852111 0.00038500145
0.2948778 -0.36539328 0.61748457 -0.028294377 -0.99952531 -0.012188341 6.0607661e-05
0.30652031 -0.36920694 0.79796404 -0.023503719 -0.99969083 -0.0081079565 0.00046395324
0.32557818 -0.36957121 0.72483069 -0.020279737 -0.99962109 -0.018611195 0.00018805801
0.31909499 -0.36689845 0.68542022 -0.024049515 -0.9993583 -0.026546633 7.1998751e-05
-0.019497318 -0.14673525 0.80920899 -0.38774136 0.00058681145 0.92176801 0.016671967
0.23534343 -0.36571771 0.76585585 -0.05224308 -0.99838042 -0.022523494 0.00041389075
0.22971855 -0.36506811 0.76412845 -0.053827297 -0.99823815 -0.024964441 0.00042546386
0.2410353 -0.36539963 0.75430179 -0.052613743 -0.99827451 -0.02607207 0.00037955356
0.066504382 -0.36358282 0.80091512 -0.15480882 -0.96495122 -0.21190394 0.030480895
0.20810637 -0.36441305 0.76885444 -0.055105053 -0.99803197 -0.02992871 0.00077158556
0.031214198 -0.36197844 0.81915402 -0.17260204 -0.96217805 -0.21076494 0.039575644
0.30318058 -0.36936918 0.79839975 -0.025418378 -0.99964213 -0.0083360821 0.00046586641
0.052000307 -0.36412844 0.87628305 -0.13744238 -0.99002707 -0.030918529 0.0028568225
0.00032244195 -0.3390159 0.78376257 -0.36117959 -0.31317154 0.87833524 0.090578005
0.28022498 -0.37012544 0.83868039 0.01564998 -0.99986333 -0.0053331787 0.00037580481
0.26714534 -0.37164369 0.79733104 -0.037689265 -0.99926406 -0.0071292594 0.00038968481
0.34382737 -0.36872762 0.77013063 -0.0032483081 -0.99997735 -0.005904275 0.00020521543
0.20983839 -0.36493921 0.77383816 -0.054915879 -0.99804407 -0.029869204 0.00071269425
0.31254381 -0.36916432 0.81419313 0.0055745286 -0.99997526 -0.0042888769 0.00037291166
0.30408773 -0.36540654 0.61158931 -0.026498124 -0.99957412 -0.012225816 9.1672453e-05
0.29614678 -0.36483866 0.60272872 -0.028483413 -0.99954498 -0.0099233389 0.00010155389
0.27409205 -0.36437899 0.58480936 -0.042339679 -0.99909884 -0.0029718948 0.00043446213
0.20719828 -0.36056057 0.56381774 -0.047621328 -0.99886537 -0.00045468466 0.00071770791
0.30110538 -0.36875772 0.76268756 -0.031819787 -0.99940717 -0.013145451 0.00036842088
0.2072728 -0.36113191 0.586492 -0.047227751 -0.99888015 0.0028161909 0.00055738661
0.076919474 -0.25493211 0.57227099 0.39419597 0.024358559 -0.91870356 0.017329883
0.064396679 -0.35163128 0.56856507 0.3022185 0.10456184 -0.94748664 0.029477941
0.021812972 -0.13821006 0.58188009 -0.0031854445 0.17909463 -0.9838267 0.0091194082
0.084296815 -0.26343238 0.57473737 0.42163908 -0.014991524 -0.90663981 0.01723519
0.012351283 -0.045781344 0.60163945 0.15169504 0.41670445 -0.89629573 0.031573195
-0.0053965705 -0.053373668 0.59642416 -0.030885626 0.37159231 -0.92788208 0.029826775
0.068833701 -0.32361618 0.57601303 0.36889938 0.02112106 -0.92922938 0.02621411
0.0076266536 -0.15111521 0.58002573 -0.086700447 0.14414535 -0.98575109 0.0017167468
-0.0013392986 -0.0550621 0.59540051 -0.0043613999 0.37239584 -0.92806375 0.025118841
0.036206558 -0.32693914 0.56672007 0.17252578 0.12815931 -0.976632 0.029490303
0.02553032 -0.043912604 0.60297418 0.23154329 0.45717013 -0.85871011 0.030663969
0.0044772653 -0.14749397 0.58127695 -0.087411031 0.14304686 -0.98584837 0.0015038785
-0.013130332 -0.057772785 0.59672219 -0.080656409 0.38105053 -0.92102933 0.036155086
0.027855096 -0.1708945 0.57363826 0.042749669 0.162093 -0.98584902 0.011822989
-0.021152899 -0.35333866 0.53564304 0.019403307 -0.87798798 0.47828931 0.11495817
-0.057565533 -0.35633761 0.48081568 0.041556664 -0.99905938 -0.012388239 0.0015415389
-0.015198043 -0.3232201 0.56678998 -0.23545496 0.41693884 -0.87790829 0.10459529
0.010040157 -0.33595875 0.56245214 0.023247352 0.34147653 -0.93960273 0.066062108
-0.077041857 -0.052482016 0.61345196 -0.26694447 0.94380236 -0.19487892 0.045970351
-0.038521443 -0.049001791 0.60398978 -0.25085688 0.59346461 -0.76476836 0.084285296
-0.027648574 -0.046189174 0.60169971 -0.20144098 0.61846757 -0.75955206 0.083184332
-0.033297725 -0.044739287 0.60506338 -0.20137139 0.66616219 -0.71810693 0.078945011
-0.069043703 -0.35568562 0.43872097 0.03209208 -0.9986639 -0.040502861 0.0013675999
-0.080766551 -0.18918645 0.63015431 -0.95967549 -0.18589769 -0.21086743 0.0092879161
-0.06611836 -0.35646224 0.44865921 0.03317935 -0.99868476 -0.039087195 0.0012221313
-0.015311589 -0.049088638 0.60037339 -0.080885753 0.38322747 -0.92010552 0.036045659
-0.058734097 -0.054637384 0.6044727 -0.30059969 0.74701262 -0.59296876 0.063243471
0.0071391729 -0.26671976 0.56664675 -0.12861691 0.1258074 -0.98368192 0.017232999
-0.084539585 -0.052921019 0.61706108 -0.48918402 0.81300843 -0.31577885 0.063250475
-0.055412687 -0.31268921 0.59963334 -0.78245497 0.068532988 -0.61892444 0.066631667
-0.064409666 -0.35423625 0.42642882 0.03381449 -0.99787366 -0.055718839 0.0012841402
0.029020594 -0.36541557 0.54730308 0.20245174 0.37601006 -0.90422875 0.034317266
0.029793043 -0.13382465 0.58219558 0.19020525 0.2452516 -0.95061749 0.02539978
-0.042476553 -0.34948686 0.5575676 0.023158826 -0.81643903 0.57696706 0.14158231
0.065381728 -0.35520527 0.56804299 0.30410063 0.098018378 -0.94758391 0.030530928
0.0077691968 -0.16627577 0.57724667 -0.096324541 0.12824501 -0.98705357 0.0017463702
0.033955984 -0.15742786 0.5772391 0.177725 0.21669725 -0.95992512 0.028387967
0.10481188 -0.16396633 0.62638223 0.75967813 0.20930897 -0.61569393 0.0090233106
-0.064044639 -0.35846984 0.55848134 0.0094283475 -0.90277445 0.43001097 0.11112317
0.041592389 -0.13929731 0.58071995 0.34616807 0.26329789 -0.90046763 0.030945893
0.015604246 -0.092589572 0.58618283 0.069117434 0.26529896 -0.96168566 0.012276067
-0.011826673 -0.099769428 0.58895546 -0.049139675 0.2335522 -0.97110182 0.012612414
0.039060917 -0.042242628 0.60879666 0.35056999 0.47428134 -0.80756301 0.034617636
-0.0064427536 -0.11981989 0.5863961 -0.057987798 0.18902376 -0.98025882 0.0022524318
-0.014303583 -0.083231665 0.59244168 -0.062476821 0.25135088 -0.96587747 0.01484595
-0.013342142 -0.11816958 0.58841896 -0.078325778 0.1858974 -0.97944224 0.0021211195
-0.0096263839 -0.09345156 0.58988899 -0.046932884 0.2399435 -0.9696517 0.013285768
0.005270829 -0.14300059 0.58209878 -0.087380029 0.14304861 -0.98585081 0.0013859468
-0.016984396 -0.33781737 0.56142133 -0.11928844 0.46305186 -0.87826723 0.099618062
-0.03729663 -0.28633344 0.57913929 -0.59461612 0.16471626 -0.78695631 0.043873873
-0.040031496 -0.07085488 0.59752429 -0.2947261 0.44648743 -0.84485823 0.086231992
-0.029990815 -0.09368933 0.59448755 -0.14944902 0.21769559 -0.96450692 0.019039653
0.044464741 -0.051905759 0.60467088 0.38371438 0.41169032 -0.82660413 0.033560153
-0.027234526 -0.11480249 0.59088939 -0.13405102 0.16898023 -0.97646099 0.0041143666
-0.065049887 -0.2761403 0.61368442 -0.86213118 -0.0577734 -0.50338054 0.019896811
0.014452527 -0.13752268 0.5822705 -0.0074118203 0.18005328 -0.98362887 0.0085170399
-0.018688139 -0.23742414 0.57368428 -0.49597099 0.15607338 -0.8541978 0.029277157
-0.028076438 -0.27603665 0.57416755 -0.53094751 0.14711098 -0.83453763 0.037165754
0.051613089 -0.047100052 0.61326718 0.43355864 0.47956175 -0.76292038 0.038287077
-0.038524132 -0.094597936 0.59594363 -0.16774453 0.22018765 -0.96092618 0.023275534
-0.079106458 -0.35489097 0.43174425 0.033794571 -0.99787509 -0.055707105 0.0011994269
-0.11301281 -0.086553909 0.66641289 -0.98213661 0.18816219 0.0016037907 0.1010315
0.032850012 -0.16857815 0.57427752 0.14374685 0.19088022 -0.97103119 0.021577172
0.13425863 -0.35823989 0.58918166 0.53543234 0.52074581 -0.66493309 0.13532168
-0.0062647834 -0.07169538 0.59227395 -0.027790669 0.28773358 -0.95730722 0.018200127
-0.049549643 -0.053185221 0.60435146 -0.27302048 0.69591528 -0.66419989 0.071085341
0.030782539 -0.31566119 0.56642216 0.12260803 0.11844379 -0.98536205 0.027213955
-0.014995883 -0.10860762 0.58936995 -0.078795299 0.20421529 -0.97574967 0.0072946884
0.28951964 -0.36520222 0.57679009 -0.031410418 -0.99947536 -0.007903466 0.00021255518
