# .PCD v0.7 - Point Cloud Data file format
VERSION 0.7
FIELDS x y z
SIZE 4 4 4
TYPE F F F
COUNT 1 1 1
WIDTH 1403
HEIGHT 1
VIEWPOINT 0 0 0 1 0 0 0
POINTS 1403
DATA ascii
-0.1410161 -0.2477551 0.83417732
-0.13703831 -0.39197171 0.7960282
-0.1449704 -0.462136 0.81205451
-0.1325399 -0.3712447 0.78502828
-0.1228342 -0.30101341 0.7617684
-0.138823 -0.47401601 0.79154181
-0.1144012 -0.34377071 0.72630131
-0.1143742 -0.33130631 0.73876667
-0.096528307 -0.19679821 0.71002603
0.1289458 -0.204318 0.70195419
0.0030601739 -0.1996278 0.67112631
0.1064721 -0.1982168 0.79512107
-0.09759564 -0.20110241 0.75414097
0.005945791 -0.48234311 0.88416731
0.1338346 -0.20305569 0.69721848
-0.1206273 -0.203025 0.84593558
-0.01349047 -0.208489 0.87610978
-0.047045689 -0.33372781 0.8671217
-0.120747 -0.43189839 0.8425625
0.0026698729 -0.42929661 0.88567352
-0.036306921 -0.3627238 0.86871618
-0.061635949 -0.2084007 0.8632068
-0.1354519 -0.42358789 0.83559841
-0.066312373 -0.3334308 0.86240381
-0.043913189 -0.44380999 0.86819881
-0.02173928 -0.48814169 0.87212873
-0.01908524 -0.4472785 0.87228382
-0.02894078 -0.29489899 0.87176561
-0.062545717 -0.36495399 0.86080551
-0.04795441 -0.3145161 0.86469668
0.069724962 -0.36757791 0.89707488
0.064595006 -0.4626011 0.89746952
-0.070115671 -0.29995391 0.86147678
-0.04287263 -0.2935591 0.86778867
-0.025752731 -0.33730531 0.87165022
-0.033173978 -0.33597749 0.86853677
-0.037276849 -0.2071131 0.87023908
-0.081849881 -0.20840821 0.85864562
0.066285953 -0.49850959 0.88976061
-0.01650382 -0.44634259 0.87458879
0.01473942 -0.2012126 0.85970718
0.062170289 -0.3920235 0.89606887
-0.1204672 -0.384132 0.84360379
-0.095732257 -0.25391331 0.85227722
-0.050054841 -0.35327879 0.86668402
-0.097498238 -0.3617439 0.85148227
-0.1184335 -0.47826469 0.84155792
-0.09592139 -0.43521759 0.85002702
0.033260521 -0.48996431 0.8874948
-0.1354907 -0.40546799 0.84068662
-0.1205106 -0.2065205 0.84540647
-0.088564031 -0.4802382 0.8495208
-0.1240113 -0.36071309 0.84236377
-0.047975481 -0.4452506 0.86535358
-0.075231872 -0.29184261 0.85637981
-0.017855169 -0.32270819 0.87583369
-0.01126016 -0.2091756 0.87790728
0.067430973 -0.4398995 0.89087522
-0.024342731 -0.29428589 0.87418491
-0.081610426 -0.34811911 0.85601407
0.0065111178 -0.45314509 0.88151711
-0.1201989 -0.4487862 0.84112042
0.005958945 -0.2068572 0.89013392
-0.076892249 -0.2000868 0.79437149
-0.1241719 -0.32874319 0.84427702
0.065516531 -0.4069432 0.89869142
-0.05145349 -0.4844352 0.86334938
-0.038861308 -0.41800219 0.8708573
-0.06167252 -0.209967 0.86309421
0.029895261 -0.42013389 0.8893159
-0.097898223 -0.34033629 0.85008258
0.00079728098 -0.3746728 0.88640487
-0.1045963 -0.35018519 0.84934682
0.047979649 -0.30351889 0.89360207
-0.0001870617 -0.37382549 0.88243991
0.058895051 -0.34961569 0.90203482
-0.048725281 -0.50506562 0.86196709
-0.109971 -0.19695079 0.77437508
0.070103161 -0.2037074 0.69516093
-0.092375547 -0.2069378 0.85295677
-0.018814379 -0.48606569 0.87162727
0.02787642 -0.3514787 0.88842797
-0.052761659 -0.3606658 0.86965227
-0.053589631 -0.1995693 0.83861399
0.055982389 -0.2027286 0.69587809
-0.1036161 -0.2170289 0.84998351
-0.0060446761 -0.27341801 0.87947178
0.022664141 -0.3095178 0.88833249
-0.1159995 -0.23372389 0.84542698
-0.042777341 -0.4334034 0.86686778
-0.019778149 -0.21571299 0.87625009
-0.05498765 -0.49688089 0.86005062
-0.0773516 -0.30353689 0.85621822
0.025552889 -0.36456609 0.88835567
-0.06060024 -0.19634619 0.66507769
0.064752072 -0.33980459 0.89814007
-0.1246156 -0.34098709 0.84289747
0.02932388 -0.4114573 0.88823342
-0.1248727 -0.3853457 0.84405082
-0.061118271 -0.29561111 0.86025041
-0.015931491 -0.20083851 0.73724657
0.0043622931 -0.48556489 0.88121068
-0.0039917431 -0.27328619 0.88219219
0.01303014 -0.20480549 0.88903111
-0.088092357 -0.2254595 0.85429102
-0.02324136 -0.2781249 0.87169433
-0.031152049 -0.34894651 0.87152833
-0.067731909 -0.33267131 0.86176252
-0.0067640622 -0.3109431 0.87977731
-0.0940741 -0.39776331 0.85115188
-0.091753744 -0.35028049 0.85158098
0.066699043 -0.49875781 0.88971603
-0.02570862 -0.36498371 0.87235928
-0.0052917418 -0.2019202 0.86706871
-0.061830461 -0.3057614 0.86204833
0.033634711 -0.2388016 0.89130253
-0.016318681 -0.29371491 0.87608379
-0.041017938 -0.200133 0.65583342
-0.040744901 -0.25884169 0.86730617
0.040219449 -0.2407342 0.89502501
0.043312281 -0.202437 0.79696858
0.067283317 -0.44116721 0.89602637
0.04354215 -0.3230637 0.89002979
-0.094397232 -0.2056119 0.84906018
0.0010738519 -0.34826219 0.88272661
0.044162299 -0.36869991 0.89207733
-0.14110319 -0.5040344 0.8284688
0.058725849 -0.37124479 0.898821
-0.076173849 -0.20346069 0.85763258
-0.087724037 -0.21557391 0.85864508
-0.1162515 -0.2174273 0.84745389
0.0075391401 -0.35566461 0.88429809
-0.091743469 -0.38293651 0.85184711
-0.13873219 -0.50406343 0.83222032
-0.1413776 -0.47072029 0.81480533
0.071991727 -0.2617757 0.89850861
-0.077067181 -0.29186809 0.85376
0.0576149 -0.34422761 0.8970409
0.026871471 -0.30686179 0.88863862
-0.098088764 -0.25413939 0.84985989
-0.02003246 -0.3529059 0.87284797
0.049944442 -0.47331429 0.89242798
0.0426763 -0.28809801 0.89375597
-0.02850965 -0.47513419 0.87041259
0.047718681 -0.34473881 0.89615858
-0.025141761 -0.25623801 0.87158459
-0.03260012 -0.1975608 0.72330099
-0.0862436 -0.2002307 0.82441533
-0.040897731 -0.1997475 0.73187047
0.084088624 -0.2032145 0.70655203
0.051781282 -0.2082397 0.83548492
0.055099919 -0.20523331 0.83221751
0.062259439 -0.20239601 0.83358848
-0.04929623 -0.2002819 0.82179332
0.068290196 -0.36833179 0.89502591
0.068696342 -0.28669801 0.89905351
0.065390721 -0.46610951 0.89364988
-0.098709419 -0.28462401 0.85053712
0.05129366 -0.34028071 0.89167339
0.02901498 -0.2017649 0.75675368
-0.1139258 -0.42550519 0.84425128
-0.1208562 -0.48990789 0.84503961
-0.043593079 -0.27221471 0.86717403
-0.017615771 -0.314096 0.87432379
0.0593265 -0.42196429 0.89148867
-0.0058588479 -0.2346258 0.88002568
-0.0077180578 -0.4126198 0.8780489
-0.03133798 -0.3264001 0.87085158
0.02637027 -0.4958415 0.8881014
0.01230498 -0.44514129 0.8862164
-0.022036569 -0.1972782 0.73002762
-0.0239552 -0.2001482 0.67042798
-0.025191501 -0.2003575 0.6707527
-0.047683779 -0.4845902 0.86465043
0.049823832 -0.20379999 0.73482043
0.064830549 -0.28080019 0.89380211
0.063355938 -0.33821699 0.89422059
-0.03765751 -0.27839851 0.87008047
-0.090845034 -0.4093132 0.85086632
-0.079302274 -0.19851451 0.77091289
0.02610185 -0.26962271 0.89094013
-0.1132869 -0.4665814 0.84351557
-0.036184631 -0.44284159 0.86713928
0.039543759 -0.3349143 0.89166641
0.01422516 -0.46299729 0.88185608
0.03580514 -0.20746151 0.89486682
-0.048864018 -0.34271079 0.86566699
-0.0069126352 -0.3028971 0.87934649
0.05162143 -0.40138209 0.89734268
-0.074030533 -0.3655363 0.8592332
0.02788813 -0.39298931 0.89021277
0.08477933 -0.2038022 0.83459097
0.01122496 -0.2026367 0.78979522
0.025856029 -0.34910369 0.8855471
0.047093701 -0.26538241 0.89324391
0.021032451 -0.25299889 0.88551962
0.044577751 -0.24584129 0.89302582
-0.032653149 -0.46460029 0.86869979
0.04760354 -0.31120569 0.89109129
-0.075064003 -0.45095229 0.85634798
0.01522653 -0.49632281 0.88504988
-0.07140784 -0.41960871 0.85692918
0.042476099 -0.41090319 0.8888799
-0.02647212 -0.45553511 0.87146151
0.021993229 -0.41943339 0.88723201
-0.01524265 -0.20060159 0.79405522
0.073786348 -0.2043335 0.86857063
0.064663559 -0.20050541 0.79967231
-0.1062091 -0.38326061 0.84871382
0.01432876 -0.32152271 0.88889778
-0.1511371 -0.4465507 0.81818002
-0.00073550548 -0.32803369 0.88370073
-0.044713289 -0.45388579 0.86757678
-0.1028714 -0.42455861 0.85125422
-0.068024367 -0.41788581 0.86050808
0.037937049 -0.33936411 0.89197153
0.055228852 -0.3934502 0.89108229
-0.054889001 -0.31460139 0.86602968
0.054888699 -0.47105029 0.89337641
-0.001068775 -0.20169491 0.79083282
0.049149111 -0.36805779 0.89941567
0.0174498 -0.2003402 0.66216332
-0.1454315 -0.47108001 0.8232823
0.079937838 -0.2019438 0.75281882
0.027356081 -0.2814917 0.88828683
0.04295617 -0.25996831 0.89470309
-0.03449554 -0.30470741 0.87023503
0.058011461 -0.50066882 0.89351177
-0.1426001 -0.40127301 0.83465749
0.045148831 -0.4007155 0.89574939
0.027081991 -0.2083841 0.88667309
0.0084413392 -0.2011947 0.70779592
-0.1429823 -0.4345789 0.82710582
-0.14460599 -0.4846445 0.82718712
-0.1403577 -0.27459711 0.83561438
0.070212692 -0.27598351 0.90371019
0.061033901 -0.39264959 0.89453602
0.019967239 -0.489241 0.88737547
-0.03935305 -0.47561941 0.86526471
0.01507712 -0.4779644 0.88309038
0.0257494 -0.47881299 0.88830322
0.041991621 -0.4491238 0.89482141
0.0521884 -0.4794189 0.89274591
-0.077136077 -0.1954184 0.74662209
0.0083018132 -0.2022644 0.71473563
-0.0370836 -0.19830979 0.65439701
-0.04655607 -0.199779 0.81644702
0.1032276 -0.2081697 0.70334542
0.084229507 -0.2047395 0.76297528
-0.1414571 -0.36370531 0.83523452
0.0533638 -0.38390091 0.89336967
0.024724931 -0.44663951 0.88933671
0.03104255 -0.1997465 0.70997483
-0.096482784 -0.1921936 0.85220993
-0.01329934 -0.2015125 0.66764218
-0.096385963 -0.40243721 0.84359509
-0.1467202 -0.27293581 0.83641702
0.063086621 -0.2071116 0.86367339
0.084474348 -0.19674949 0.81346267
0.1039073 -0.20226119 0.78925627
0.1040373 -0.20391171 0.70808363
0.04315852 -0.20576251 0.81225502
-0.1272362 -0.36180729 0.84538251
-0.075943463 -0.50961071 0.86683691
0.070396557 -0.2032136 0.82000858
-0.025740881 -0.43814459 0.87047178
-0.1515713 -0.47854 0.82422429
0.01072089 -0.42116699 0.88725573
-0.075099543 -0.20575701 0.84425581
0.060776379 -0.44971359 0.89925373
-0.001709376 -0.50905061 0.89003789
0.020576211 -0.3739869 0.8874765
-0.1420372 -0.21405271 0.83480859
0.1239478 -0.2037742 0.72409272
0.02065351 -0.2070635 0.78443372
-0.052887421 -0.43770859 0.86635649
0.084749229 -0.202924 0.82729942
-0.0058070328 -0.44690359 0.87227291
0.01948455 -0.47370031 0.88377881
0.044685218 -0.2457549 0.89136481
0.02378271 -0.2045137 0.86435252
0.022718299 -0.40015209 0.88649452
0.01002627 -0.3842738 0.88002682
0.01587647 -0.40347639 0.88216078
0.02156613 -0.51968569 0.88144833
0.21022931 -0.50899768 0.84673309
0.2298395 -0.52118969 0.87022489
-0.053502019 -0.36654601 0.85770041
0.069684543 -0.39052629 0.89889753
0.034262061 -0.42334789 0.88083428
0.075077116 -0.52275127 0.89496541
-0.061505839 -0.49230301 0.88434958
-0.1518282 -0.4969334 0.8253755
0.037494011 -0.28297389 0.89245862
0.23427171 -0.50790638 0.75714612
0.02211375 -0.2023166 0.81769693
0.01298866 -0.3580454 0.88427353
0.049993519 -0.36185351 0.88930708
0.01510548 -0.2059717 0.88157809
0.020285361 -0.3589696 0.88148779
-0.047502741 -0.32581311 0.86440778
-0.1325499 -0.37244591 0.83979172
-0.071942918 -0.4354969 0.85146463
-0.08063107 -0.44651639 0.85576493
-0.039012529 -0.41604561 0.86173838
0.088375367 -0.51397067 0.8670305
0.227687 -0.50814438 0.82530463
0.074927509 -0.398417 0.89814359
0.1655228 -0.50951332 0.7328856
0.1440248 -0.52100039 0.75761467
-0.03326406 -0.4658511 0.8672114
0.038895581 -0.49313149 0.88395709
0.03023104 -0.2116055 0.89398003
0.061858989 -0.29207721 0.89559311
0.056016762 -0.51358801 0.88827819
0.0282136 -0.2901102 0.88684058
0.041671161 -0.27119499 0.89335918
0.043271512 -0.2796115 0.89064789
0.001822549 -0.2042429 0.88370907
-0.04124818 -0.2033435 0.86118329
-0.091681451 -0.1959696 0.71784061
0.1221253 -0.4316622 0.75597328
0.109954 -0.25532341 0.78438979
0.067247383 -0.20521779 0.87619698
0.12504309 -0.40174791 0.75498331
0.1405728 -0.3585892 0.69248372
0.1033551 -0.38563621 0.82654762
0.096701123 -0.37784889 0.83530122
0.092894927 -0.50559181 0.8609308
0.088324837 -0.2047451 0.85914612
0.1017333 -0.21330909 0.81871969
0.13371021 -0.3442964 0.68920481
0.1228852 -0.2063268 0.74917507
0.1039756 -0.41768211 0.81458902
0.081778184 -0.46628979 0.88165683
0.094475269 -0.48800111 0.84037292
0.1045814 -0.44499069 0.81240767
0.087042198 -0.3750712 0.86682081
0.1028257 -0.343945 0.80740261
0.01284816 -0.2034775 0.86473989
0.088170931 -0.48744729 0.8639366
0.1140065 -0.48476419 0.78992462
0.078668892 -0.44174811 0.88791323
0.112532 -0.4526217 0.78885508
0.0870758 -0.31888291 0.86566073
0.088317312 -0.36560461 0.86544192
0.096240193 -0.42872661 0.83526719
0.093228742 -0.2405244 0.84373879
0.1078196 -0.28071341 0.79634869
0.1339922 -0.2873165 0.71577072
0.13561779 -0.31608829 0.691477
0.1044436 -0.24771459 0.8179791
0.1217589 -0.2850771 0.75230241
0.1178838 -0.2309306 0.76298392
0.086614467 -0.2801643 0.86046427
0.1191817 -0.3002952 0.75305969
0.1262151 -0.39755341 0.74009502
0.1214802 -0.29497039 0.75025618
0.080697589 -0.37267661 0.88148981
0.1122102 -0.39647201 0.78564698
0.1120189 -0.4065901 0.78589272
0.099795647 -0.2921809 0.82104069
0.076248057 -0.29256999 0.89900202
0.098810017 -0.4810808 0.83719778
0.1055034 -0.30019611 0.79494768
0.1075533 -0.3696256 0.79703432
0.1174714 -0.23655321 0.76564407
0.1224446 -0.2296714 0.74387097
0.093933567 -0.28283009 0.84264982
0.12879179 -0.32036361 0.72197312
0.081948012 -0.2668443 0.88297713
0.1302902 -0.3643828 0.73011303
0.1334776 -0.44109941 0.71995658
0.1205431 -0.3082253 0.75017643
-0.1043637 -0.1992069 0.80300152
0.023563361 -0.2020988 0.71550739
0.027821209 -0.198173 0.66400528
0.09214814 -0.42233649 0.8459084
0.081378333 -0.36137369 0.88200527
0.1202531 -0.44128489 0.76096958
0.1331594 -0.4734982 0.73317349
0.082127243 -0.3102541 0.88235527
0.1118077 -0.2411999 0.78535181
0.1165332 -0.47057009 0.77826512
0.1273424 -0.44280201 0.72835958
0.1086299 -0.47072339 0.79905373
0.1138365 -0.48170039 0.78487718
0.1217994 -0.37428889 0.75219887
0.1250096 -0.24094871 0.74606651
0.095023617 -0.37120679 0.84146339
0.092203401 -0.2447895 0.84948111
0.080243088 -0.456929 0.88664412
0.1122956 -0.44692051 0.78252971
0.1033564 -0.28594849 0.8090809
0.081083357 -0.2214554 0.88344473
0.083172567 -0.22198419 0.87350881
0.14179841 -0.42369929 0.70503181
0.099690132 -0.43804279 0.83152401
0.1100952 -0.2567772 0.78583992
0.1157289 -0.2216503 0.76630068
0.1196958 -0.42926601 0.7706666
0.13435429 -0.2629973 0.718499
0.084895238 -0.26214561 0.87286472
0.1023266 -0.37138259 0.8143664
0.1148959 -0.25990301 0.77821797
0.074206263 -0.4382205 0.89217198
-0.07392405 -0.2037425 0.83448732
-0.1026887 -0.19999149 0.78581721
0.087170273 -0.20179319 0.77321488
0.1160817 -0.2253017 0.77624482
0.1229875 -0.46620601 0.75679982
0.1038013 -0.41442069 0.81409401
0.1174633 -0.34112599 0.76603442
0.1026877 -0.27695921 0.80651921
0.086714342 -0.45184681 0.86944097
0.1269374 -0.44722319 0.74776173
0.1190062 -0.24161281 0.76300329
0.1126835 -0.42762229 0.78738451
0.079465628 -0.26288801 0.8905189
0.1342129 -0.41325599 0.71484083
0.1180828 -0.38287029 0.76291382
-0.1024838 -0.19949789 0.83709037
0.091184691 -0.2378677 0.85289621
0.1092454 -0.20131861 0.68601447
0.1162764 -0.2012358 0.74777168
0.094879322 -0.33678851 0.83221871
0.103054 -0.3390789 0.80754763
0.1195878 -0.4057737 0.75596058
0.082819149 -0.26444501 0.87879539
0.1026334 -0.2647914 0.80466747
0.13699891 -0.29231879 0.69138002
0.080087014 -0.2192115 0.88948601
0.1110952 -0.2890549 0.78518391
0.081149466 -0.46882269 0.88780707
0.1357812 -0.405967 0.69200212
0.091776423 -0.49434999 0.85611898
0.1205176 -0.4670212 0.7582804
0.1138921 -0.4019618 0.78224969
0.1132723 -0.43287969 0.79768878
0.1163307 -0.2050422 0.77400112
0.1024931 -0.2429273 0.81770438
0.071140848 -0.43345979 0.89260811
0.074081577 -0.2033363 0.85974032
0.1088036 -0.2051447 0.69074249
0.1275852 -0.23317941 0.74415672
0.080924183 -0.3405914 0.88179213
0.1128614 -0.3611097 0.78160411
0.095294639 -0.28952941 0.8394497
0.1328892 -0.41364649 0.73249799
0.1349878 -0.42425421 0.72505021
0.092761584 -0.206277 0.84250081
0.1328899 -0.2886503 0.71648562
0.123707 -0.2563324 0.74981898
0.1197348 -0.3113372 0.76415628
0.088043369 -0.28783929 0.85990912
0.072355933 -0.2051098 0.70959967
0.1384276 -0.2805503 0.69233799
0.07548514 -0.3236872 0.89578342
0.084436163 -0.47932509 0.87870842
0.080197483 -0.44741651 0.87984473
-0.01408941 -0.1990563 0.68563813
0.073953293 -0.202237 0.75989199
0.083388329 -0.20437931 0.67978251
-0.023196051 -0.1991663 0.73570222
0.049416851 -0.2015942 0.78715831
0.1171494 -0.2201032 0.77135181
0.098160952 -0.4462927 0.82931459
0.1225728 -0.30886871 0.76196462
0.1190027 -0.4473972 0.76370049
0.132443 -0.4107753 0.71058738
0.1222786 -0.34980601 0.75124413
0.1039561 -0.48855719 0.81416911
0.1178435 -0.49258941 0.77818722
0.1245325 -0.48494649 0.75633299
0.1193209 -0.46969599 0.76984757
0.056111071 -0.203988 0.73142719
0.067575403 -0.2056803 0.84140432
0.067074567 -0.41896409 0.88284892
0.090032727 -0.21679351 0.85488307
0.1195431 -0.31168029 0.75606781
0.089491613 -0.38608 0.85848749
0.090174913 -0.447707 0.85839999
0.126844 -0.50259417 0.7576834
0.1364484 -0.3723374 0.70847893
0.13773181 -0.432116 0.70748663
0.133083 -0.39732981 0.72033042
0.102263 -0.45101419 0.81997538
0.13305411 -0.44703439 0.72852278
0.1118966 -0.20320851 0.73275763
0.1054646 -0.20213591 0.76207238
0.1345692 -0.2041079 0.71762967
0.090417363 -0.2361856 0.85255557
0.088766307 -0.27344131 0.85324168
0.081020653 -0.32486621 0.88137621
0.063598052 -0.2028725 0.78440827
0.1161146 -0.4399108 0.78023458
0.096826836 -0.29127631 0.81446928
0.1182435 -0.31941879 0.76703602
0.076648816 -0.36629531 0.88910133
0.13006 -0.33610111 0.73005241
-0.078222223 -0.19888531 0.71365267
-0.032685339 -0.1981211 0.67393428
-0.02096137 -0.2047831 0.86342281
0.087142378 -0.2731868 0.86025238
0.072002374 -0.26237839 0.89966798
0.077684179 -0.41617769 0.88654959
0.1125446 -0.47900319 0.79684979
0.049635548 -0.20327321 0.74514872
0.029456031 -0.20488711 0.8293314
0.068178169 -0.49732509 0.89175057
0.091702677 -0.28744271 0.85468972
0.081688806 -0.31750011 0.88568842
0.088459224 -0.4129535 0.85946149
-0.056299031 -0.1965096 0.69331712
0.1058518 -0.2041228 0.80275738
0.1154962 -0.30017731 0.77488661
0.095023647 -0.38212669 0.8320812
0.097863384 -0.3920494 0.82862002
0.097270273 -0.38484749 0.84136039
0.096653163 -0.43997571 0.84101939
0.080023833 -0.3770597 0.88794923
0.1069802 -0.51051438 0.80234182
0.099936932 -0.47836119 0.82983881
0.1151345 -0.39055911 0.78063971
0.13653471 -0.3631385 0.70106459
0.078326114 -0.20230231 0.7893706
0.075094238 -0.36699501 0.8978222
0.042740401 -0.20316491 0.67246562
0.13386691 -0.20312791 0.72626162
0.13716529 -0.47244731 0.73084342
0.1247453 -0.42530909 0.76059967
0.1124069 -0.25138351 0.79492158
0.1450706 -0.4884111 0.69163662
0.1043925 -0.3965593 0.82737023
0.13375901 -0.4998773 0.74649572
0.14427119 -0.46559289 0.70511132
0.1087329 -0.42717829 0.80568087
0.1272814 -0.3573046 0.74720609
0.1177183 -0.42240459 0.77483779
0.143447 -0.41416529 0.69740373
0.1303623 -0.48935729 0.75173491
0.1322279 -0.40118429 0.73697847
0.079536073 -0.2177027 0.87944591
0.08709462 -0.2034453 0.80750692
-0.0008360194 -0.2029742 0.81748021
0.078799963 -0.2112574 0.88984603
0.074331872 -0.31750521 0.89806801
0.086589716 -0.45098919 0.87407982
0.1072277 -0.4015924 0.80901921
0.093523867 -0.2281357 0.84730399
-0.04530463 -0.19785459 0.69342119
0.1029626 -0.2029248 0.76234537
0.120404 -0.2140314 0.77631909
0.092312917 -0.44931099 0.85177362
0.1161733 -0.219798 0.77890211
0.07551159 -0.34295031 0.89816493
0.1066155 -0.43397939 0.81578428
0.1221339 -0.34051281 0.7674672
0.13582259 -0.43099031 0.7188049
0.085916758 -0.4501574 0.90504718
0.1388146 -0.449797 0.72048962
0.1272039 -0.2466654 0.75019008
0.068174578 -0.2771486 0.90018499
0.083299533 -0.2075689 0.88196057
0.1405514 -0.45859411 0.72681743
0.1313616 -0.40690571 0.72647822
0.089427471 -0.46179849 0.86899573
0.087378234 -0.26968989 0.87432408
0.1156145 -0.45603621 0.79631919
0.1169976 -0.48930711 0.79867119
0.1031198 -0.43222979 0.8224867
0.1087905 -0.45245641 0.80660611
0.1198969 -0.4885495 0.78856468
0.1173294 -0.42721149 0.79520082
0.095424227 -0.49174511 0.8514083
0.098395959 -0.36171001 0.84786302
0.096801788 -0.40470609 0.83903188
0.085191742 -0.28973949 0.88868672
0.1189307 -0.43827021 0.79439199
0.1132936 -0.38671029 0.79104078
0.09965609 -0.49023339 0.84479958
0.083861098 -0.2516762 0.88397127
0.085988812 -0.2856591 0.87154198
0.076303467 -0.2260807 0.89567542
-0.092133023 -0.20030729 0.84336329
0.078112207 -0.2185898 0.88016969
-0.026204361 -0.20093299 0.81813669
0.096855164 -0.2489035 0.84055591
-0.61958462 -0.51318568 1.031221
0.096601337 -0.4251186 0.84287781
0.094279103 -0.33872339 0.85964829
-0.032359671 -0.19708189 0.67151642
-0.016050531 -0.1992289 0.65335608
0.089402214 -0.2026094 0.79017597
0.106595 -0.19968881 0.77973717
0.08468964 -0.20195539 0.67890853
0.1416332 -0.26791611 0.69427478
0.01074468 -0.2005419 0.71801478
0.1368247 -0.44607019 0.69178152
0.1152474 -0.32395509 0.78389412
0.1411467 -0.3839955 0.70091307
0.089637376 -0.26836151 0.87117738
0.095572539 -0.2521008 0.8565824
0.04586276 -0.20787039 0.81925792
0.12509321 -0.2505812 0.75597739
0.1225211 -0.34629089 0.76747048
0.13502809 -0.36212 0.71204609
0.074471131 -0.2370103 0.90062332
0.1419794 -0.3989813 0.71163028
-0.058258612 -0.19421241 0.64259911
0.1046385 -0.233952 0.82933629
0.1117805 -0.47800559 0.81828213
0.1012549 -0.26796189 0.82379347
0.1349676 -0.31779829 0.69312412
0.12829 -0.30662811 0.71605933
0.1416191 -0.35249791 0.69903529
0.081986733 -0.2741597 0.88864112
0.14503729 -0.2220242 0.70221567
0.082708247 -0.21460339 0.87205929
0.098862126 -0.235341 0.87159932
0.091556713 -0.27866209 0.86960763
0.1034581 -0.30410421 0.81195098
0.072369248 -0.240899 0.89101517
0.02150155 -0.20343509 0.811216
0.049845681 -0.2088313 0.85060191
0.02272528 -0.3267245 0.64857101
-0.0055130138 -0.2938228 0.64288181
-0.01370908 -0.3781316 0.63839787
-0.070675269 -0.2644262 0.62609172
0.12946761 -0.3781009 0.68454713
0.02926519 -0.20580751 0.65821928
0.1193014 -0.2381795 0.68356472
0.026758529 -0.3037895 0.64798558
-0.075641878 -0.43990701 0.63296199
0.123694 -0.21500979 0.68713278
-0.0026634049 -0.28036481 0.64941221
-0.050309941 -0.3102127 0.63430089
0.035473529 -0.38844469 0.6505034
0.053403459 -0.2170072 0.67387551
0.1186093 -0.2830278 0.68181461
-0.01457622 -0.25639811 0.64670658
0.067282043 -0.25630799 0.66896671
-0.063671961 -0.26696119 0.6254015
0.02412069 -0.20025051 0.677405
-0.053214122 -0.45743221 0.62319827
-0.079199277 -0.4738993 0.61091107
0.04084827 -0.2007291 0.66597128
-0.051028419 -0.47350609 0.63155782
0.1156101 -0.20443439 0.69632471
-0.051114731 -0.28902301 0.63343078
-0.048530001 -0.36925679 0.62849247
0.1151035 -0.2049575 0.72301519
-0.07053639 -0.27125269 0.62660271
-0.1006102 -0.1975639 0.708538
0.02543319 -0.2038001 0.73296642
-0.027289459 -0.2009819 0.72104323
0.072442614 -0.48872769 0.65385991
-0.08033435 -0.4304314 0.62795138
0.04419335 -0.35291839 0.66267627
-0.079013184 -0.35739279 0.6275124
0.063749813 -0.2034312 0.8680644
-0.094200157 -0.19349959 0.72692043
-0.097070418 -0.19720671 0.69588202
-0.075162947 -0.19394889 0.66584313
-0.069699228 -0.24610069 0.62869859
-0.084674276 -0.1959859 0.66664428
-0.01101774 -0.2650522 0.63956392
-0.1100383 -0.2645511 0.72872418
-0.074887842 -0.30730391 0.62098479
-0.071711563 -0.44262689 0.62008113
-0.1049876 -0.1977928 0.72454423
0.13940281 -0.48184291 0.68328482
0.036496978 -0.2017508 0.81862789
-0.1081882 -0.1937595 0.75955129
-0.099217556 -0.27379581 0.69188583
0.02911686 -0.32809031 0.6503396
-0.068807364 -0.31261599 0.62008482
-0.1032988 -0.4213931 0.68507111
-0.1393113 -0.21107019 0.80499971
-0.09777911 -0.34214851 0.69244212
-0.118573 -0.45623139 0.73056161
-0.080880336 -0.4970482 0.61811268
-0.1128544 -0.4854745 0.7189005
-0.070174813 -0.29555881 0.62674451
0.1191375 -0.2034602 0.6997146
-0.1008463 -0.25846741 0.70275652
-0.13981371 -0.25047749 0.83008862
-0.055570219 -0.48118359 0.6231218
-0.075175837 -0.2806865 0.63059461
-0.081986487 -0.3616778 0.6397081
-0.05296937 -0.40334001 0.62644422
-0.08301162 -0.2250243 0.63944769
-0.1409096 -0.34443381 0.80700421
-0.13921089 -0.33093089 0.81820071
-0.104783 -0.33445111 0.69656032
-0.098333947 -0.30234039 0.68083823
-0.1127112 -0.48977181 0.71909738
-0.083152696 -0.26561189 0.63220352
-0.1214181 -0.4076581 0.74734312
0.093040802 -0.34456921 0.66739851
-0.1398361 -0.26568201 0.80106503
-0.1260124 -0.202525 0.79393542
-0.1415569 -0.47850439 0.79463732
-0.13816559 -0.32374141 0.83306092
-0.1025418 -0.2330092 0.70856702
-0.14409859 -0.41385561 0.81176251
-0.04367296 -0.48166871 0.61787683
-0.099600658 -0.3221207 0.67546278
-0.084756643 -0.38389659 0.62904549
-0.1079179 -0.4418264 0.69328213
0.091642827 -0.2519148 0.6694932
0.015848109 -0.3014788 0.64967883
0.01033348 -0.1946239 0.65677619
-0.1092387 -0.228223 0.7297554
-0.070606694 -0.21287429 0.62933439
-0.076478079 -0.25389221 0.63204408
-0.088429607 -0.40788519 0.64223272
-0.1182432 -0.3364422 0.74292028
-0.076664358 -0.28470841 0.6324684
-0.1030586 -0.3651759 0.68848741
-0.094202086 -0.22425731 0.69082129
-0.097371534 -0.36074251 0.66326499
-0.095309243 -0.316293 0.67283511
-0.093225531 -0.20749269 0.68582779
-0.091785222 -0.28299001 0.67174608
-0.1013305 -0.49514821 0.66680759
0.01281762 -0.1991585 0.68586922
0.025867511 -0.2019791 0.71586508
0.1012629 -0.2042266 0.74250871
0.0047979211 -0.3338289 0.638762
-0.1145151 -0.23037159 0.74594837
-0.1082879 -0.2238927 0.72308922
-0.097725064 -0.2487278 0.69309843
-0.133184 -0.43536499 0.76595992
0.0049271611 -0.27015471 0.64457327
-0.08748962 -0.3940886 0.65263909
-0.073342294 -0.2011513 0.62936908
-0.080659397 -0.33646739 0.62172771
-0.082695082 -0.3670454 0.62456739
-0.098458081 -0.33388749 0.6674031
-0.084500901 -0.41788939 0.63024068
-0.088211268 -0.3762705 0.6421212
0.06089747 -0.2000704 0.73951918
-0.1287169 -0.2243775 0.78281599
0.1157406 -0.45942581 0.67670292
-0.0095728906 -0.2060685 0.8661446
-0.1052488 -0.1950236 0.73468357
-0.1153754 -0.25744751 0.74406809
-0.13052119 -0.23711979 0.79015392
-0.090696312 -0.2397289 0.67116243
-0.1433959 -0.3737188 0.81657809
-0.1430556 -0.34114051 0.80792922
-0.1144854 -0.32473469 0.7293793
-0.085190773 -0.27187291 0.64323407
0.042435329 -0.1959206 0.69680488
-0.085615069 -0.28959689 0.64302498
-0.096922167 -0.40780401 0.65905088
-0.088141263 -0.36032441 0.64139491
-0.078693099 -0.32166791 0.62702751
-0.1318616 -0.39619631 0.77809548
-0.097466663 -0.34505931 0.67533559
0.017156839 -0.2249016 0.65389752
0.03467432 -0.3693673 0.65271622
-0.1128067 -0.25739089 0.74780232
-0.108974 -0.2074862 0.72819781
-0.083076827 -0.2002535 0.64771289
-0.141702 -0.38593739 0.80888861
-0.083249018 -0.30382341 0.62743098
-0.1407115 -0.43866071 0.82238638
-0.084050141 -0.31019029 0.63329059
-0.123554 -0.2705802 0.75357991
-0.13037769 -0.47503641 0.77121371
-0.1133792 -0.49458241 0.71895772
-0.01264576 -0.47913381 0.61967468
-0.094943367 -0.20953479 0.69722319
-0.13303921 -0.38585731 0.74652529
-0.1122743 -0.4369894 0.70896018
0.070758119 -0.3774164 0.67298448
-0.14059231 -0.2396926 0.80644232
-0.086185642 -0.31644589 0.64504158
-0.084168762 -0.24831291 0.64545977
-0.088327177 -0.34520221 0.64743263
-0.09979853 -0.46848369 0.67398268
-0.080665372 -0.24526221 0.63929188
0.022815591 -0.3513535 0.64674759
0.01293281 -0.43961889 0.64007932
-0.058788661 -0.25565431 0.63151729
-0.1056332 -0.29791731 0.74536502
-0.1281601 -0.29754579 0.76767588
-0.1002398 -0.33292371 0.68101448
-0.1354802 -0.2130805 0.81047201
-0.1259146 -0.44214439 0.74682778
-0.13497169 -0.26239699 0.8017453
-0.1221062 -0.3451874 0.75486809
-0.1230339 -0.3878136 0.73929328
-0.094557293 -0.2382527 0.67364222
-0.109626 -0.300497 0.71551931
-0.099881902 -0.4236086 0.67825818
-0.09138646 -0.1987704 0.68245518
-0.1177624 -0.26645219 0.73049539
-0.0024051089 -0.47680679 0.62804163
-0.02391658 -0.2048631 0.64303511
-0.050127719 -0.3844994 0.62714642
-0.073557481 -0.1970543 0.74438888
-0.085789889 -0.1958292 0.75591248
-0.1356225 -0.29799619 0.79751343
-0.08448603 -0.2312039 0.6550597
-0.085451387 -0.30832371 0.65781039
-0.1088525 -0.3400408 0.71803659
-0.082387507 -0.34801081 0.63101858
0.14095619 -0.48784241 0.6786139
0.061435722 -0.2029853 0.69478148
-0.0053093992 -0.199398 0.6575262
-0.1270026 -0.20073099 0.84040082
-0.128915 -0.36412391 0.76219809
-0.12963741 -0.47532669 0.77354878
-0.1208234 -0.43249109 0.73242962
-0.1077195 -0.27872041 0.71782893
-0.1001176 -0.37712401 0.66787148
-0.090712897 -0.25455549 0.66066098
-0.080310971 -0.33668891 0.63772023
-0.075838558 -0.3146421 0.62149608
-0.1105511 -0.2435153 0.71375138
0.03819656 -0.204602 0.88044238
-0.098058693 -0.4512144 0.65559918
-0.1013482 -0.2009674 0.71457058
-0.084869377 -0.37871709 0.63424033
-0.1127971 -0.3154552 0.7135694
-0.073838733 -0.4758299 0.61844438
0.0082914149 -0.24565031 0.64945889
0.072000057 -0.20272 0.71197462
-0.04177906 -0.19665959 0.63894087
-0.026815699 -0.1994628 0.68600798
-0.001425335 -0.1994269 0.73531961
0.002180831 -0.203815 0.81854808
-0.1338713 -0.2751523 0.82958102
-0.084042087 -0.19715931 0.6544053
-0.066372253 -0.1926738 0.73817229
-0.1335004 -0.2273728 0.8002966
-0.1209452 -0.41929799 0.73708922
-0.114453 -0.3370707 0.74267411
-0.1147293 -0.39529559 0.71205771
-0.1032091 -0.32595241 0.66929048
-0.1443343 -0.42637461 0.80090457
-0.05351289 -0.32094479 0.62291229
-0.1317963 -0.46418881 0.75598693
-0.14149231 -0.2411537 0.83420968
-0.1416657 -0.4337579 0.83002287
-0.13465039 -0.32596731 0.78860629
-0.094483517 -0.32118291 0.67067063
-0.1277353 -0.2177844 0.79033917
-0.1105054 -0.48599821 0.71001571
-0.1042451 -0.38912439 0.6890626
-0.1343414 -0.3358545 0.79148269
-0.0954495 -0.37110621 0.66315192
0.12582789 -0.3737531 0.67497832
-0.03597058 -0.47887361 0.62479663
-0.032201521 -0.48337981 0.61915499
-0.13064849 -0.41115019 0.75882977
-0.1157719 -0.46215659 0.71662432
-0.1031706 -0.45379561 0.68194908
0.02298506 -0.2010411 0.6506995
0.067583121 -0.2756865 0.67092979
0.1183489 -0.31568369 0.68260843
-0.074541248 -0.19784109 0.83454323
-0.14204159 -0.37168929 0.83404273
-0.13169719 -0.45061919 0.77982497
-0.1349462 -0.30925369 0.8019551
-0.1184146 -0.2853002 0.74024463
-0.096584857 -0.36686161 0.69265538
-0.090193763 -0.3480643 0.66076243
-0.1099408 -0.32666561 0.7117241
-0.098238468 -0.3682107 0.67317098
-0.13705879 -0.25223571 0.79349041
-0.070971772 -0.3991915 0.62262052
0.062711991 -0.28451601 0.66434842
-0.13737489 -0.43825939 0.78960192
-0.1433157 -0.30540231 0.80087447
-0.1162857 -0.34933719 0.73754698
0.1395071 -0.45109871 0.67882931
-0.1228655 -0.2900019 0.76577842
-0.088455029 -0.29452369 0.65319121
-0.091071591 -0.47475591 0.64112538
0.050953861 -0.2011323 0.72828478
-0.050046761 -0.2161635 0.63579661
0.091909572 -0.38270679 0.66638333
0.52369672 -0.52860039 0.8689937
0.062528133 -0.4573442 0.65731603
-0.1120617 -0.19827411 0.82522392
0.0085702082 -0.2023765 0.84046721
-0.1156884 -0.1894065 0.7926811
0.035017751 -0.19865 0.72868657
0.050051659 -0.2005766 0.83875132
-0.048356019 -0.1922117 0.6497311
-0.099143893 -0.19707599 0.78033203
-0.082343154 -0.26194769 0.62924492
0.00061834039 -0.52738571 1.263575
-0.1141443 -0.4020997 0.710926
-0.02560617 -0.5212425 1.2283421
-0.1159867 -0.36397719 0.71927983
-0.076729208 -0.36078951 0.61838013
-0.1119861 -0.34765241 0.71679562
-0.14320689 -0.39708519 0.83034807
-0.14665531 -0.37984851 0.79788017
-0.07463032 -0.47953749 0.597197
-0.1123273 -0.2985549 0.73632097
-0.1370845 -0.2728475 0.83857131
0.01131158 -0.20919061 0.82226342
-0.1150425 -0.344248 0.72841388
-0.01484692 -0.2004007 0.77747113
0.1417141 -0.42026329 0.6858142
0.1191853 -0.49543369 0.67197591
-0.1310963 -0.36695331 0.78012818
-0.1327984 -0.2934463 0.79035962
-0.1082582 -0.36189941 0.71250987
-0.1080826 -0.43455291 0.69899118
-0.1192891 -0.26587981 0.75180137
-0.089551687 -0.3522993 0.65179533
-0.1128934 -0.27515119 0.73980409
-0.1373741 -0.23089179 0.82693893
-0.1340968 -0.4222621 0.77337432
-0.034149501 -0.1950355 0.69150478
-0.1013316 -0.42975509 0.66626668
-0.1000498 -0.36840609 0.69266802
-0.096099682 -0.3635039 0.67166191
-0.083121717 -0.2489637 0.64944887
-0.088847481 -0.2417078 0.67177022
-0.1279012 -0.46943629 0.75693959
-0.09555909 -0.49801511 0.66604632
-0.083002754 -0.29097351 0.6476391
-0.1024897 -0.2588169 0.7033568
-0.1060075 -0.40691081 0.71476072
-0.13987979 -0.4308033 0.80071771
-0.1329314 -0.44908699 0.77771252
-0.1075637 -0.26258901 0.72909307
-0.08293575 -0.34060109 0.63956982
-0.1068298 -0.4084402 0.70725441
-0.1268782 -0.42871121 0.75878137
-0.096768573 -0.26729399 0.69154412
-0.079233438 -0.2266033 0.64228028
-0.08274208 -0.4349843 0.63410658
-0.1121523 -0.40224981 0.72118533
-0.1166462 -0.3626146 0.72770113
-0.117482 -0.35467929 0.73512012
-0.1231372 -0.42075929 0.73807049
-0.1033797 -0.42916399 0.6822409
-0.093765073 -0.2078442 0.68680638
-0.093563057 -0.209528 0.68482208
-0.090290107 -0.28169829 0.67094779
-0.091860123 -0.3288911 0.67537498
-0.101406 -0.33597589 0.6974957
-0.081986777 -0.21127249 0.64971602
-0.1253238 -0.37103191 0.76557189
-0.1400167 -0.48492101 0.7992292
-0.1311412 -0.3653498 0.78087223
-0.13324 -0.47445881 0.77639341
-0.093993291 -0.37015519 0.66419888
-0.0857841 -0.35484761 0.65254772
-0.1224933 -0.41772199 0.73781759
-0.1350006 -0.32474619 0.79047751
-0.096353047 -0.35021371 0.68110842
-0.1096611 -0.34970981 0.71692902
0.058143441 -0.2040842 0.74942201
0.051007099 -0.1993836 0.70677662
-0.1104215 -0.29392901 0.72395599
-0.14524619 -0.47156349 0.8243705
-0.1033722 -0.33900911 0.6930477
-0.1114771 -0.38367289 0.71783072
0.080864541 -0.202573 0.72065449
-0.084184922 -0.1961104 0.66689622
0.05319481 -0.20064449 0.67506093
-0.01350786 -0.19908559 0.6875267
-0.082989722 -0.1976897 0.65433371
-0.076981097 -0.19188979 0.69089597
-0.1031719 -0.1956798 0.72538441
0.03819035 -0.1999037 0.72890419
-0.080462188 -0.1929051 0.69075662
0.0055447328 -0.1952334 0.75739801
-0.099999271 -0.35011709 0.6857993
-0.1103052 -0.4181692 0.70018142
-0.096530207 -0.4226796 0.67355537
-0.1018034 -0.4130435 0.69258189
-0.065231919 -0.193882 0.6796068
-0.074111462 -0.25037149 0.62856168
0.023103319 -0.19987489 0.84450388
-0.054909121 -0.1995865 0.81822127
-0.04026616 -0.19773529 0.72523129
-0.090050213 -0.1950818 0.76293302
-0.054762281 -0.19899631 0.80574822
-0.1189837 -0.19505049 0.79869747
-0.1159302 -0.194332 0.7867021
-0.08140444 -0.1998089 0.83953643
-0.071904637 -0.1995365 0.83104157
0.049519561 -0.1984593 0.78942811
0.0151379 -0.2020869 0.82643932
-0.1052123 -0.1938474 0.75426298
-0.0825601 -0.1976089 0.79613161
-0.1485334 -0.4626922 0.82279772
-0.14448249 -0.3940337 0.82940739
-0.1446598 -0.43140599 0.82794333
-0.1378371 -0.26761249 0.80679429
-0.1112951 -0.2952587 0.72524822
-0.1232411 -0.19529679 0.81198871
-0.1101754 -0.31217751 0.7273013
0.079502389 -0.2040026 0.70661682
-0.038109832 -0.1952883 0.68514383
-0.05561116 -0.19723649 0.64764142
0.1078511 -0.2011998 0.73296022
0.020156199 -0.1990667 0.73845297
-0.021019129 -0.2011718 0.68250811
-0.087249734 -0.1983441 0.82571721
0.019379031 -0.1979309 0.77059299
0.036392741 -0.20153961 0.77789932
-0.14373749 -0.26862749 0.83344549
-0.1179705 -0.33619729 0.74356133
-0.084172063 -0.39044711 0.65361911
-0.1082261 -0.2307792 0.72331989
-0.04310257 -0.1988174 0.82264531
-0.087922104 -0.19744579 0.68829179
0.02541789 -0.2084454 0.78191441
-0.1034647 -0.3778452 0.69692773
-0.1143938 -0.28665009 0.73304331
-0.1094628 -0.4171972 0.70308799
-0.1441451 -0.42777351 0.83719069
-0.1128377 -0.33212659 0.74093813
-0.069333836 -0.2007037 0.7812382
-0.040813342 -0.194033 0.6823144
0.06223223 -0.2046641 0.74965793
-0.056054618 -0.1986165 0.65650141
0.0311912 -0.1977483 0.74080652
-0.095681287 -0.3721987 0.67333013
-0.1089884 -0.29831591 0.71887702
0.01053662 -0.1996832 0.76432568
-0.078235209 -0.19768789 0.75433218
-0.1107778 -0.1997316 0.81160188
-0.090808392 -0.1997754 0.77105892
-0.04476523 -0.20033699 0.80552548
-0.068139233 -0.19571289 0.76904422
-0.14322691 -0.20531289 0.83853459
-0.133506 -0.44381139 0.76656687
0.067890331 -0.2067512 0.69798458
0.055051848 -0.2038807 0.83418208
-0.1033292 -0.46629879 0.67515451
0.020312989 -0.1977495 0.68867701
-0.079318427 -0.1974778 0.64368898
0.059509769 -0.20037299 0.76236087
-0.1100816 -0.194493 0.76966482
-0.1194035 -0.38694119 0.74009061
-0.14150441 -0.43307069 0.79543042
-0.086661004 -0.33447361 0.65333998
-0.0042984942 -0.19954111 0.65818143
-0.025510261 -0.1950486 0.64703763
-0.070916273 -0.1962339 0.65971571
-0.029837631 -0.2002276 0.69731742
-0.023763061 -0.1964875 0.64865011
-0.070129208 -0.1960571 0.63053668
-0.083589248 -0.28653631 0.64805752
-0.091965757 -0.40761089 0.65824509
0.083759651 -0.2075377 0.76471198
-0.075889342 -0.1956124 0.73571712
-0.086255863 -0.19802921 0.82844162
0.083326593 -0.1990819 0.75805241
-0.054443311 -0.20736779 0.81998187
0.058563489 -0.2021722 0.84179562
-0.069645129 -0.20344961 0.82880992
-0.1089545 -0.30885199 0.7218433
-0.06790258 -0.1928612 0.68840033
-0.1227022 -0.4989506 0.69559163
-0.057807568 -0.1988759 0.67470288
-0.01329265 -0.2017889 0.65782517
-0.079853207 -0.19510479 0.66488731
0.079791009 -0.20718379 0.71855551
-0.1324444 -0.39746681 0.78041458
-0.1032216 -0.4972471 0.68966502
-0.06361603 -0.2014908 0.85634381
-0.070632897 -0.1975361 0.77664852
0.078323439 -0.2016301 0.78777468
-0.09093371 -0.50034058 0.63370168
-0.093609624 -0.50115228 0.63086033
-0.1017844 -0.50227129 0.657233
-0.1051335 -0.50341392 0.67778111
-0.086848773 -0.50043118 0.62523669
-0.1023543 -0.49938121 0.66842431
-0.1193601 -0.4124966 0.74313962
-0.094462261 -0.49975431 0.64387327
0.0091692209 -0.19791821 0.68443358
0.012548 -0.2023216 0.70002961
-0.041417692 -0.1979005 0.69217592
0.042021599 -0.1947985 0.67205858
-0.037232179 -0.1955387 0.69185001
0.0082447231 -0.20491789 0.71105838
-0.098482497 -0.43809241 0.66194361
-0.1195133 -0.191093 0.79836309
-0.073042527 -0.1960576 0.79080492
0.063754737 -0.20156281 0.78792149
0.04162303 -0.2029438 0.80514592
-0.112837 -0.4853763 0.71786761
-0.1246071 -0.29823679 0.76919478
0.00037602239 -0.2101687 0.70043957
-0.061909031 -0.1988806 0.66680628
-0.099014834 -0.19419961 0.76479369
-0.03053784 -0.20175719 0.84652752
-0.1004612 -0.40250859 0.68650562
-0.070854343 -0.2039364 0.78249669
-0.067216843 -0.1990259 0.7459892
0.0228977 -0.1970513 0.66465533
-0.0241652 -0.2042688 0.81494659
-0.083125427 -0.1957352 0.68692738
-0.1402203 -0.48968211 0.66325039
-0.08703623 -0.1938895 0.74342829
-0.04539568 -0.1938491 0.82318783
-0.075605869 -0.1949802 0.79846889
-0.1157966 -0.19125719 0.78424883
0.02404891 -0.1982597 0.76933199
0.01907102 -0.20203599 0.78509277
-0.13141841 -0.39135751 0.76851618
0.027032919 -0.2040924 0.78008431
-0.15476041 -0.50256813 0.82420069
0.01363954 -0.1991455 0.71471143
-0.001807605 -0.1948936 0.66311717
-0.1459671 -0.4406054 0.81814992
-0.05022819 -0.1944859 0.6672821
0.057739619 -0.202767 0.75873703
0.1189164 -0.20402341 0.73037922
-0.12544119 -0.37092939 0.76417643
-0.076524436 -0.19724999 0.74440598
-0.23602159 -0.49228659 0.60357112
-0.1448096 -0.49188071 0.56372148
-0.26994091 -0.49534199 0.61620063
-0.080887534 -0.2037366 0.79411101
-0.2045034 -0.4863607 0.6209268
-0.25007921 -0.48730159 0.64611441
0.051190872 -0.202691 0.810624
0.039230909 -0.19624069 0.72810102
-0.095779918 -0.2434492 0.69430798
0.069537103 -0.2067876 0.80445337
0.088388763 -0.1993489 0.74338639
-0.1008259 -0.1984624 0.72235388
-0.067914017 -0.1951746 0.77210569
-0.2625871 -0.49420649 0.61835623
0.01947044 -0.2057578 0.77287918
-0.054476339 -0.1970413 0.63482583
-0.0093133347 -0.1935461 0.64916551
0.046660472 -0.2051836 0.81112981
-0.079976603 -0.42796791 0.62633842
-0.1820261 -0.49455911 0.76181501
-0.26187199 -0.4930867 0.67447102
-0.28332689 -0.4878262 0.68143892
-0.15095741 -0.40861049 0.83396918
-0.2354729 -0.4923977 0.67340118
-0.2452116 -0.4874897 0.54862171
-0.1922975 -0.49556109 0.67893338
0.050623968 -0.1993438 0.86100692
-0.28766981 -0.4952994 0.68475741
-0.28622359 -0.49461699 0.7122224
-0.26484999 -0.4957895 0.69308412
-0.00076136272 -0.19999249 0.87679118
0.0088964049 -0.1985554 0.70930189
-0.043378569 -0.200095 0.80623162
-0.086334728 -0.19278529 0.67287332
-0.089714877 -0.1943469 0.68864763
-0.2227343 -0.49675459 0.8293097
0.0098167537 -0.1988913 0.70908278
-0.2384872 -0.49523759 0.84239841
-0.1550599 -0.49864459 0.86658913
-0.056848928 -0.19797181 0.6453566
-0.075064793 -0.2015892 0.68485087
-0.034977339 -0.1987412 0.68368107
-0.02264984 -0.19528981 0.67637181
-0.039141539 -0.1946421 0.72695071
-0.03324889 -0.203041 0.73159832
-0.083256833 -0.19996101 0.82921451
-0.1101781 -0.1955885 0.81164551
-0.033884268 -0.199182 0.73403239
-0.02143741 -0.1973708 0.68155831
-0.035817891 -0.1983802 0.77720648
-0.033993609 -0.1996337 0.7709232
0.005487565 -0.2008529 0.69123697
-0.030223651 -0.1960222 0.76160949
-0.03671962 -0.19731811 0.72481638
-0.01229996 -0.1998359 0.72884709
0.03495292 -0.2017772 0.7780903
0.02485016 -0.2046089 0.81863022
0.02918371 -0.19665571 0.7188251
0.046241529 -0.2073268 0.88125628
0.01181717 -0.2059786 0.82143402
-0.054098051 -0.19887429 0.81932777
0.01560003 -0.19554231 0.74507117
0.0272546 -0.2068731 0.85262078
-0.061705589 -0.2024921 0.856453
0.087999642 -0.2046629 0.76016778
0.065071411 -0.2047369 0.84012651
0.037628248 -0.1996762 0.74464297
0.077650733 -0.2041211 0.79821408
0.04706873 -0.2003285 0.72529888
0.053107139 -0.2041429 0.83662081
0.0088721011 -0.20592789 0.85628557
0.06084213 -0.2042148 0.74863648
0.0020005209 -0.2049157 0.86063993
0.01965048 -0.2035014 0.77984452
0.05353833 -0.2033757 0.80959398
0.076291934 -0.2032796 0.76056802
0.022262249 -0.1988793 0.7397126
0.026416531 -0.2014273 0.72207612
0.01207693 -0.20091461 0.75889528
0.089083262 -0.1995782 0.76089001
0.043193351 -0.19818071 0.72668833
0.038323849 -0.2007674 0.74186498
0.078133367 -0.20298059 0.76003921
0.037786379 -0.2021787 0.77662909
0.081998207 -0.1992629 0.7129792
0.02240395 -0.20452841 0.7360363
0.018884441 -0.19733261 0.71361917
-0.03583914 -0.20355409 0.77611232
-0.01432534 -0.20073991 0.72957373
-0.025086369 -0.1988012 0.73028457
-0.024563421 -0.1993262 0.67606461
-0.034299649 -0.19506361 0.76913601
-0.046294048 -0.19840971 0.78596371
-0.038105641 -0.20018201 0.72181487
-0.0042200829 -0.2059762 0.69352758
-0.028373361 -0.1939135 0.77037728
-0.055000581 -0.1979062 0.64524359
-0.03140917 -0.19887979 0.69458479
-0.040707979 -0.2053365 0.72358888
-0.038841859 -0.1971782 0.68368512
-0.084113233 -0.20163789 0.83828092
-0.070090622 -0.201313 0.78017431
-0.074491017 -0.1953357 0.79005313
-0.043778401 -0.2000052 0.8240577
-0.066627681 -0.1973092 0.77167279
-0.060422849 -0.1939683 0.66618419
-0.048482601 -0.197016 0.64128369
-0.068317696 -0.19407061 0.73814368
-0.071069241 -0.1940721 0.68539858
-0.074609868 -0.1990214 0.73854178
-0.093078747 -0.1983649 0.76473862
-0.087773278 -0.19533589 0.7091561
-0.073317327 -0.19069409 0.68806559
-0.1173756 -0.19566751 0.79887372
-0.1074784 -0.1969485 0.77049822
-0.1208068 -0.198171 0.81269038
0.04687611 -0.1985881 0.67345768
-0.094560429 -0.1988412 0.76320457
-0.056073971 -0.19635481 0.76070398
-0.1028895 -0.19871759 0.72491789
-0.13786189 -0.19967709 0.82520151
-0.110922 -0.40684131 0.70993441
-0.1031876 -0.1942661 0.73429137
-0.097209953 -0.195884 0.73599643
-0.1136366 -0.39560881 0.71749949
-0.1012775 -0.1940158 0.71240312
-0.1405277 -0.205679 0.83884567
-0.1101995 -0.29351121 0.72355568
-0.14382321 -0.33069041 0.83068371
-0.1183533 -0.33668101 0.74145389
-0.1038643 -0.20308951 0.70937443
-0.090561762 -0.38802901 0.65243608
-0.098584048 -0.35659331 0.68326968
-0.1228561 -0.41703051 0.73638511
-0.1368297 -0.4691993 0.77543628
-0.1153015 -0.39954841 0.72044897
-0.1120085 -0.3033821 0.73394299
-0.093203083 -0.32202381 0.67422569
-0.087568 -0.28845671 0.6475172
-0.081001043 -0.28201291 0.63694602
-0.1458146 -0.39502329 0.83140391
-0.024092739 -0.1965989 0.64689749
-0.1284557 -0.28969261 0.77682781
-0.1430155 -0.48060361 0.80026788
-0.1129565 -0.33656821 0.72642308
-0.093436748 -0.48026571 0.63929862
-0.1026319 -0.26250201 0.70075083
-0.1485305 -0.36020869 0.83313662
-0.1093113 -0.2179005 0.74348563
-0.1166516 -0.27290839 0.75635791
-0.1086841 -0.4339011 0.69536817
-0.1041549 -0.36321351 0.69209081
-0.1418775 -0.4276168 0.80179453
-0.1374703 -0.26795071 0.80781662
-0.1309202 -0.23599809 0.79049867
0.077968471 -0.2023633 0.70367831
-0.097730562 -0.350279 0.67976409
0.092405193 -0.2021572 0.69809508
-0.1110642 -0.3497135 0.71733558
-0.1389617 -0.38171461 0.80357838
-0.13495719 -0.2283095 0.79945302
-0.13125201 -0.43481991 0.76511449
-0.1269224 -0.36957791 0.76737809
-0.1131012 -0.43433851 0.70999342
-0.1159188 -0.48344901 0.71926558
-0.1111558 -0.30662739 0.72191
-0.13772281 -0.26959279 0.81160361
0.01124827 -0.19963869 0.69140577
-0.01883238 -0.1977777 0.68476957
-0.1017234 -0.49054331 0.66887438
-0.085155703 -0.4265984 0.63334203
-0.084868997 -0.35539639 0.63641959
-0.1031105 -0.41301221 0.68395591
-0.1125178 -0.46532649 0.70282811
-0.096734941 -0.3787137 0.6702311
-0.1227113 -0.45165929 0.73309362
-0.1013073 -0.3740899 0.68200588
-0.085819423 -0.49058121 0.62402511
-0.1128864 -0.32468441 0.71436721
-0.1422049 -0.34592071 0.81327337
-0.13765199 -0.38754481 0.80999488
-0.1069061 -0.45746499 0.67638332
-0.0113429 -0.18648981 0.67869532
0.13021231 -0.2004348 0.70174491
-0.1434921 -0.2044124 0.83117211
-0.1067453 -0.38297859 0.68966901
-0.1039429 -0.29353639 0.70746118
-0.1149894 -0.27323049 0.73759079
-0.048073001 -0.2005685 0.68711752
-0.083134748 -0.32622951 0.63714921
-0.107177 -0.4213894 0.68955028
0.020601571 -0.20209339 0.77929598
-0.086507604 -0.1983604 0.82900912
-0.065020964 -0.196289 0.79884487
-0.0530749 -0.202933 0.80140728
-0.081875451 -0.2002812 0.79246497
-0.1161284 -0.1936429 0.78522038
-0.1145674 -0.1964886 0.84453231
-0.1260087 -0.29315919 0.77533948
-0.1169811 -0.25295159 0.74522072
-0.1140438 -0.35297561 0.72800517
-0.092013843 -0.188012 0.72590619
-0.091947056 -0.25146839 0.66067737
-0.054269612 -0.1994835 0.6526069
-0.1182732 -0.25648129 0.74838489
-0.1346387 -0.4713015 0.77188468
0.01868896 -0.1950708 0.76841497
0.05709086 -0.2004766 0.76429838
-0.082495123 -0.2236959 0.64271992
-0.095804423 -0.27858731 0.6726256
-0.087265879 -0.20708279 0.650006
-0.1086701 -0.42192379 0.6822387
0.0087226275 -0.1981456 0.76329678
-0.081509218 -0.19326159 0.74405092
0.075059272 -0.201223 0.79590911
0.119447 -0.20779841 0.7410177
0.1218324 -0.2047936 0.7116527
-0.1106362 -0.1986336 0.81069499
-0.092864968 -0.19965979 0.84139258
-0.06123526 -0.1998626 0.81977898
-0.069542482 -0.1997153 0.826388
-0.0598826 -0.2009674 0.85366631
-0.063231029 -0.2005972 0.86187351
-0.052013289 -0.2043069 0.84098262
-0.1456141 -0.2228386 0.83271992
-0.14548171 -0.26669371 0.82954502
-0.1236182 -0.21073879 0.79076552
0.069452398 -0.20392831 0.78518039
0.049766701 -0.1978015 0.72290939
0.057448968 -0.20337979 0.74822623
0.038820531 -0.20003819 0.75204313
-0.025443859 -0.1997169 0.80565381
-0.14529251 -0.33362469 0.83248502
0.079380229 -0.19952521 0.78333408
-0.05627555 -0.1850215 0.67104918
-0.081018656 -0.2461919 0.63410449
-0.1094378 -0.43175229 0.68983412
-0.092221923 -0.49208561 0.64369971
0.05451192 -0.2011568 0.67318839
0.020812521 -0.20994259 0.82093918
-0.1232296 -0.3949731 0.74931389
-0.067076832 -0.19649529 0.66787797
-0.1105021 -0.2129982 0.73661947
-0.1149444 -0.2005696 0.7525323
-0.1147181 -0.2255953 0.74588048
-0.1206769 -0.1938196 0.7597003
-0.1010706 -0.2474508 0.69670898
-0.1044641 -0.2332647 0.70660597
-0.081834421 -0.2025132 0.75248152
0.1188122 -0.20083261 0.73492211
-0.1105574 -0.1944389 0.7423898
-0.03198697 -0.20174611 0.73950952
-0.1035193 -0.2094494 0.70671457
-0.070152767 -0.18202969 0.63659221
-0.092276134 -0.23837741 0.67144632
0.086091831 -0.20081981 0.79983699
-0.086434081 -0.1952301 0.66102648
-0.081565902 -0.2820133 0.64020032
-0.098375849 -0.3229408 0.68344921
0.061645731 -0.20193151 0.79350817
-0.01061601 -0.19509681 0.65934879
0.05264727 -0.2033347 0.83471382
0.049589109 -0.19258989 0.84093648
0.01220318 -0.2096801 0.8538866
-0.066955872 -0.1998698 0.82093269
-0.001179536 -0.202263 0.81528431
-0.02050087 -0.1941143 0.81728721
-0.02818138 -0.19094419 0.7231465
0.070031852 -0.1984044 0.75169969
-0.05566141 -0.1971038 0.77545828
0.046640221 -0.2021725 0.82881361
-0.1443007 -0.35534179 0.82194197
-0.1042769 -0.2332245 0.70383233
0.01275392 -0.1911809 0.70062762
0.02167777 -0.1962484 0.68785131
-0.1078473 -0.20400441 0.72062439
-0.097375289 -0.1992574 0.70003039
