# .PCD v0.7 - Point Cloud Data file format
VERSION 0.7
FIELDS x y z normal_x normal_y normal_z curvature
SIZE 4 4 4 4 4 4 4
TYPE F F F F F F F
COUNT 1 1 1 1 1 1 1
WIDTH 586
HEIGHT 1
VIEWPOINT 0 0 0 1 0 0 0
POINTS 586
DATA ascii
0.011076425 -0.17650358 1.0430955 0.12565617 0.97649318 0.17513281 0.090690568
-0.3716388 -0.42594793 1.0129372 -0.92544287 0.18443915 0.33096477 0.045774177
-0.26118737 -0.32938877 0.69572818 -0.8064068 0.58615583 0.078289926 0.075722165
-0.32235089 -0.19792028 0.92803788 -0.91075277 0.40218854 -0.09366779 0.10469248
-0.2558344 -0.33497196 0.72553557 -0.58058113 0.79764646 0.1633576 0.050963216
-0.12070325 -0.17548504 0.91210335 0.0027571525 0.99971855 -0.02356373 0.00047504148
-0.273287 -0.33560395 0.8928293 -0.34330648 0.89070904 -0.2979562 0.03679369
-0.35186404 -0.32281741 0.99817979 -0.94845414 0.28238839 -0.14384541 0.055485986
-0.30080384 -0.34193528 0.82444853 -0.29927632 0.95329356 -0.040805511 0.031823542
-0.27881777 -0.34319779 0.74326801 -0.53894073 0.84036034 0.05777058 0.048750926
-0.3711836 -0.41549945 1.0007613 -0.95370632 0.17932856 0.24142398 0.039278571
-0.13455884 -0.17380607 0.81434554 0.0082063824 0.99966812 0.024419982 0.0012859761
-0.34738064 -0.42263508 0.87265635 -0.96919179 0.12113973 -0.21445836 0.00088702334
-0.24213733 -0.33664614 0.77644163 -0.42971075 0.88669682 0.1706384 0.053324446
-0.32681039 -0.50073749 0.76071841 -0.8562218 -0.50162083 -0.12353481 0.060182706
-0.32129541 -0.20188035 0.90958667 -0.8416236 0.53454179 -0.077038422 0.062022537
-0.35968968 -0.46463907 0.90598291 -0.96133292 -0.18203695 -0.20664378 0.040302884
-0.33298841 -0.46827108 0.77513403 -0.95053554 -0.24777386 -0.18732405 0.044601142
-0.33605736 -0.47321531 0.79585075 -0.93032002 -0.33205411 -0.15570712 0.050139468
-0.31085798 -0.18388642 0.99117738 -0.60939127 0.74585122 0.26897618 0.099091075
-0.30547938 -0.35542506 0.69949591 -0.83990234 0.53801703 -0.071426213 0.052802801
-0.28886583 -0.18360041 0.72719824 -0.54930788 0.80978942 -0.20616022 0.085737437
-0.25684085 -0.33384582 0.71410084 -0.61943978 0.76940322 0.15592651 0.052105345
-0.23794864 -0.17361765 0.93441504 -0.031011762 0.99951684 0.0020937112 0.001869482
-0.32245904 -0.46164328 0.71855372 -0.96999145 -0.16497381 -0.17860653 0.038582042
-0.36270973 -0.45752436 0.91854328 -0.97355008 -0.10493197 -0.20295203 0.039052613
-0.36961418 -0.43981075 0.97050452 -0.99308234 0.06751927 -0.096065603 0.0099652512
-0.2542814 -0.33772397 0.77023178 -0.45051432 0.8860479 0.10934336 0.042015579
-0.31237805 -0.33925787 0.92406642 -0.57748449 0.7474376 -0.32840326 0.048379727
-0.32612664 -0.44788077 0.75582838 -0.97978801 -0.079297461 -0.18365033 0.020552306
-0.33138239 -0.45225289 0.78267801 -0.97509998 -0.1296985 -0.17988439 0.031494074
-0.34270853 -0.47279575 0.82728082 -0.93962657 -0.27840531 -0.19897844 0.041811772
-0.37030447 -0.45506883 0.96219236 -0.99025011 -0.082096443 -0.11253788 0.027749179
-0.32716575 -0.48409626 0.74243724 -0.92525929 -0.35503235 -0.13359319 0.059558701
-0.35239595 -0.4677383 0.873842 -0.95668054 -0.21964839 -0.19109382 0.045475025
-0.33747128 -0.46870726 0.79989529 -0.93048942 -0.32569933 -0.16765845 0.052253205
-0.19730772 -0.17288554 0.78158432 -0.047120012 0.99214405 0.11588734 0.087417267
-0.35831359 -0.36998543 1.0226866 -0.82083744 0.27070922 0.5029338 0.061680961
-0.3504726 -0.38377076 0.91759372 -0.93069476 0.32302204 -0.17165063 0.029338263
-0.32190937 -0.41017523 0.73435932 -0.97436494 0.15230872 -0.16557491 0.0055517894
-0.32985035 -0.25140217 0.97555661 -0.99097598 0.083182059 -0.10510589 0.080592431
-0.32924932 -0.49045858 0.75501066 -0.89519155 -0.42199811 -0.14335218 0.057818457
-0.3187663 -0.33363754 0.94608706 -0.66076046 0.59542626 -0.45701563 0.030675668
-0.35152259 -0.37462521 0.91571003 -0.88945895 0.42116326 -0.17743801 0.039431866
0.037986405 -0.33083296 1.1064389 0.20442481 0.48803952 0.84854466 0.10848729
-0.33006656 -0.19983332 0.975021 -0.76655293 0.59720796 0.23609173 0.093419522
-0.3175087 -0.35373932 0.73569071 -0.74279511 0.66483915 -0.079021178 0.057768222
-0.32673052 -0.18425417 0.95213121 -0.78456074 0.62005174 -0.00052708923 0.11284059
-0.25703892 -0.33812821 0.81608415 -0.27478629 0.95802283 0.081760228 0.021914797
-0.29922783 -0.1893308 0.82956022 -0.37150761 0.91416603 -0.16211912 0.032101739
-0.22421554 -0.33414158 0.83745867 -0.44671696 0.89094675 -0.081595607 0.060864843
-0.2164818 -0.29617813 0.77153921 -0.741997 0.53926611 0.39828694 0.050699256
-0.30381489 -0.20039257 0.82372248 -0.37150732 0.91416264 -0.1621387 0.032102153
-0.31565392 -0.49323368 0.6714775 -0.8819645 -0.42608833 -0.20146269 0.06836535
-0.3203871 -0.48320594 0.69051629 -0.93156767 -0.3083443 -0.19262795 0.06643413
-0.36763778 -0.41010129 1.0245405 -0.89638942 0.17980812 0.40516058 0.052740782
-0.37888011 -0.47364959 1.0356947 -0.93955898 -0.081206575 0.33261761 0.093029983
-0.36953199 -0.41274831 1.0201577 -0.9081133 0.17914964 0.37846479 0.051325478
-0.37346086 -0.4462789 1.0344697 -0.8740828 0.093356855 0.47672188 0.059112635
-0.37038898 -0.40599358 1.0044191 -0.95696092 0.19194543 0.21767615 0.037801635
-0.23531124 -0.30738905 0.75729036 -0.63142234 0.74540097 0.21373649 0.069453202
-0.27794045 -0.18472151 0.86312687 -0.38025689 0.92359096 -0.048831668 0.0097140865
-0.36221951 -0.38759759 0.946141 -0.93791264 0.28909194 -0.19169152 0.013284598
-0.086986311 -0.17324287 0.99675119 -0.071209803 0.97276115 0.22060141 0.010238072
-0.33007777 -0.21312588 0.97662264 -0.90062547 0.39721096 0.1763442 0.093765669
-0.23576128 -0.27747598 0.73598617 -0.68943995 0.58692425 0.42449087 0.11312291
-0.17000535 -0.17403336 0.93168026 0.0030283413 0.99983197 -0.018080814 0.00037127695
-0.34759581 -0.28109574 1.0061703 -0.96768934 0.2207592 -0.12183062 0.071956582
-0.20705833 -0.30900264 0.79187834 -0.69956934 0.59839857 0.39054036 0.058261797
-0.35631055 -0.47173569 0.88864166 -0.95182741 -0.22281693 -0.21065906 0.04679364
0.054386206 -0.17408922 0.77529472 0.15221615 0.98558134 0.073890597 0.1151796
-0.34516457 -0.29183331 1.0065094 -0.92463821 0.26908371 -0.26951465 0.060054936
-0.34090176 -0.45587054 0.82611465 -0.97416037 -0.12908833 -0.1853319 0.031255588
-0.31363684 -0.22735322 0.95231551 -0.98713249 -0.055262122 -0.15005176 0.11212005
-0.33260477 -0.38384411 0.82129061 -0.88492602 0.33107409 -0.32756031 0.033376496
-0.36824876 -0.39208314 1.0027215 -0.96156883 0.21374775 0.17232898 0.03583701
-0.37728873 -0.49916375 1.0342609 -0.84312236 -0.43805084 0.31185907 0.14913212
-0.1955061 -0.17619857 0.91153419 -0.015476793 0.99842453 -0.053933728 0.00021629086
-0.35900772 -0.34755188 0.99414062 -0.97506279 0.2165788 -0.048437938 0.043971997
-0.35988075 -0.35755384 0.98866141 -0.97184408 0.23054652 -0.048655596 0.042169046
-0.059497729 -0.17604262 0.77070391 0.045447011 0.99728596 -0.057924334 0.0014784636
-0.36105996 -0.36048362 0.99819708 -0.96923596 0.23016816 0.087202519 0.054888718
-0.33676487 -0.38422561 0.84992915 -0.91500407 0.31295633 -0.25460947 0.04162506
-0.22684704 -0.29311967 0.7544682 -0.72124773 0.62814564 0.29195011 0.075515784
-0.13557562 -0.17331545 0.73140699 -0.045891814 0.9859603 -0.16055018 0.0031904809
-0.35412535 -0.33451551 1.0137084 -0.9493739 0.21003498 0.23361188 0.054330941
-0.33518341 -0.45089999 0.80040371 -0.97663903 -0.1280497 -0.17256711 0.033281419
-0.27443033 -0.20516917 0.70592862 -0.86707121 0.4211843 -0.26606622 0.089213684
-0.031720243 -0.17556618 0.80127668 0.013480386 0.99978542 -0.015732508 0.0024474992
-0.12438299 -0.17172249 0.7994287 0.017367121 0.99979287 0.010613185 0.0012402642
-0.35249186 -0.33155164 1.0274059 -0.86952388 0.18123811 0.45943543 0.050617721
-0.36241788 -0.37469339 0.97110087 -0.95468086 0.26257667 -0.1401355 0.027744206
-0.2176421 -0.30788291 0.77490461 -0.64310557 0.65837896 0.39109141 0.059013817
-0.078322493 -0.17413336 0.98119438 -0.008431064 0.99943757 0.032457087 0.00023695626
-0.18665099 -0.17406996 0.93227267 -0.0024068672 0.9998228 -0.018668367 0.00030504892
-0.32950982 -0.21867155 0.97079724 -0.96225691 0.26305223 0.069750361 0.10236526
-0.30217612 -0.36730161 0.66828138 -0.91572154 0.34455404 -0.20672831 0.042929415
-0.24639453 -0.17444301 0.94741172 -0.081478417 0.99667311 -0.0019927188 0.0048115188
-0.26054129 -0.33812043 0.82154155 -0.25252157 0.96649176 0.046112947 0.016461687
-0.24000822 -0.27452862 0.72627962 -0.64058506 0.59581906 0.48440728 0.11699573
0.05273566 -0.18191384 0.72428763 0.51496547 -0.53968459 -0.66599631 0.1966545
-0.30014759 -0.23523849 0.94864506 -0.89397722 -0.32939473 -0.30381545 0.12432782
-0.34469089 -0.27694497 1.0138915 -0.97375429 0.20827363 -0.091785066 0.087875381
-0.37768349 -0.46624887 0.99581289 -0.99180228 -0.12741497 -0.0096749747 0.051070884
-0.33320189 -0.26749277 1.0193493 -0.9750917 0.22048846 -0.024104636 0.10068214
-0.24078597 -0.33480126 0.86319077 -0.29786023 0.90240496 -0.31135929 0.05223874
-0.1297622 -0.17608936 0.88097894 -0.0012509319 0.99987328 -0.015871178 0.00091130682
-0.30692169 -0.2895022 0.95626056 -0.74178475 0.3555159 -0.56865096 0.095682196
-0.22894932 -0.29673636 0.75259703 -0.73223531 0.61167383 0.29947713 0.073907971
-0.1242671 -0.17341577 0.95998424 0.0011296702 0.99998909 -0.0045277858 0.00047217275
-0.11275402 -0.18485428 0.68126082 -0.0051337173 0.95451564 -0.29811653 0.0097101489
-0.33578935 -0.34246302 0.95305002 -0.78895348 0.49404958 -0.36533165 0.030375972
-0.37346441 -0.462859 0.96907979 -0.98711336 -0.13008869 -0.093189314 0.038636468
-0.30054426 -0.34044832 0.88796097 -0.47565261 0.86345845 -0.1679111 0.039985556
-0.37937924 -0.49046373 1.0150231 -0.95667553 -0.27690259 0.089982979 0.095457286
-0.3160989 -0.33388287 0.94077045 -0.65147388 0.63542229 -0.41451207 0.037705105
-0.23101108 -0.32277206 0.77139693 -0.53804213 0.77173698 0.33901715 0.070399292
-0.3389754 -0.34947065 0.95385903 -0.83125418 0.46319205 -0.30735922 0.029349836
-0.31146026 -0.35014281 0.7423678 -0.69032431 0.72068417 -0.063769899 0.056055356
-0.29746628 -0.19024518 0.80917656 -0.37872612 0.91704828 -0.12485608 0.029692883
-0.20807791 -0.29687455 0.78312212 -0.75386888 0.51280844 0.4107424 0.046124283
-0.29710856 -0.18835214 0.82152921 -0.37147143 0.9141798 -0.16212425 0.032104708
-0.27372429 -0.19813269 0.68784195 -0.74111217 0.52997154 -0.41216862 0.082154267
-0.3683269 -0.45614204 0.95277423 -0.9857257 -0.098290928 -0.13668849 0.033800695
-0.014135213 -0.17511673 1.0111619 0.29071948 0.95214641 0.094337054 0.076914027
-0.30093309 -0.17389557 0.72733021 -0.67382658 0.70638323 -0.21674979 0.089582525
-0.28480053 -0.34479135 0.69200385 -0.84121555 0.53942674 -0.037083551 0.051924914
-0.053052954 -0.17574733 0.77918398 0.043150209 0.99859214 -0.030851087 0.00089610775
-0.31526732 -0.35419539 0.73525465 -0.73261786 0.67659038 -0.074138395 0.059405975
-0.29491422 -0.34529117 0.72079337 -0.71737444 0.69327193 -0.068904869 0.051554359
-0.30821836 -0.50071633 0.6608637 -0.82192373 -0.51215625 -0.2492736 0.077153683
-0.3180238 -0.34142134 0.92151445 -0.6003679 0.748182 -0.28245729 0.052393865
-0.29181212 -0.33873001 0.8960709 -0.48854759 0.84430397 -0.22016367 0.042902261
-0.31971797 -0.47268164 0.6906752 -0.94881487 -0.24217007 -0.20274127 0.056471385
-0.34105247 -0.46425745 0.82066125 -0.94948453 -0.25273401 -0.18602334 0.038271397
-0.3296226 -0.20773342 1.0098882 -0.80958009 0.4374482 0.3914322 0.098904841
0.022231726 -0.18178238 1.0742803 0.25871921 0.83924508 0.47825941 0.10851058
0.028450903 -0.35319167 1.1093554 0.078609414 0.35115936 0.93301004 0.056700028
-0.34036309 -0.24381484 1.0130688 -0.96398693 0.23443134 0.12558362 0.1102827
-0.34487319 -0.32509893 0.98150164 -0.88715321 0.32021067 -0.33230153 0.035645846
-0.37906295 -0.47713009 1.0356575 -0.94721758 -0.11861139 0.29784271 0.09879639
-0.33729672 -0.27123258 1.0182467 -0.97511196 0.22170025 -0.0024176512 0.097833753
-0.37030736 -0.39939907 1.0112125 -0.94194174 0.1731098 0.28771293 0.041145392
-0.2930584 -0.18462314 0.92684996 -0.4568764 0.8884567 0.043690041 0.096204281
-0.3013784 -0.34353793 0.83798575 -0.32248387 0.94602644 -0.032220669 0.032429315
-0.31520167 -0.28908873 0.95609963 -0.80372077 0.23847196 -0.54512745 0.078445919
-0.23260131 -0.17471167 0.73567659 -0.27346277 0.95252293 -0.13385867 0.088155195
0.0104993 -0.22481124 1.0821385 -0.069287628 -0.094505757 0.99311024 0.18265128
-0.30416352 -0.34840915 0.70435673 -0.81239516 0.58077282 -0.052124608 0.052885424
-0.35286543 -0.45754644 0.87940574 -0.97119021 -0.13899122 -0.19357444 0.035073671
-0.3258993 -0.46358946 0.7372756 -0.96252537 -0.20171402 -0.18126357 0.047280408
-0.3041752 -0.19176003 0.82954347 -0.37923816 0.91397578 -0.14431475 0.030398885
-0.27053261 -0.18137944 0.82380152 -0.39169645 0.90811527 -0.14798838 0.03027943
-0.29492939 -0.31451467 0.93977594 -0.58062363 0.49630573 -0.64541209 0.051794156
-0.37365955 -0.46667022 0.95748562 -0.97802132 -0.17455581 -0.11403728 0.038570203
-0.14585227 -0.17346725 0.79878181 -0.019591376 0.99980175 0.0035339328 0.002064009
-0.37258705 -0.4279688 0.96708459 -0.98647004 0.12449639 -0.10666559 0.0052725086
0.022063864 -0.1818268 0.69596958 0.33897823 -0.29295224 -0.89402056 0.11255912
-0.19550769 -0.32552201 0.82914656 -0.69374013 0.72021407 -0.0040447745 0.07875599
-0.2584807 -0.18925853 1.0218545 -0.20114912 0.56558627 0.79978204 0.11048066
-0.25545809 -0.33609506 0.86607248 -0.22485344 0.92167264 -0.31616527 0.037328452
-0.26466471 -0.29782516 0.92440289 -0.493983 0.62802631 -0.60130167 0.053245213
-0.32781163 -0.27620474 0.97690451 -0.94043094 0.14674528 -0.30668476 0.086731069
-0.12030917 -0.17473699 0.97288239 -0.0033780329 0.99992812 0.011501446 0.00033521085
-0.24276097 -0.32337332 0.88996285 -0.40123972 0.78412807 -0.47344458 0.045220457
-0.26971287 -0.33990276 0.75770104 -0.47330844 0.87880498 0.060669784 0.036423415
-0.11114012 -0.17445335 0.98017281 -0.0048637982 0.99984097 0.017156271 0.00038992157
-0.24412227 -0.2924422 0.90769601 -0.48834002 0.66141659 -0.56925583 0.038196977
-0.2236795 -0.33401215 0.82502592 -0.40885434 0.91136694 0.047417201 0.053813044
-0.25104243 -0.17724623 0.80972856 -0.34004059 0.93336982 -0.1148619 0.018545123
-0.35115045 -0.41973341 0.88647044 -0.96895695 0.12285728 -0.21454264 0.0010303091
-0.32470649 -0.34717512 0.92726028 -0.66028768 0.68932116 -0.29808819 0.053289242
-0.30384436 -0.20125939 0.82550114 -0.37150732 0.91416264 -0.1621387 0.032102153
-0.27709714 -0.339901 0.79801482 -0.32165837 0.94636494 0.030483386 0.019396517
-0.14431763 -0.1744151 0.98064691 -0.066748559 0.98427927 0.16352046 0.010265899
-0.28870869 -0.37198085 0.62703282 -0.76595169 0.24977963 -0.59239197 0.054208416
-0.30184218 -0.1913189 0.83158779 -0.38713673 0.91262943 -0.1312734 0.028659187
-0.29100329 -0.34968352 0.63907522 -0.85167778 0.30127627 -0.42880949 0.063550785
-0.26407832 -0.23084791 0.63921463 -0.51202202 0.39578351 -0.76235735 0.073707692
-0.20791364 -0.19043712 0.64273125 0.013406982 0.12632562 -0.99189818 0.056921516
-0.27784094 -0.43188602 0.60022825 -0.48945728 0.10932136 -0.86514759 0.048445158
-0.33179441 -0.35371098 0.84441417 -0.69881809 0.71206927 -0.0679015 0.068048984
-0.28000519 -0.4244816 0.6062746 -0.52210867 0.17328954 -0.83508885 0.058115557
-0.29242095 -0.43620133 0.60954708 -0.72008711 0.07677462 -0.68962318 0.032981001
-0.28896445 -0.4468914 0.60359925 -0.60651118 -0.025964497 -0.79465085 0.048277393
-0.34013605 -0.26587206 1.0157554 -0.97816068 0.20678766 -0.020987745 0.097123422
-0.19371857 -0.49842373 0.59628934 0.17710936 -0.41738805 -0.89130217 0.08350531
-0.24886778 -0.17582193 0.84403419 -0.27538249 0.95844603 -0.074469268 0.02902104
-0.33709079 -0.26826352 1.01779 -0.97673702 0.21443646 -0.0013021376 0.095497027
-0.12457477 -0.19333847 0.66027653 0.030299529 0.94245291 -0.33296335 0.0079722889
-0.21977653 -0.39133415 0.60742265 0.064396985 0.27608287 -0.95897412 0.010999923
-0.27756625 -0.43385151 0.60061312 -0.46451247 0.10055042 -0.8798396 0.047728356
-0.16403556 -0.40363991 0.61338723 0.16877954 0.27817389 -0.94558585 0.0074280854
0.071161799 -0.39659619 0.65908104 0.20295635 0.21641842 -0.95497215 0.011440836
-0.26034251 -0.43888226 0.59396148 -0.21857192 0.065433763 -0.97362453 0.031562563
-0.26133275 -0.23605223 0.63642907 -0.50456166 0.39230698 -0.76909858 0.073317111
-0.084426068 -0.17529321 0.72372043 -0.0039145611 0.97455716 -0.22410509 0.013703286
-0.26146472 -0.26479056 0.63514495 -0.12089439 0.4156529 -0.90145284 0.12919369
-0.26376545 -0.26841402 0.63520426 -0.10816713 0.3966715 -0.91156548 0.12800668
-0.059049718 -0.4841336 0.62930959 0.18968342 -0.31526461 -0.92985392 0.075542368
-0.27316767 -0.30907133 0.62928456 -0.80915797 0.23661228 -0.53784567 0.09162657
-0.21113184 -0.39008078 0.60893875 0.1142206 0.26516867 -0.95741278 0.0066613005
-0.12759118 -0.40297681 0.6218611 0.22675994 0.21730609 -0.94939882 0.0027347456
-0.18126535 -0.34133303 0.65048754 0.25812072 0.48491347 -0.83560318 0.023826197
0.0083760498 -0.37546906 0.65217352 0.10784804 0.44834518 -0.88733047 0.044458993
-0.27644393 -0.43918002 0.59942079 -0.42275247 0.047172818 -0.9050166 0.045709979
-0.25856945 -0.39547524 0.6015628 -0.28308564 0.30068335 -0.91074258 0.048994951
-0.23119591 -0.34522948 0.62222135 -0.040699013 0.29072583 -0.95594049 0.064889178
-0.25177363 -0.40629891 0.60144264 -0.18110447 0.25247118 -0.95050484 0.034668833
-0.05560923 -0.40908822 0.63783562 0.17820041 0.17058426 -0.96909529 0.0070362049
-0.1929277 -0.43974853 0.60114855 0.14089192 0.093609683 -0.98558956 0.0079796053
-0.19246496 -0.38501844 0.61342543 0.16109259 0.30915707 -0.93726796 0.0086961314
0.024492227 -0.36386871 0.66059268 0.13458604 0.66131502 -0.73793566 0.02984385
-0.3143796 -0.41782856 0.70455915 -0.97420675 0.13982467 -0.17711647 0.0045329821
-0.11239209 -0.48624057 0.61644816 0.23173152 -0.29415503 -0.92723966 0.071240447
0.036217853 -0.24721047 0.71758944 0.71372354 -0.17434694 -0.67838174 0.10478689
-0.12492639 -0.49521157 0.61201036 0.20893849 -0.5838716 -0.78449899 0.060818538
0.051436633 -0.39117482 0.65652192 0.15856056 0.28958553 -0.94392735 0.024969172
0.0086520668 -0.3447707 0.68894279 -0.22166257 0.63832128 -0.7371645 0.038715325
0.038902335 -0.26205909 0.71747816 0.58639646 -0.28966478 -0.7564612 0.10895971
0.019669941 -0.27948439 0.72867608 0.63995939 -0.755445 -0.1405514 0.20174202
-0.057794996 -0.19157277 0.67209095 0.02354298 0.93919963 -0.34256351 0.013480634
0.025538214 -0.46037048 0.64299631 0.23391967 -0.13235055 -0.96320552 0.057709966
0.096336059 -0.36991176 0.67051923 0.35339996 0.34142879 -0.87093902 0.027194876
0.038035866 -0.24881569 0.71760994 0.66285104 -0.19946578 -0.72169375 0.10882962
0.048478611 -0.28928146 0.71447504 0.37216571 0.35905823 -0.85590303 0.12570977
0.014758802 -0.19888121 0.67924398 0.30973834 -0.23735945 -0.92071855 0.058250882
-0.14903887 -0.19319536 0.65621454 0.0063163103 0.99893636 -0.045676775 0.068933628
-0.042241909 -0.34146404 0.73400718 -0.21218607 0.87492496 -0.43529689 0.037498683
-0.18259954 -0.45897025 0.59921604 0.19675416 -0.025531732 -0.98012036 0.039600372
-0.25951481 -0.48250738 0.59160954 -0.28643179 -0.27133599 -0.91887629 0.056532871
-0.16613823 -0.42515376 0.60784769 0.19800912 0.16215171 -0.96669501 0.0013123224
0.11366385 -0.42749733 0.66319895 0.39896071 0.15129462 -0.90440053 0.020228541
-0.10334811 -0.4088493 0.62675458 0.2339855 0.21190485 -0.94886613 0.0029767402
-0.049180344 -0.45257547 0.63149309 0.14347918 -0.097158313 -0.98487258 0.041570395
-0.095506884 -0.40981823 0.62867457 0.23012295 0.20461769 -0.9514069 0.0033234353
-0.1110492 -0.41006619 0.62465799 0.23453729 0.20776123 -0.94964606 0.0029718054
0.079400353 -0.38237855 0.66358286 0.2298208 0.240427 -0.94306797 0.0076481458
0.0066567147 -0.47268975 0.63657928 0.19535983 -0.28785303 -0.93753678 0.068140708
-0.05521873 -0.49584776 0.62970847 0.19786675 -0.39861703 -0.89551848 0.079105727
-0.30874979 -0.47358397 0.6445542 -0.88760078 -0.19967079 -0.41508603 0.048416581
-0.069542311 -0.49462974 0.62911564 0.21088998 -0.411185 -0.88682145 0.088538714
0.11070903 -0.3920244 0.66881597 0.47160167 0.19929157 -0.85899633 0.030175267
0.094618686 -0.38434508 0.666453 0.36273518 0.26135293 -0.8944931 0.022990391
-0.064065941 -0.46731788 0.62760055 0.17613566 -0.16384819 -0.9706338 0.058878772
-0.30936262 -0.3520025 0.70277137 -0.83249342 0.55025756 -0.064584829 0.051855423
-0.35873193 -0.44882768 0.91247547 -0.97834957 -0.034057125 -0.204138 0.031093081
-0.32605314 -0.44531736 0.75483793 -0.97935814 -0.060751718 -0.19278705 0.015670232
-0.31415671 -0.48778695 0.65838104 -0.90336877 -0.30980578 -0.29655558 0.056425121
-0.30248463 -0.34262931 0.81686306 -0.31364498 0.94870692 -0.039773181 0.036810495
-0.29162556 -0.34112686 0.78843802 -0.31192797 0.94989747 -0.019896315 0.023438187
-0.040679671 -0.19142205 0.67747742 -0.0011679711 0.92939156 -0.36909333 0.018559564
-0.17888871 -0.41463661 0.60778362 0.16452345 0.19812898 -0.96626955 0.0011741982
-0.29906431 -0.35116827 0.69608712 -0.82900035 0.55472839 -0.070956893 0.05238216
-0.0069980174 -0.37762448 0.65027446 0.13594969 0.45102671 -0.88209552 0.049249861
0.071448103 -0.4610959 0.6528827 0.23326258 -0.10887368 -0.96629965 0.064421266
-0.21496888 -0.3813321 0.6093967 0.091099404 0.29954097 -0.9497242 0.01060279
-0.32400286 -0.47777078 0.71909118 -0.94488442 -0.28132123 -0.16748674 0.059282336
-0.31913555 -0.19925128 0.91658026 -0.91355187 0.39061445 -0.11332833 0.085065
-0.2323003 -0.50143886 0.59336197 -0.089225695 -0.4168373 -0.90459132 0.085489824
-0.2916306 -0.34064835 0.81206769 -0.26056156 0.96532696 -0.015862048 0.023806453
-0.21805693 -0.45569795 0.59479064 0.030339852 -0.00093132199 -0.99953926 0.030132091
-0.28961611 -0.33995456 0.82643706 -0.25618759 0.96586204 -0.038451727 0.021085713
-0.26690775 -0.365226 0.61282629 -0.45634124 0.24892163 -0.85427791 0.050060175
-0.24556448 -0.3651692 0.60871184 -0.2178894 0.25068364 -0.94322956 0.044228859
0.026301192 -0.29651839 0.72340763 -0.54632884 0.75482976 -0.36298323 0.19982357
-0.32500488 -0.39937398 0.73841274 -0.97006851 0.20801963 -0.12527922 0.013603907
0.049322978 -0.27393684 0.71389908 0.089513727 0.96993971 -0.22628328 0.14015611
0.054985218 -0.17668264 0.74246645 -0.073792882 0.99015582 -0.11893705 0.19567838
0.048795246 -0.19404422 0.69428551 0.36588791 -0.22394709 -0.90331262 0.12818702
0.052452203 -0.19135527 0.69533807 0.37462664 -0.20232528 -0.90483117 0.12563944
-0.062005613 -0.18594615 0.67216462 0.01580227 0.94152915 -0.33656055 0.013388845
-0.086301401 -0.30194816 0.78662193 -0.086127639 0.58695823 -0.80502295 0.06320592
-0.030013893 -0.31179658 0.76477653 -0.27664068 0.94841605 -0.15484448 0.100871
-0.10001357 -0.33511418 0.75483614 0.089352936 0.76236689 -0.64094681 0.072344817
-0.032817703 -0.20666184 0.67530763 0.087178916 0.98188877 0.16820866 0.087364092
-0.24745853 -0.292927 0.6292783 0.059930291 0.16907196 -0.98377997 0.12874992
-0.11973029 -0.47796756 0.61298859 0.23875512 -0.14436322 -0.96028918 0.044740625
0.02316539 -0.44465321 0.64075303 0.19271694 0.031149739 -0.98075986 0.020367451
-0.25744662 -0.29318282 0.62735176 -0.22695708 0.17049414 -0.95886505 0.13331147
-0.3500303 -0.32140186 0.99072456 -0.90690964 0.30957472 -0.28579444 0.048712734
0.024885727 -0.25880805 0.72691298 0.77519834 -0.23688944 -0.58562011 0.1293864
0.018564129 -0.30385631 0.71841592 -0.55929017 0.49771562 -0.6629281 0.054750286
-0.19182374 -0.42386109 0.6039657 0.14265752 0.17180689 -0.9747467 0.0016013967
-0.2062681 -0.47336328 0.59380925 0.10529241 -0.16359404 -0.98089272 0.066988863
0.043664411 -0.175743 0.74944156 -0.24643575 0.96900892 -0.017059946 0.17363359
0.038448587 -0.47352809 0.64534605 0.18745641 -0.27800524 -0.94211102 0.11626297
-0.35557672 -0.35088432 1.0201629 -0.84929174 0.21472839 0.48228124 0.065318629
0.10760015 -0.18556647 0.71927196 0.65322024 0.70377249 -0.27929831 0.097712852
0.029489836 -0.39507475 0.65378243 0.11533604 0.32158089 -0.93983155 0.034176733
-0.25112468 -0.49531603 0.58996165 -0.23051275 -0.33711532 -0.91280729 0.059211772
-0.19053051 -0.4885886 0.59747273 0.19756226 -0.31019315 -0.92991894 0.078911006
-0.074054785 -0.20278543 0.66267502 0.0098210378 0.92903411 -0.3698639 0.013548416
-0.26808268 -0.38435587 0.60511625 -0.48658311 0.27936992 -0.82776165 0.050944537
-0.019025696 -0.390174 0.64528233 0.14893281 0.3527393 -0.92379332 0.030579617
0.11713977 -0.29874456 0.71000791 0.54254144 0.54165137 -0.64207661 0.16050792
-0.34758952 -0.31228113 1.0095135 -0.95685488 0.26842096 -0.11126076 0.05697076
0.022043284 -0.28837276 0.72634488 0.71052861 -0.7036652 0.0020834699 0.19793667
-0.070964195 -0.19658849 0.67004716 -0.00050432712 0.9461174 -0.32382348 0.013455847
0.038789116 -0.29276443 0.71740353 0.53500748 0.15668032 -0.83019173 0.12868041
-0.23089425 -0.17411019 0.69946229 -0.2900095 0.90120935 -0.32204998 0.062831059
-0.37214714 -0.47325969 0.96466631 -0.96856272 -0.22610399 -0.10374579 0.046487879
-0.1921833 -0.19699728 0.64388567 0.12680043 -0.048210651 -0.99075592 0.059236422
-0.029481219 -0.3072952 0.76220256 -0.31651524 0.93607813 -0.15354475 0.10592236
0.035737991 -0.27477548 0.72000408 0.60118616 0.12627533 -0.78906894 0.14593273
-0.087454647 -0.33470556 0.74647665 -0.015852891 0.85111237 -0.52474415 0.055404078
-0.092130505 -0.29183492 0.78106475 -0.076074257 0.57238501 -0.81644851 0.068573646
0.07637772 -0.18074994 0.73461622 0.61787623 -0.24406125 -0.74743766 0.23259893
-0.18429084 -0.50405473 0.60055602 0.15842041 -0.50058311 -0.85106963 0.080228038
0.11542223 -0.42305735 0.66516781 0.46158826 0.14700408 -0.87482917 0.027853381
-0.16204363 -0.42063832 0.60994834 0.20193657 0.17331108 -0.96394235 0.0011528175
-0.20888481 -0.45582145 0.59585959 0.081611253 0.0090999184 -0.99662262 0.028726356
0.074930444 -0.40779576 0.65800762 0.22282253 0.17623222 -0.95879734 0.0093270866
-0.00071836071 -0.44488069 0.64209127 0.18822156 0.02573628 -0.98178929 0.02235857
-0.098276004 -0.33834624 0.71764606 0.06765601 0.96984845 -0.23412947 0.030693986
-0.26955903 -0.30229005 0.6287927 -0.76080203 0.19823667 -0.61796641 0.10737065
-0.26703843 -0.29560223 0.63009858 -0.69047844 0.18818113 -0.69844639 0.12254841
-0.3021197 -0.3474569 0.71658021 -0.76503342 0.64053667 -0.066608466 0.050763912
-0.23449102 -0.25541997 0.64686847 0.10950404 0.19584298 -0.97450209 0.14841689
-0.26113448 -0.20701958 0.64213461 -0.56224632 0.48555058 -0.6694175 0.085914209
-0.31222564 -0.35186228 0.78523022 -0.52674347 0.84371871 -0.10334449 0.050528698
0.012143006 -0.35778797 0.66635019 0.13951121 0.68410832 -0.71591371 0.032364409
-0.29920733 -0.35110414 0.69606662 -0.82900035 0.55472839 -0.070956893 0.05238216
-0.26503003 -0.26747227 0.63063955 -0.19069709 0.37977251 -0.90521133 0.12511304
-0.088098355 -0.33338976 0.77267855 0.033979166 0.68256307 -0.73003632 0.068567775
0.021338992 -0.35473517 0.66163039 0.13392445 0.66866839 -0.73140049 0.030300358
-0.20052151 -0.33483207 0.64604098 0.25685623 0.45586467 -0.8521809 0.048430242
-0.0760298 -0.35868001 0.64456409 0.18305647 0.53605181 -0.82409883 0.043002285
-0.33675656 -0.42285815 0.82791889 -0.96862447 0.13595395 -0.2080459 0.0012543638
-0.18232991 -0.33250195 0.66113043 0.34802696 0.52277207 -0.77819437 0.028221805
-0.21879464 -0.29211301 0.63810319 0.36394802 0.31765926 -0.87557662 0.080687255
0.11445902 -0.45093963 0.66075045 0.46935275 0.0094805369 -0.88295984 0.037711442
-0.28264013 -0.41647524 0.60764813 -0.57334584 0.20009576 -0.79450381 0.053123217
-0.04613224 -0.18450375 0.67748731 0.0016821902 0.93525082 -0.35398161 0.017218312
0.021524444 -0.34962341 0.68227863 0.027667474 0.58874643 -0.80784416 0.031723861
-0.29996619 -0.43225563 0.62266272 -0.82023108 0.10863677 -0.56162179 0.025099948
-0.093533076 -0.4574388 0.62322676 0.18731119 -0.095871918 -0.97761095 0.043744158
-0.2639018 -0.38677225 0.60234571 -0.39669114 0.3138687 -0.86262536 0.051468801
-0.13556656 -0.20059502 0.65406328 -0.143775 0.82973802 0.53931767 0.040947139
-0.3165316 -0.33673885 0.93514425 -0.64490044 0.65105933 -0.4002814 0.040171992
0.0067281919 -0.25909731 0.73865896 -0.60043138 0.77263647 -0.20619182 0.14129549
-0.19084406 -0.48692632 0.59730327 0.19433112 -0.30611917 -0.93194765 0.078528486
-0.18960658 -0.48649427 0.59755385 0.1999986 -0.30268055 -0.93187177 0.077331632
0.077394225 -0.38182145 0.66331738 0.20709711 0.27256894 -0.93958336 0.01044953
0.11335426 -0.42714518 0.66314101 0.39819461 0.15010205 -0.90493667 0.019631719
0.10857804 -0.42179728 0.66444665 0.3940587 0.14326315 -0.90785098 0.020017385
0.13142459 -0.45893052 0.66231126 0.56846404 -0.067685664 -0.81991911 0.059512962
0.070005715 -0.40544522 0.65777594 0.18650627 0.18902624 -0.9640978 0.010186831
0.097995043 -0.38557711 0.66705167 0.37470239 0.25346252 -0.89182663 0.023761906
0.015843417 -0.36838627 0.65800673 0.10302606 0.51447582 -0.85129333 0.049995482
-0.043491405 -0.38449967 0.6431309 0.17734347 0.31854394 -0.93117076 0.022673825
-0.068898819 -0.36297691 0.64200085 0.16418016 0.45511079 -0.87516809 0.029884264
0.008032131 -0.37519351 0.65219861 0.10784804 0.44834518 -0.88733047 0.044458993
-0.13086553 -0.38632041 0.62395972 0.19580832 0.34739777 -0.91704631 0.014219587
-0.12509358 -0.4021185 0.62260813 0.23111095 0.22390933 -0.94681168 0.0029824025
-0.16082726 -0.42151049 0.60974902 0.20275077 0.17298336 -0.96383029 0.0011289851
-0.16465613 -0.42549786 0.60805935 0.20054804 0.16033781 -0.96647418 0.001272218
-0.27097285 -0.43395847 0.59817731 -0.35949662 0.092664294 -0.92853409 0.045225076
-0.18039666 -0.26413432 0.69488978 -0.92401546 0.16099834 -0.34680673 0.16064991
-0.097109661 -0.44492388 0.62432456 0.19512583 -0.025943175 -0.98043501 0.020301228
-0.18832055 -0.43910751 0.60143054 0.16184102 0.093159989 -0.98240972 0.0072717392
-0.1935077 -0.50070202 0.59708959 0.15702394 -0.48237965 -0.86177337 0.084548078
-0.082399271 -0.28051677 0.79714823 -0.048305225 0.46834552 -0.88222396 0.049049824
-0.19969653 -0.221488 0.65293264 0.14802992 -0.14766987 -0.97789609 0.09272249
-0.11845133 -0.47347364 0.6148771 0.23872638 -0.1328513 -0.96195644 0.041814301
-0.17591019 -0.29295862 0.69287634 0.34624752 0.83986062 -0.41802737 0.15682182
0.070206054 -0.45852488 0.65240204 0.23667362 -0.053931296 -0.97009128 0.043350369
-0.10522024 -0.49543542 0.61947191 0.22011505 -0.56954038 -0.79194266 0.081432588
-0.1723343 -0.20107806 0.64934707 0.18007132 -0.48168394 -0.85764498 0.082018279
-0.20886147 -0.39049643 0.60869211 0.1212719 0.26625004 -0.95624477 0.0063641584
-0.17758988 -0.48139113 0.60066605 0.22270395 -0.24041267 -0.94477755 0.076249063
-0.1330941 -0.35596737 0.63246244 0.169475 0.48722976 -0.85667104 0.023812108
-0.040294848 -0.43826297 0.63427925 0.14221147 0.047599416 -0.98869109 0.0093370834
-0.2036137 -0.19061315 0.64157724 0.041439548 0.17312187 -0.98402828 0.053305726
-0.19942699 -0.28688046 0.65131235 0.42729524 0.39146054 -0.81497073 0.043411128
-0.24348396 -0.27429727 0.62167037 0.18603553 0.28572184 -0.94008178 0.090282843
0.050128795 -0.39017498 0.65622139 0.15276231 0.30843478 -0.93889916 0.027261047
0.019858802 -0.44714054 0.64409429 0.18746477 0.0081453826 -0.98223752 0.026219388
0.026320236 -0.29317364 0.72426713 0.62121457 -0.76106876 0.18672641 0.20748043
-0.0092822174 -0.37566873 0.64982051 0.13603447 0.4546009 -0.88024575 0.047783904
0.095588081 -0.36862284 0.67113662 0.34830883 0.34758711 -0.87055397 0.027203085
-0.058177527 -0.47976997 0.6275934 0.17371945 -0.22348307 -0.95910203 0.06834165
0.065336563 -0.45982623 0.6515646 0.2291193 -0.10077512 -0.96816766 0.057515938
-0.058647003 -0.18540332 0.67305446 0.024219437 0.94198275 -0.33478644 0.013520899
-0.071783215 -0.20466202 0.66965455 0.00179138 0.94377077 -0.33059579 0.013979011
-0.17910366 -0.28544062 0.69291937 -0.90865612 -0.25217706 -0.33279231 0.15081277
-0.18642394 -0.25118181 0.68655133 -0.69318712 0.68860996 0.21285693 0.15128696
-0.1424478 -0.38359696 0.62193173 0.17855473 0.36235878 -0.91477561 0.011364602
-0.19182046 -0.28266215 0.67170656 0.49203926 0.71832734 -0.49183652 0.15291573
-0.1996116 -0.2880601 0.66233283 0.45582521 0.58285654 -0.6726824 0.10214272
-0.19565916 -0.44597843 0.59939647 0.13333517 0.060806807 -0.98920393 0.017055299
-0.1963774 -0.4979108 0.59595293 0.15670377 -0.41391814 -0.89672506 0.082307555
-0.19952889 -0.45712689 0.59701884 0.13545492 -0.014876478 -0.99067181 0.039442249
-0.21959765 -0.39205924 0.60738343 0.067696974 0.27357045 -0.9594667 0.010535956
-0.17961527 -0.45793167 0.59975678 0.2041502 -0.015646532 -0.97881442 0.038841128
-0.24588196 -0.36499482 0.60869718 -0.22615315 0.25191808 -0.94095272 0.045625143
-0.2493652 -0.49273115 0.58952314 -0.20645171 -0.30656084 -0.92919219 0.057125095
-0.22204317 -0.48821634 0.59149271 -0.02729396 -0.30352861 -0.95243132 0.079122916
-0.17610587 -0.25533482 0.70166725 -0.82644248 -0.059853554 -0.55983055 0.11962225
-0.2571474 -0.48001972 0.59193641 -0.26928732 -0.24615152 -0.93107128 0.053206153
-0.26447546 -0.37977037 0.60352182 -0.43512458 0.28001606 -0.85572052 0.050621994
-0.20872015 -0.26316878 0.66103852 0.42085359 0.017687101 -0.9069562 0.2082628
-0.19039063 -0.42500001 0.60468823 0.14408074 0.16828892 -0.975151 0.0017885921
-0.039615016 -0.19047964 0.67793268 0.0016962202 0.92226595 -0.38655218 0.019475965
-0.18711971 -0.50074267 0.59825611 0.18363228 -0.43338636 -0.88230115 0.081165299
-0.15588869 -0.44374067 0.60392499 0.24605028 0.061421476 -0.96730894 0.0075928392
-0.17787446 -0.41414693 0.60806638 0.16600448 0.1972447 -0.96619725 0.0012363524
-0.22066768 -0.49088573 0.59264612 0.010923171 -0.34680831 -0.93787241 0.088930957
-0.14699547 -0.2041416 0.65129071 0.17032413 -0.61270952 -0.77173615 0.055953201
-0.1462447 -0.35280555 0.63491744 0.17604035 0.46290478 -0.86875141 0.018087292
-0.20312341 -0.25738287 0.66289592 0.33881041 -0.16522326 -0.92623365 0.1936274
-0.21433724 -0.50170809 0.592287 0.067303456 -0.49918717 -0.86387634 0.094032243
-0.22547816 -0.47883773 0.59214044 -0.045493677 -0.19800214 -0.97914523 0.060446944
-0.22223908 -0.32647958 0.63181835 0.073671356 0.3277784 -0.9418779 0.091948561
-0.21246487 -0.18205713 0.63187021 -0.064134717 0.5028432 -0.86199504 0.040530849
-0.23955561 -0.3043001 0.63092268 0.035859954 0.2012592 -0.97888142 0.14319454
-0.065131739 -0.19466725 0.67117918 -0.014053009 0.94299299 -0.33251584 0.014799125
-0.085343979 -0.20567188 0.66495341 0.013617724 0.93317813 -0.35915622 0.012914372
-0.053183202 -0.19119176 0.67365021 0.019428622 0.93982315 -0.34110832 0.014286397
-0.16933846 -0.27132851 0.71033287 -0.60179204 0.73273498 -0.31771955 0.11490213
-0.091354132 -0.20097911 0.66499323 0.0079371966 0.94349086 -0.33130357 0.012637406
-0.12773032 -0.48741782 0.61068428 0.2211906 -0.27609026 -0.93533361 0.055085372
-0.166269 -0.25421441 0.721349 -0.25338641 0.96127748 -0.10835608 0.078649007
-0.15922928 -0.40405294 0.61423361 0.17866516 0.26136401 -0.94856083 0.0056996066
-0.13458543 -0.19848149 0.65249658 0.097952791 0.84849852 -0.52005333 0.012054109
-0.16436757 -0.42800453 0.60768354 0.20306468 0.14881766 -0.96779031 0.0015565922
-0.12776493 -0.38489029 0.62484717 0.19281664 0.34847757 -0.91727042 0.014792407
-0.17811301 -0.26490352 0.69774449 -0.82362074 0.4814949 -0.29968557 0.17229486
-0.17834078 -0.29329115 0.69008797 0.31117302 0.81390631 -0.49064034 0.14256033
-0.18596314 -0.3837775 0.61397201 0.16671011 0.31759894 -0.93345529 0.0095977513
-0.1453402 -0.36697328 0.62548083 0.17917426 0.43484035 -0.88250238 0.016433978
-0.1415955 -0.49226904 0.60860962 0.24130103 -0.31565875 -0.91767824 0.062342696
-0.2230394 -0.28598621 0.64294124 0.37212819 0.26371962 -0.88992846 0.098330572
-0.19167687 -0.26148614 0.67962068 -0.87838441 0.47726336 -0.025697563 0.15936226
-0.19043201 -0.28161922 0.67437488 0.49404612 0.72045851 -0.4866806 0.16276532
-0.16053392 -0.42852142 0.60819459 0.21066114 0.13889059 -0.96764219 0.0021310728
-0.21095954 -0.45649111 0.5954743 0.066634126 0.00083705445 -0.9977771 0.031278893
-0.17898837 -0.40685737 0.60975164 0.15692739 0.25493774 -0.95413858 0.0056966534
-0.19336261 -0.44362476 0.6001538 0.13944741 0.070413314 -0.98772281 0.014173646
-0.19076714 -0.49818093 0.59690106 0.19078411 -0.40542981 -0.89399558 0.085040607
-0.20449269 -0.47511116 0.5948391 0.1145499 -0.17127058 -0.97854209 0.068171591
-0.022280898 -0.38096344 0.6443733 0.13028461 0.41148984 -0.90205431 0.04213699
-0.041936677 -0.42768022 0.63665128 0.15153863 0.11215765 -0.98206758 0.0059546381
-0.26699945 -0.42460018 0.59935462 -0.34049737 0.14441945 -0.92908806 0.055393644
-0.26592341 -0.42995438 0.59794974 -0.31184077 0.11430897 -0.94323307 0.045354243
-0.1206159 -0.19567531 0.66185308 0.024432352 0.94451743 -0.32755113 0.0080291824
0.05239493 -0.2736263 0.712524 0.089513727 0.96993971 -0.22628328 0.14015611
0.010167376 -0.37776768 0.65197128 0.10541868 0.43491998 -0.89427704 0.044835687
-0.28518271 -0.44440815 0.60226399 -0.56547475 -0.0027600168 -0.82476103 0.046500966
-0.26355103 -0.43314472 0.59678769 -0.28475678 0.10015358 -0.95335352 0.041007698
-0.051906899 -0.37548673 0.64318049 0.15768531 0.38727725 -0.9083786 0.035518173
-0.29634139 -0.31586114 0.93732828 -0.56714803 0.53471321 -0.62643832 0.038368683
-0.29653579 -0.34205449 0.78134924 -0.38059109 0.92355514 -0.046864569 0.035859372
-0.057595924 -0.48926783 0.62953478 0.18930888 -0.36625975 -0.91105211 0.078791305
-0.30053201 -0.34234878 0.81814748 -0.30206087 0.95230448 -0.043306138 0.035091612
-0.26104969 -0.22612604 0.63356078 -0.50999004 0.40265262 -0.76011908 0.076443523
-0.26078346 -0.26372659 0.63260037 -0.10869054 0.40076026 -0.90971297 0.12707372
-0.2648173 -0.33763689 0.85500973 -0.23247212 0.9537127 -0.19075856 0.022885969
-0.1993181 -0.192683 0.64214545 0.070981115 0.079080448 -0.99433798 0.052517373
-0.28050461 -0.18933164 0.7245608 -0.58654916 0.76730168 -0.25924551 0.081323013
-0.28819793 -0.34659016 0.63440174 -0.83858407 0.28278238 -0.46562955 0.073062092
-0.32906494 -0.49413228 0.75956243 -0.87103504 -0.47342268 -0.13103004 0.058228154
-0.26485902 -0.17934674 0.82113993 -0.35998556 0.9219619 -0.14281732 0.025171524
-0.28410172 -0.18927199 0.71840298 -0.63146776 0.71666515 -0.29603967 0.090189435
-0.30243331 -0.34261993 0.8196584 -0.31432807 0.94816583 -0.046683446 0.036132134
-0.30217037 -0.34783208 0.72464114 -0.73038471 0.67790258 -0.083584756 0.052837063
-0.30197537 -0.35320485 0.69700289 -0.83384448 0.54725629 -0.072207496 0.05218865
-0.32225552 -0.3454836 0.91365689 -0.64633453 0.72634369 -0.2338303 0.056040503
-0.32624912 -0.44669011 0.75641745 -0.97789043 -0.082842305 -0.19200914 0.020488096
-0.30078119 -0.19030769 0.82813722 -0.37150761 0.91416603 -0.16211912 0.032101739
0.036842823 -0.29191881 0.71874094 0.61359531 0.083712354 -0.78517073 0.12310363
-0.28172541 -0.34057996 0.7860828 -0.34815729 0.9372943 0.016306648 0.020386506
-0.28686833 -0.33873838 0.89327919 -0.4529542 0.86381143 -0.22059521 0.04040179
0.0096038971 -0.3438184 0.68647969 -0.20533919 0.63699478 -0.74301648 0.040169429
-0.25048313 -0.33803898 0.81967497 -0.29343671 0.95349902 0.068807855 0.024787476
-0.079326667 -0.34728044 0.65595764 0.15073171 0.6572327 -0.73846126 0.050941292
-0.076099195 -0.40364626 0.6336959 0.20275579 0.18257248 -0.9620589 0.0040152902
-0.23893803 -0.33637547 0.8557241 -0.29928547 0.92804867 -0.22170654 0.046058804
-0.025563424 -0.342345 0.71103698 -0.2185995 0.80643123 -0.54943877 0.043344788
-0.25292519 -0.33505437 0.73281163 -0.55426973 0.81975436 0.14417976 0.046392802
-0.2670241 -0.17447105 0.94718736 -0.31949949 0.94755411 0.0078303963 0.099711478
-0.268325 -0.23723033 0.66234517 -0.73336375 0.34256771 -0.58721805 0.10879096
-0.2740736 -0.33962914 0.72266483 -0.55412918 0.83242065 -0.0040796921 0.049732409
0.064332999 -0.47732228 0.6523459 0.24003747 -0.32261628 -0.91558766 0.097135782
-0.33194429 -0.35705578 0.8436386 -0.71883446 0.69114268 -0.074825332 0.068760917
-0.23151368 -0.33308932 0.77899367 -0.44207415 0.85089171 0.28381982 0.063479602
-0.27181587 -0.30830908 0.62908179 -0.73929024 0.22904129 -0.63323766 0.10709696
-0.26816332 -0.3365477 0.88744307 -0.31637144 0.89914745 -0.30239534 0.036326751
-0.25152984 -0.33774146 0.76686186 -0.46407828 0.8784287 0.11399277 0.043850251
-0.05795503 -0.35855749 0.65707546 0.064737633 0.68711358 -0.72366011 0.050206184
0.12866196 -0.35945868 0.69060588 0.70853794 0.31720603 -0.63036048 0.053426333
-0.33055121 -0.44495055 0.78359842 -0.98139262 -0.066367343 -0.18017754 0.019761305
-0.29239637 -0.34087443 0.79486716 -0.28849772 0.95740724 -0.011848886 0.02024379
-0.13559195 -0.37400785 0.62669635 0.17162527 0.41619846 -0.89292973 0.017246436
-0.20077047 -0.34326673 0.64097446 0.23257568 0.39888027 -0.88701928 0.015984043
-0.11624255 -0.4086301 0.62335354 0.23086567 0.20770258 -0.95055807 0.0028313913
-0.083935663 -0.45286289 0.62603325 0.20004803 -0.07856293 -0.97663122 0.040809602
-0.12537304 -0.33996972 0.68823987 0.29682174 0.85196447 -0.43133897 0.044872634
-0.3343415 -0.3458111 0.8537783 -0.58102131 0.81362796 -0.02058463 0.051307183
-0.26041496 -0.27418894 0.63463569 -0.11261064 0.30336657 -0.94619638 0.1089149
-0.35283047 -0.42358992 0.89150232 -0.96899319 0.1189924 -0.2165481 0.00092393509
-0.2750394 -0.26787925 0.66418964 -0.99974662 -0.015587986 0.016236451 0.11821733
-0.007526285 -0.34766588 0.69325125 -0.14416298 0.7462486 -0.64986932 0.048605099
-0.31551313 -0.49968952 0.69813168 -0.78360391 -0.60979533 -0.11880488 0.075345054
-0.27493542 -0.26310238 0.6706543 -0.99581367 -0.05618801 0.072097182 0.10088093
-0.31955841 -0.49527091 0.69183749 -0.84424603 -0.51176906 -0.15918858 0.07644593
-0.19127661 -0.20273791 0.64882523 0.19903491 -0.36249366 -0.91048533 0.068578631
-0.12007537 -0.49886954 0.61517566 0.21154055 -0.66897941 -0.71254271 0.057742812
-0.33364302 -0.35253572 0.86963964 -0.67419803 0.738478 -0.010359809 0.068263724
-0.074906297 -0.40636697 0.63375771 0.20055775 0.17707834 -0.96354544 0.004321164
-0.35503095 -0.46583945 0.88530546 -0.95587087 -0.19595258 -0.21889156 0.046459921
-0.25976884 -0.33865133 0.82432145 -0.25704995 0.9660778 0.024880119 0.015583048
-0.10208753 -0.39179114 0.63061029 0.23137906 0.24562128 -0.94134688 0.003205318
-0.33317125 -0.38599846 0.82338238 -0.89086109 0.31137237 -0.33077776 0.029061625
-0.026160462 -0.39793834 0.64355874 0.15295786 0.29453444 -0.94332039 0.02089881
-0.01388127 -0.29799861 0.69829261 -0.5674209 0.50926125 -0.64705986 0.043523215
-0.30028212 -0.19250385 0.81912035 -0.37147143 0.9141798 -0.16212425 0.032104708
-0.31121135 -0.35009873 0.73806292 -0.70778644 0.70336008 -0.065749735 0.057952322
-0.25486338 -0.39899489 0.60112745 -0.20890199 0.27236009 -0.93924433 0.040027145
-0.31597501 -0.43530631 0.70609355 -0.97906673 0.02387126 -0.20213483 0.0064648581
-0.27384618 -0.31215301 0.62914604 -0.79556727 0.24058466 -0.55605012 0.089220487
-0.0079094488 -0.3301495 0.71063012 -0.49645668 0.62571597 -0.60167295 0.024738623
-0.27414536 -0.26765734 0.65100634 -0.97738791 0.056840207 -0.20367151 0.13612819
-0.3558611 -0.47682688 0.89219379 -0.93649518 -0.27806026 -0.21368057 0.061987352
-0.048929252 -0.1929515 0.67436194 0.014216671 0.93944776 -0.34239721 0.015324671
0.030522829 -0.26831773 0.7222662 0.6983363 0.096117027 -0.70928693 0.17138007
-0.32581925 -0.35593727 0.832744 -0.63164639 0.76657188 -0.11571684 0.083028004
-0.35039946 -0.4957718 0.88900852 -0.8826614 -0.4295705 -0.19073051 0.081774533
-0.23527673 -0.2646575 0.73243147 -0.58729744 0.63522089 0.50157374 0.16759154
-0.32138479 -0.35535213 0.82746387 -0.59417951 0.79535246 -0.11985437 0.085241437
-0.15166195 -0.17420433 0.78997672 -0.027910637 0.99949169 -0.015406994 0.0017246729
0.094061598 -0.28609276 0.68815023 0.26095405 0.3621977 -0.89482731 0.082707673
-0.3100591 -0.48054934 0.64478236 -0.87878203 -0.26968777 -0.39371386 0.054069884
-0.29749337 -0.29444984 0.95280969 -0.60089195 0.57039738 -0.55997837 0.07539086
-0.23998505 -0.33732715 0.79131639 -0.33268887 0.93462098 0.12570518 0.035047244
-0.29099411 -0.3438735 0.67124414 -0.8853972 0.44978338 -0.11733156 0.056359865
-0.30678958 -0.49876276 0.65577608 -0.81843984 -0.48215768 -0.31253827 0.077227756
-0.26405472 -0.23780642 0.7002328 -0.91305012 -0.32795885 0.24245083 0.11466002
-0.22769882 -0.17407429 0.93940812 -0.025847802 0.99966061 -0.0032399753 0.0014941193
-0.27419445 -0.44220182 0.59905028 -0.4084121 0.020086555 -0.91257668 0.047622479
-0.34051257 -0.42921683 0.83822852 -0.97113413 0.11011805 -0.21159527 0.0024337026
-0.26098821 -0.3333832 0.89913523 -0.41956764 0.8045606 -0.42029175 0.038587607
-0.25714454 -0.30765411 0.63092732 -0.45322526 0.21116136 -0.86602408 0.14015803
-0.30626199 -0.48639289 0.63392895 -0.80447328 -0.32167318 -0.4993487 0.058224596
-0.2738573 -0.20139934 0.6950506 -0.70220691 0.57865381 -0.41480756 0.084591977
-0.21715863 -0.32457256 0.78726369 -0.53654206 0.76688969 0.35214043 0.063024849
-0.30288559 -0.40505758 0.64520907 -0.86018819 0.192065 -0.47242701 0.028909383
-0.30189481 -0.37914038 0.65981179 -0.89261508 0.29308841 -0.34254584 0.036855493
-0.33262983 -0.4624244 0.77836722 -0.95847476 -0.21920016 -0.18242051 0.040127706
-0.32450032 -0.41185075 0.74953365 -0.97604316 0.13218263 -0.17282233 0.0047403276
-0.33610767 -0.38340047 0.84745151 -0.9092921 0.32607046 -0.25858435 0.042187463
0.047908392 -0.19338034 0.69459772 0.36588791 -0.22394709 -0.90331262 0.12818702
-0.25982606 -0.23519579 0.63570595 -0.49949956 0.39601421 -0.77050173 0.067658991
-0.24352576 -0.29567614 0.62954497 0.11082735 0.16687748 -0.97972912 0.12504259
-0.1368966 -0.40867835 0.61791462 0.22606423 0.20614591 -0.95204985 0.0026444886
-0.1837424 -0.38856798 0.61369735 0.16393301 0.31020662 -0.93642819 0.0097356737
-0.039784811 -0.34204295 0.73246104 -0.19915688 0.88914686 -0.41201273 0.036921084
-0.28850824 -0.44146273 0.60465062 -0.62753165 0.029738499 -0.77802294 0.044246636
0.077390723 -0.38658488 0.66217357 0.21638726 0.23504685 -0.94759142 0.0067331581
-0.25796315 -0.28787801 0.62925309 -0.056677934 0.16700958 -0.98432481 0.12329739
-0.11979773 -0.48460472 0.61288661 0.22967596 -0.22034362 -0.94799674 0.054281067
0.023797033 -0.35819185 0.656304 0.13799192 0.68945599 -0.71106166 0.027245415
-0.043520086 -0.45285779 0.63232189 0.13907729 -0.072075412 -0.9876551 0.036033794
0.14321096 -0.42643359 0.68667668 0.821006 0.12836008 -0.55630285 0.047597468
-0.12786116 -0.34111741 0.64410514 0.20735277 0.59733635 -0.77472186 0.043113325
-0.034154173 -0.34528485 0.71413356 -0.12782426 0.88315278 -0.45133382 0.034017421
-0.11897597 -0.34093827 0.6946398 0.23700227 0.91832662 -0.31702688 0.031786121
-0.14250001 -0.38506564 0.62170625 0.18106337 0.35823178 -0.91590726 0.011383133
-0.015507 -0.17527431 1.0111876 0.2763871 0.95590991 0.099228323 0.075551093
-0.30792719 -0.34939697 0.71601218 -0.77491379 0.62755907 -0.075353995 0.051740333
-0.28721216 -0.34156087 0.7023977 -0.74302399 0.66770834 -0.045617573 0.054702327
-0.22539069 -0.33254617 0.78911698 -0.391902 0.89461458 0.21465683 0.048025761
-0.22475655 -0.33468324 0.83889675 -0.44613278 0.89038062 -0.090486713 0.061102927
-0.24162036 -0.33744949 0.79400563 -0.3316581 0.93484503 0.12675779 0.034602541
-0.32673472 -0.44593123 0.75776577 -0.97652406 -0.077554643 -0.20096281 0.018357426
-0.3094095 -0.50044638 0.66826004 -0.80549151 -0.56366831 -0.18292464 0.076542981
-0.26606709 -0.33194828 0.69387287 -0.85021126 0.52448511 0.045344621 0.068514861
-0.30068126 -0.43029636 0.63402241 -0.85603625 0.10590629 -0.50595045 0.025255134
-0.109492 -0.35035223 0.639817 0.20440581 0.59350932 -0.77843744 0.050447915
-0.11416265 -0.17067073 0.78444308 0.016804744 0.99985772 0.0014450923 0.0012621528
-0.23369561 -0.33700371 0.82826787 -0.31234652 0.94938916 0.033163358 0.035128944
-0.091358431 -0.18031514 0.70305765 -0.0040784166 0.96485901 -0.26273647 0.011733219
0.13526595 -0.35578495 0.69395375 0.75501096 0.30437675 -0.58078682 0.054601852
-0.2825616 -0.33998233 0.79342711 -0.29108548 0.95662004 0.012134414 0.016327409
-0.32152691 -0.45747072 0.7229169 -0.97115535 -0.14964542 -0.18564387 0.035839025
-0.25883365 -0.33404234 0.71293539 -0.62968558 0.76724911 0.12175724 0.053440239
