# .PCD v0.7 - Point Cloud Data file format
VERSION 0.7
FIELDS x y z
SIZE 4 4 4
TYPE F F F
COUNT 1 1 1
WIDTH 1424
HEIGHT 1
VIEWPOINT 0 0 0 1 0 0 0
POINTS 1424
DATA ascii
-0.29498169 -0.36465821 1.056909
-0.37509829 -0.50092542 1.049145
-0.27323779 -0.4889704 1.081539
-0.29646021 -0.3635231 1.052402
-0.2823543 -0.35450801 1.059516
-0.28973269 -0.4792535 1.0740629
-0.22945809 -0.1989616 1.037577
-0.31050611 -0.35164991 0.72298431
-0.30739489 -0.34830749 0.73913848
-0.083117656 -0.1864686 1.063307
-0.28706089 -0.23711669 1.0214649
-0.1008088 -0.20120621 1.075785
-0.017284811 -0.1868581 1.078544
-0.2452663 -0.25754121 1.00445
-0.067811668 -0.3801389 1.1022021
-0.1350234 -0.3373313 0.99433953
-0.094157457 -0.45155281 1.114092
-0.25089341 -0.3647773 1.067366
-0.31700131 -0.43080831 1.063858
-0.072617561 -0.27450129 0.97471148
-0.2450121 -0.4081488 1.060896
-0.2305014 -0.34225979 1.0199879
-0.1397247 -0.33984479 1.024817
-0.3076342 -0.289009 1.0353529
-0.2426659 -0.26120961 0.99783558
-0.3766059 -0.42866829 0.98992419
-0.28325871 -0.41116139 1.061384
-0.35929269 -0.3630406 0.96372777
-0.090430804 -0.38577309 1.0996701
-0.058076922 -0.42970189 1.114681
-0.085684814 -0.261206 0.96133941
-0.33662459 -0.35634449 0.83531719
-0.2310749 -0.49694341 1.082098
-0.01872295 -0.34377819 1.057798
-0.29017079 -0.3736268 1.0626709
-0.3144044 -0.4136574 0.73505372
-0.35924661 -0.36286151 1.018826
-0.25801519 -0.3385711 0.76621437
-0.35024881 -0.35999411 0.93060052
-0.33740559 -0.3756263 1.047667
-0.30226439 -0.4585098 1.070623
-0.3308304 -0.20118681 0.97044408
-0.37276989 -0.50571388 0.93810087
-0.26437911 -0.4835062 1.080003
-0.28942251 -0.44950211 1.073727
-0.081408709 -0.1834534 1.06581
-0.018779639 -0.2073064 1.074941
-0.09105444 -0.180581 1.0609421
-0.37072551 -0.50671858 1.058984
-0.32461199 -0.1968465 0.91446233
0.081142493 -0.50104398 1.1375591
0.057906751 -0.1848329 1.049149
0.059786201 -0.1938426 1.0262229
0.1119717 -0.41360921 0.9596712
0.105088 -0.34018499 0.81199157
0.1213793 -0.39543211 0.90227449
0.084689438 -0.36340991 1.061044
0.086622 -0.3882086 1.06506
0.082717746 -0.2017065 0.93393242
0.062076271 -0.3188881 1.09584
0.1167239 -0.37564489 0.91612089
0.059878409 -0.33849621 1.033505
0.1070591 -0.49126151 1.063926
0.1071885 -0.49282879 1.059276
0.09402436 -0.35698879 1.016
0.1059111 -0.3812114 0.96373028
0.097594649 -0.37294769 0.99689609
0.1240863 -0.4043889 0.86410081
0.057961579 -0.34089741 0.9828248
0.085729539 -0.39738131 1.0701391
0.074278891 -0.20485289 0.97536057
0.05689228 -0.18422019 1.053774
0.038252231 -0.31434071 0.81468379
0.075658977 -0.1854759 0.95353311
0.02120292 -0.2855331 0.8175326
0.01889205 -0.2854974 0.82080919
0.092897236 -0.46630681 1.097038
0.068200767 -0.32242131 1.0695291
0.033886731 -0.33705491 0.89962322
0.1184929 -0.42386901 0.92770863
0.13452481 -0.40025091 0.84948027
0.1206818 -0.4964956 0.93558639
0.1080042 -0.38351971 0.92581439
0.1185086 -0.43199161 0.92319101
0.03850821 -0.2653189 0.81004691
0.1162359 -0.37659651 0.91299528
0.1086942 -0.44412649 0.9708491
0.084813707 -0.36474079 1.062382
0.094504647 -0.1933223 0.84342521
-0.01436877 -0.26882321 0.84362942
-0.018473029 -0.31770539 0.84542829
0.095463403 -0.3589367 1.015928
0.1182845 -0.3393338 0.78140652
0.0099570164 -0.31112409 0.83098978
0.0068858862 -0.30610201 0.83047283
0.1050528 -0.44836691 1.0089411
-0.019444641 -0.32316491 0.86563301
0.1208646 -0.3757621 0.8925339
0.0035940411 -0.26168439 0.83187228
0.096252263 -0.1847818 0.82914537
-0.01720256 -0.31981641 0.84942341
-0.02472103 -0.3288517 0.86981207
0.02926439 -0.3257412 0.82653159
-0.015658321 -0.29115149 0.84592527
0.04802233 -0.33922669 0.96315563
0.063406527 -0.40654969 1.125686
0.072058618 -0.4812808 1.1346281
0.039130449 -0.18573751 1.0866621
0.07711637 -0.2768347 0.77719599
0.1120288 -0.27788219 0.75897503
0.034002662 -0.24288709 0.80885708
0.04063702 -0.31634 0.81225628
-0.032139361 -0.31801209 0.91122472
0.073536277 -0.2004177 0.96866488
0.1343064 -0.37995109 0.8105756
0.128906 -0.39467949 0.85931838
0.054428641 -0.3414951 0.98888528
0.1525017 -0.42314059 0.7490353
0.12533469 -0.33250409 0.75249851
0.01485276 -0.24946479 0.98643768
0.083548307 -0.2446942 0.78071922
0.085658908 -0.41461459 1.070944
0.15197919 -0.49767721 0.81026667
0.083164811 -0.2475009 0.77682233
0.074952483 -0.36408681 1.095654
0.13378569 -0.46523061 0.86199409
-0.029566821 -0.32659271 0.89608759
0.061601639 -0.31331441 1.07082
0.1397396 -0.38503411 0.80603528
0.08568722 -0.45726651 1.102699
0.094677627 -0.48320881 1.086158
0.1012633 -0.4225792 1.013091
0.1557844 -0.4840464 0.79650772
0.088610768 -0.46118221 1.0950921
0.1374356 -0.36763099 0.79543829
0.091730237 -0.4758136 1.086791
0.086653709 -0.4657616 1.1028759
0.12619691 -0.5034095 0.93172032
0.1429811 -0.4603996 0.83391201
0.13919351 -0.45847851 0.84802723
0.1507137 -0.4791832 0.80102122
0.13120189 -0.3838793 0.82069528
0.090070777 -0.43323129 1.068949
0.1268146 -0.47307721 0.89990658
0.1322279 -0.37049669 0.80773771
0.06177783 -0.32316941 1.081535
0.096428812 -0.4841235 1.062369
0.077611089 -0.38710329 1.105161
0.082292907 -0.43966171 1.1106679
0.1080736 -0.45494819 0.99196929
0.057797369 -0.33920899 0.95799959
0.086218417 -0.42528811 1.064966
0.09028554 -0.43830341 1.0657181
0.083663642 -0.4133836 1.086821
0.1415834 -0.42494401 0.82019311
0.067702591 -0.46818799 1.133711
0.05745 -0.27154741 1.054703
-0.031250302 -0.32378429 0.90832329
0.1085879 -0.34381911 0.7755999
0.1356567 -0.38945121 0.81789267
0.095576413 -0.34131491 0.813012
0.088648498 -0.48115689 1.091493
0.1191952 -0.4740628 0.93979669
0.1246807 -0.47171029 0.91525018
0.1220134 -0.47190931 0.92944008
0.04466695 -0.33595711 0.96052599
0.1262657 -0.45511049 0.90502661
0.1221051 -0.47179121 0.93198448
0.058279991 -0.28158849 1.0618089
0.1043302 -0.1968672 0.83435929
0.03061473 -0.2255746 1.011407
0.1233373 -0.3204149 0.7538619
0.101195 -0.4639436 1.047804
-0.02016389 -0.33425149 0.88370413
0.02980304 -0.3272689 1.001405
0.15521599 -0.42967919 0.76088148
0.090756357 -0.4686465 1.095336
0.1096826 -0.46271479 0.98507649
0.1184619 -0.45470351 0.92996418
0.14834119 -0.3843787 0.74669349
0.112944 -0.47165471 0.95276147
0.01504427 -0.33090401 0.98092538
0.09658742 -0.25187391 0.77467912
0.1260134 -0.255761 0.73561281
0.1203001 -0.2250226 0.74548727
0.1226599 -0.25653201 0.74451882
0.1028796 -0.1992356 0.77680039
0.15677971 -0.49809271 0.78712618
0.13157859 -0.3222456 0.7462821
0.1226331 -0.26286381 0.75283498
0.1132132 -0.27472609 0.7563771
0.128278 -0.4050231 0.85455549
0.1032245 -0.34470591 0.77615207
0.020430271 -0.2458373 0.80183369
0.0024251339 -0.2777501 0.83018398
0.1217366 -0.40157631 0.89378422
0.1113561 -0.39377689 0.93610191
0.0031829481 -0.296471 0.97886819
0.1041757 -0.44312671 1.001563
0.0093061328 -0.27066171 0.98276412
0.12929431 -0.45528659 0.87962788
0.1087638 -0.47066 0.99510312
-0.33338511 -0.49357551 1.076592
0.1357533 -0.34856889 0.69587702
0.1541924 -0.46931931 0.79314739
0.01187402 -0.2745102 0.98346472
0.081067257 -0.39774841 1.085811
0.050826792 -0.30164799 1.044366
0.095706053 -0.19460499 0.84947717
0.04495877 -0.33915681 0.82626992
-0.01352781 -0.29019329 0.84095597
-0.0097145438 -0.2471572 0.95286071
0.095976949 -0.36887911 0.99426758
0.1071021 -0.47865599 1.010568
0.1430043 -0.4649277 0.82192749
0.098006614 -0.191554 0.83396459
0.14569411 -0.37593409 0.7531985
0.088836312 -0.48088709 1.100444
0.091446944 -0.47701561 1.106006
0.0297451 -0.33833709 0.99992222
0.1162708 -0.2284791 0.74078399
0.031796101 -0.3327094 1.008742
0.028716329 -0.26229161 1.009329
0.1275114 -0.47277009 0.89247853
0.080403753 -0.1888957 0.92443562
-0.0069975848 -0.33694679 0.92939073
-0.037102759 -0.30745491 0.89609611
0.1134471 -0.218945 0.71589923
0.1207825 -0.45285431 0.90908378
0.1149444 -0.47369441 0.95344877
0.1112285 -0.47425011 0.97289968
0.1515312 -0.36634061 0.71808767
0.032322939 -0.18350551 1.085786
0.062074721 -0.40132049 1.125628
0.07953757 -0.37005579 1.080521
0.053039908 -0.40257409 1.119426
0.117734 -0.364797 0.89446908
0.094441593 -0.1904435 0.84003907
-0.02936345 -0.3089641 0.87831843
-0.044218719 -0.32145119 0.90723252
0.068899333 -0.1856076 0.95148689
-0.021070961 -0.2497233 0.94961059
-0.017913761 -0.32933271 0.88215238
0.066679947 -0.27422109 0.78918421
-0.0022668841 -0.27008039 0.83187401
-0.01114947 -0.28962731 0.84149539
-0.01134557 -0.26279899 0.84418869
0.02757138 -0.31940261 0.81061453
-0.01996791 -0.3269541 0.84259921
0.01104474 -0.30627209 0.82930499
0.1260267 -0.39677829 0.85028613
0.138685 -0.3884286 0.81548607
0.1226102 -0.3741188 0.83999711
0.13110361 -0.45277679 0.84893823
0.1311001 -0.38428569 0.81678921
0.12652931 -0.4066799 0.84489667
0.13304029 -0.457414 0.84059417
0.13078129 -0.37519169 0.80750948
0.070541263 -0.28080061 0.77727491
0.1325867 -0.3218365 0.74124748
0.1136622 -0.27897859 0.75734532
0.093464203 -0.24917939 0.7679643
0.15012351 -0.37841189 0.71933931
0.031773809 -0.28566971 0.82181418
-0.00321275 -0.31246331 0.84751523
-0.0054046512 -0.2674998 0.84460223
0.12894019 -0.40177751 0.86349863
-0.00763768 -0.28937471 0.84722477
-0.01449943 -0.32263669 0.8644141
-0.02478027 -0.33365849 0.92227352
0.1267093 -0.37335789 0.91696352
0.1297452 -0.4220053 0.92235512
0.12633289 -0.49422929 0.93483108
0.080727518 -0.18527929 0.95175278
0.1073312 -0.3809098 0.92721808
0.077608533 -0.203555 0.97199178
0.020843031 -0.27183601 0.98228258
0.085852318 -0.2013431 0.93294072
0.021107489 -0.2495891 1.000934
0.105439 -0.38204029 0.96567118
0.1175815 -0.44069949 0.97131902
0.076212347 -0.3335135 0.99112028
0.1090266 -0.36586979 0.99791563
0.1114947 -0.4184286 1.014223
0.045320868 -0.32252321 1.0045201
0.1086268 -0.45803481 1.043712
0.068664432 -0.33737919 0.98190677
0.065461278 -0.1863756 1.0453399
0.066198528 -0.1851621 1.049088
0.1145883 -0.4901801 1.054499
0.1160132 -0.48732549 1.059317
0.1169319 -0.45838231 1.010316
-0.020802859 -0.32600269 0.89563912
0.069082923 -0.3106541 1.0681601
0.086523287 -0.3642799 1.057772
0.038188521 -0.2277822 1.007503
0.038190901 -0.2603974 1.007017
0.073509753 -0.32168341 1.06795
0.09927249 -0.46407029 1.09322
0.06691128 -0.27055851 1.0535769
0.071140468 -0.4648031 1.129131
0.072450042 -0.40012971 1.122898
0.02702963 -0.2466052 0.98591608
0.0070971251 -0.29958859 0.97824419
0.093702443 -0.39524731 1.0713969
0.094831049 -0.40871379 1.071944
0.066454411 -0.27267271 1.072578
0.089476287 -0.4552651 1.098763
0.091771781 -0.3862597 1.0618041
0.04525942 -0.18401439 1.083271
0.1235984 -0.40732029 0.96432281
0.039499339 -0.3356038 0.89929348
-0.01310205 -0.25206009 0.94522607
0.079188637 -0.40944219 1.070098
-0.022708301 -0.4806557 1.134549
0.08229059 -0.4096916 1.1068521
0.093912542 -0.43141431 1.06326
0.093043447 -0.43309721 1.107576
0.063931473 -0.33776969 1.031641
0.070985667 -0.40483311 1.122359
-0.022353411 -0.3066293 0.87825263
-0.0077592731 -0.33049369 0.88629961
0.072196782 -0.22929551 1.064841
0.097604632 -0.42373171 1.102556
0.1019713 -0.43459699 1.0655
0.081885219 -0.50166529 1.13263
0.074537992 -0.2016497 1.018573
-0.3136321 -0.27375981 1.026812
0.072152972 -0.459768 1.129262
0.053987209 -0.30954891 1.100323
0.044654369 -0.25839719 1.011904
-0.01032275 -0.32388899 0.87333751
0.07073307 -0.48414761 1.128155
-0.36038861 -0.50239092 1.065083
0.01068217 -0.2397747 0.97504699
0.081767917 -0.1926119 0.93065947
0.053106371 -0.33623469 0.82833803
0.064202853 -0.18908361 0.94218272
-0.36545631 -0.2160394 1.021551
0.073442072 -0.20432711 0.96613789
0.077180266 -0.2060602 0.97122473
0.0300656 -0.1868335 1.080196
0.07674405 -0.203859 0.92626607
0.032504141 -0.2286603 1.007821
0.036977232 -0.2451878 1.087024
0.06000584 -0.3273536 1.064435
0.063453078 -0.46976271 1.129315
-0.0086538792 -0.40747231 1.114727
0.056521829 -0.40900511 1.119557
0.08283478 -0.47390801 1.090638
0.057906751 -0.4131653 1.1202019
0.049985591 -0.2748166 1.050784
0.093174517 -0.50379151 1.055443
0.047282871 -0.34478709 1.027748
0.0891473 -0.36042169 1.0117249
0.089658797 -0.43076971 1.003906
-0.19660249 -0.48351341 1.082705
0.094920218 -0.36216611 1.010213
0.055559751 -0.31753069 0.9994517
-0.062969923 -0.5033983 1.1245821
-0.034854889 -0.3195402 0.90904152
0.029383181 -0.26417789 1.005833
0.1051348 -0.4649905 1.005026
0.1150425 -0.42780229 0.92358989
0.044616818 -0.3013368 1.035625
-0.1688346 -0.33055609 1.046093
0.1070588 -0.44700021 0.96658832
0.1030833 -0.45654339 1.005546
-0.34074929 -0.29064041 0.99419922
0.04442108 -0.2355561 1.0539171
-0.002047658 -0.3010157 0.97537732
-0.03910077 -0.33153391 0.88882428
-0.01383471 -0.33615351 0.88113987
0.1050778 -0.3837212 0.91238081
0.1211406 -0.4982079 0.93124181
0.1225135 -0.5069117 0.92568803
0.1226864 -0.40621719 0.86011833
-0.019426471 -0.2709001 0.84086388
0.12552691 -0.47558501 0.88799578
-0.028188881 -0.32978991 0.85956597
0.093098521 -0.18718401 0.82594359
0.094038069 -0.1943154 0.83747458
0.1284166 -0.4107579 0.85034001
0.087206721 -0.34377629 0.79792309
0.084272332 -0.1773767 0.84659863
0.033338308 -0.32097161 0.80617738
-0.036793169 -0.31515181 0.87464547
0.1091688 -0.34573281 0.77485508
0.091441333 -0.2006295 0.82684112
0.08693862 -0.3452723 0.80442637
0.1314037 -0.3725439 0.7898013
0.1303519 -0.3945623 0.8112514
0.1429746 -0.4717041 0.8173368
0.1261916 -0.40783599 0.84142798
0.1299877 -0.3862572 0.81482369
0.1304163 -0.37551951 0.80297822
0.1230343 -0.4771862 0.89570868
0.14808419 -0.38092121 0.71584582
0.15043101 -0.4943575 0.80819458
0.1058894 -0.2026083 0.77510321
0.1224121 -0.4635078 0.88927102
0.112439 -0.19103821 0.74366337
0.12916221 -0.4474318 0.84867948
0.1493589 -0.38599631 0.7435115
0.1124345 -0.38730901 0.91040492
0.087162733 -0.20237841 0.85066241
-0.017769869 -0.3211664 0.84265429
-0.037120581 -0.3316516 0.89080107
0.1095113 -0.19618919 0.75871378
0.1461338 -0.43761441 0.75492179
0.1247136 -0.4093734 0.83796197
0.1089092 -0.2025032 0.76139772
0.1191119 -0.47554639 0.92347431
0.028209809 -0.33658341 0.84509462
-0.036136448 -0.323001 0.90507108
0.1362545 -0.47624281 0.84294993
-0.032492761 -0.3214899 0.89635497
0.1089067 -0.38669351 0.90290117
0.1116043 -0.1866145 0.74188203
0.1128606 -0.1946691 0.74020982
0.1289743 -0.38130829 0.8107307
0.1246539 -0.3525123 0.75357521
0.1439032 -0.3816075 0.74640208
0.091170102 -0.1935433 0.83076018
0.14418609 -0.37885511 0.7417419
0.15679321 -0.4334498 0.70019883
0.15162399 -0.45405489 0.7457338
0.046050671 -0.34611359 0.95295721
-0.026470721 -0.3295655 0.91507113
0.14878599 -0.37276071 0.71850598
-0.02445686 -0.34364519 0.88727748
0.1196043 -0.4775227 0.90974408
-0.1048245 -0.1798047 0.73637748
0.1309184 -0.37415159 0.79133201
-0.022640411 -0.1779096 0.69308352
0.1416278 -0.37940001 0.74917108
0.1308348 -0.48312151 0.87041092
0.15824179 -0.4620859 0.72772592
0.1450936 -0.4010841 0.69054878
0.1048885 -0.35011229 0.79447728
0.153933 -0.44504961 0.68805927
0.1475648 -0.37346289 0.71361661
-0.020799519 -0.33283111 0.87411922
0.02393293 -0.33423311 0.84510332
0.12628099 -0.30116731 0.70884782
0.088158756 -0.1985447 0.84401268
-0.01145571 -0.26546919 0.83828789
0.02573091 -0.34236151 0.89557612
0.1199492 -0.40276721 0.85081339
0.1272433 -0.41227451 0.85020292
-0.2302659 -0.29000509 0.63034147
0.047219928 -0.19125099 0.68901342
0.124885 -0.32879761 0.74129808
0.1051002 -0.28217369 0.75559193
-0.098261483 -0.40933481 0.62408042
0.117136 -0.25514659 0.71771717
0.133688 -0.46445391 0.66772407
0.01281267 -0.26413631 0.8201378
0.1250755 -0.38858339 0.80632401
-0.020224569 -0.1776031 0.75694692
0.083253004 -0.29313919 0.7730509
0.084810823 -0.38067821 0.6654315
0.1360555 -0.4681614 0.82854807
-0.2691119 -0.2879948 0.62259817
-0.21893419 -0.46009469 0.57567269
-0.03808469 -0.31002501 0.89256078
-0.058684289 -0.1783116 0.77912003
-0.2421885 -0.465985 0.5799185
-0.1484042 -0.1766687 0.81323582
-0.1106562 -0.17918091 0.88803422
0.08486557 -0.34981149 0.78819919
0.02377921 -0.2517373 0.80882323
0.1149083 -0.26899251 0.74851942
0.047331989 -0.3368915 0.82818162
0.02745926 -0.3432906 0.8577143
0.1475931 -0.4121719 0.69031328
-0.20780221 -0.39184779 0.60467142
0.090379857 -0.48736289 0.65363932
0.016718511 -0.37644619 0.65470338
-0.13565581 -0.4110207 0.61713457
-0.062461141 -0.4814198 0.62441063
-0.05823851 -0.50144768 0.62197739
-0.1518763 -0.39811641 0.6115557
0.1438715 -0.38178289 0.7244994
-0.076671958 -0.40363571 0.63155907
0.1340511 -0.34872249 0.69299883
-0.04928714 -0.43369779 0.6337955
0.096512623 -0.4766131 0.65934902
0.061227862 -0.46920371 0.65027648
0.1172997 -0.45635471 0.92354661
0.082446158 -0.39670041 0.67075229
0.1004138 -0.34284699 0.78167528
0.1118979 -0.2060691 0.74808037
-0.01538885 -0.1767958 0.69248492
0.1686309 -0.50420833 0.68214172
0.1526437 -0.408602 0.69087648
-0.07887882 -0.17706271 0.73934633
0.121526 -0.2661511 0.74722958
0.1269339 -0.2584044 0.72981298
0.16042981 -0.4280608 0.7579633
0.1212574 -0.2570194 0.74011052
0.1268243 -0.32506889 0.7421093
0.1131132 -0.34320369 0.77433592
0.1190007 -0.3938936 0.8089503
0.1179869 -0.2502448 0.74486458
0.087893307 -0.29368651 0.77215987
0.13271999 -0.31087509 0.74433899
-0.01078713 -0.31630889 0.84225267
0.1421161 -0.45567009 0.84042931
0.091320217 -0.34459069 0.80474633
0.1370907 -0.40093359 0.84044617
0.1081751 -0.1996318 0.77460289
-0.01408869 -0.2698037 0.8401829
0.099895239 -0.1853095 0.82442272
-0.02866197 -0.31287929 0.87547928
0.098735392 -0.193257 0.83774889
0.13380811 -0.40653339 0.84901279
0.137409 -0.3811442 0.80565637
0.1135609 -0.27830571 0.75502241
0.081483006 -0.2798351 0.7791028
-0.02138317 -0.3276014 0.91081029
0.067352653 -0.2757163 0.78772682
0.035384949 -0.24749041 0.80759323
0.112838 -0.27492091 0.75000441
-0.0172376 -0.3344672 0.88015783
0.01177102 -0.31116661 0.82765877
0.1290153 -0.4020738 0.85933572
0.135603 -0.34476751 0.75232297
0.155564 -0.43311089 0.71688402
-0.12743001 -0.1688305 0.73637998
0.1028063 -0.1924946 0.84107029
0.1310105 -0.4049648 0.85061729
0.037199799 -0.3191621 0.80621588
0.096806467 -0.1743391 0.72310197
0.0067799091 -0.31838971 0.82682788
0.041033451 -0.26932001 0.80270129
0.038049102 -0.3355833 0.89329141
-0.033001959 -0.3167513 0.90827483
0.02003956 -0.28754091 0.81544143
0.079509079 -0.2464992 0.7737329
0.1224748 -0.49796179 0.93213439
0.1082586 -0.2648634 0.76140708
3.4511089e-05 -0.26826659 0.82715279
-0.01212984 -0.32737729 0.84977221
0.00078856951 -0.26469749 0.95195383
0.081859767 -0.20181639 0.92579442
0.083670318 -0.2737408 0.77455461
0.1167543 -0.36884099 0.89092797
-0.01936942 -0.29569489 0.84222972
0.017172931 -0.1746165 0.7773062
0.099261761 -0.38755399 0.95752883
0.129667 -0.396516 0.84890407
0.1133177 -0.1857447 0.71158397
0.16030879 -0.44433871 0.68930572
0.1218798 -0.4499855 0.94766319
-0.033453699 -0.3043721 0.89520109
-0.0025662179 -0.26753089 0.94487357
0.1058859 -0.2024788 0.84168118
0.1239027 -0.46689051 0.94862598
0.12851571 -0.46769461 0.92402542
0.1148183 -0.4122107 0.95264691
-0.002584755 -0.2477438 0.94952393
0.1416579 -0.46780449 0.81682551
0.1141413 -0.2488019 0.74937981
0.1195738 -0.39944249 0.8950597
0.1318415 -0.4269886 0.85145319
0.099120803 -0.3866775 0.92354631
0.1402857 -0.37133449 0.6856842
0.077075303 -0.1943448 0.92836189
0.001978874 -0.33729589 0.89708519
0.016442889 -0.3358106 0.87509102
0.03308326 -0.33256081 0.84351301
0.051630199 -0.343925 0.9479562
0.037400842 -0.1760267 0.9798466
0.028056741 -0.31810179 0.80590719
-0.027451569 -0.1726471 0.79464698
0.1421023 -0.47031999 0.84132612
0.14713261 -0.37876531 0.74553072
0.03270036 -0.24350619 0.79512739
0.091909774 -0.36127621 1.012475
-0.0302037 -0.3314279 0.8932969
0.06360358 -0.32594249 1.065847
0.087382667 -0.47234061 1.090225
0.025175329 -0.3315838 0.99608141
0.04252791 -0.2433044 1.089641
0.05685997 -0.32120121 1.091837
0.06021655 -0.40772939 1.119796
0.080499947 -0.40315041 1.067147
0.006917953 -0.2771351 0.97583079
0.082946964 -0.41642511 1.066479
0.05545086 -0.27659649 1.070513
0.052992109 -0.34448689 1.025902
-0.019605281 -0.33689249 0.87935948
0.053935532 -0.1951955 1.026791
0.067242682 -0.46918231 1.129264
0.069510341 -0.40557271 1.126538
0.067296453 -0.4632408 1.1287169
-0.1930843 -0.33489799 1.0366451
-0.25511441 -0.31290761 1.009433
0.049045861 -0.1830759 1.090867
0.04835039 -0.236816 1.092517
0.1045477 -0.49569491 1.0571851
0.03534371 -0.2272054 1.012745
-0.02211237 -0.3177411 0.91195291
0.1248764 -0.44178611 1.021805
-0.0077008009 -0.1916458 1.086856
-0.0046839709 -0.16807771 1.00192
-0.29485679 -0.50076258 1.0764329
0.079968967 -0.40863109 1.078041
0.1065257 -0.42070001 1.015007
-0.1642898 -0.20282909 1.049159
-0.150309 -0.33855861 1.063689
-0.002586842 -0.3365142 1.1014889
-0.054088712 -0.50084883 1.1272711
-0.3161616 -0.25270331 1.022756
-0.02664119 -0.2826876 1.0737621
0.059600499 -0.2076546 0.94858992
0.16028149 -0.42750499 0.84695178
-0.15240359 -0.17346761 0.80324531
0.0350453 -0.31121591 0.81949377
0.1163349 -0.40759221 0.87994778
0.094826728 -0.42892781 1.002365
-0.0031506419 -0.1742686 0.85024631
0.1112868 -0.37617499 0.89264083
0.143985 -0.42226419 0.79791868
0.086020693 -0.36718619 1.004021
0.054922219 -0.34047261 0.97959071
0.13660599 -0.45644251 0.79870152
0.1020487 -0.38361219 0.92450827
0.080623642 -0.39274171 1.062158
0.1200102 -0.32587069 0.73792922
0.13885359 -0.34021771 0.69198787
0.089270301 -0.35133049 0.80701071
0.1093292 -0.4330253 0.94385231
0.1354171 -0.4700858 0.80529708
0.091166511 -0.25210199 0.76560229
0.071859211 -0.1933715 0.92486292
0.01289169 -0.17904191 0.88481802
-0.1343125 -0.17385019 0.90482908
0.01845674 -0.34145239 0.83798778
0.062744722 -0.16589139 0.79312229
0.073051542 -0.2833527 0.77031821
0.1069258 -0.1934641 0.74651968
0.065708473 -0.1877559 0.9424603
0.03336041 -0.3156606 0.8103705
0.1073455 -0.28170139 0.74670893
0.087032378 -0.19776189 0.83309609
0.1085695 -0.383901 0.90068609
0.1077472 -0.34484169 0.76881498
0.1092082 -0.41493079 0.95483887
0.1033768 -0.49665949 1.051084
0.096618123 -0.4672699 1.040345
0.03676888 -0.32883361 0.81853431
0.094180226 -0.46946001 1.0364569
0.1079076 -0.4714714 0.99197662
0.079904318 -0.182245 0.74493349
0.1307832 -0.37117001 0.78355402
0.1136577 -0.50532311 0.90844887
-0.033569191 -0.1763266 1.0023021
0.034745868 -0.1764404 0.74849659
-0.1031943 -0.1782614 0.70827132
0.098470539 -0.2019607 0.76145887
-0.01576549 -0.1774101 0.99277318
0.096166357 -0.1988769 0.81021827
0.081626877 -0.2975108 0.76932049
0.054888371 -0.34105131 1.030863
0.1179608 -0.5021674 0.9313246
0.1070378 -0.4680154 0.97483468
-0.001810014 -0.31399301 0.81308949
0.07765238 -0.2476138 0.77138561
0.082819909 -0.47817811 1.0860879
0.065326042 -0.46437049 1.128145
-0.023972809 -0.3462314 1.085839
0.065236032 -0.47005069 1.129072
0.1025362 -0.4517096 0.96276861
0.064692482 -0.49025649 1.1272399
0.1008992 -0.178904 0.71684361
0.1184707 -0.31549829 0.73247212
0.082759991 -0.3381916 0.77714157
-0.049811181 -0.1750409 0.95989662
0.1022997 -0.46184251 1.007489
0.077080064 -0.4437761 1.101295
0.082737088 -0.2894164 0.76612329
-0.17298131 -0.34244931 1.0297461
0.072231993 -0.38254529 1.06451
-0.01109132 -0.3561517 1.093815
-0.16344 -0.1740033 0.94611228
0.1087766 -0.42118749 0.94199079
0.1314225 -0.43948239 0.84966481
0.1097988 -0.41374111 0.89040828
0.070120201 -0.34280819 1.057088
-0.05457272 -0.3670294 1.106688
-0.1026212 -0.3841086 1.092784
0.037946191 -0.3442024 0.81669182
0.086703733 -0.25850511 0.76609039
0.1198406 -0.3259109 0.73765808
0.06300512 -0.27601889 0.77956718
0.14628939 -0.396714 0.73600382
0.1415832 -0.4203777 0.81759799
0.12843309 -0.3970722 0.80341381
0.1377099 -0.41926011 0.79251772
0.1343867 -0.32043579 0.72619379
-0.001726896 -0.40209931 1.11763
-0.1701638 -0.3433902 1.056828
0.080572687 -0.1733133 0.85363758
-0.02551684 -0.1755258 0.98838389
0.059352349 -0.33905271 0.84949982
0.036060039 -0.30254051 0.80655092
0.0880097 -0.30963489 0.75182641
-0.2225208 -0.3402501 1.0061409
-0.26851761 -0.1741028 0.96002382
0.1078338 -0.47838101 0.96381539
0.061494231 -0.32742921 1.0350651
-0.01390928 -0.34811491 1.1053931
0.1139395 -0.482876 0.92062563
-0.0088913739 -0.3637931 1.111342
-0.2682007 -0.1841211 0.6713475
-0.05668455 -0.34560981 1.070189
-0.1795388 -0.17890359 0.90386271
-0.1455301 -0.34137249 1.052801
-0.1856003 -0.18482099 0.90292293
-0.189595 -0.1735608 0.91571838
-0.25358921 -0.1765554 0.99571061
-0.1714689 -0.1730265 0.94155532
-0.01208156 -0.1742902 1.006933
-0.33870661 -0.2405109 1.012532
-0.36470661 -0.38739049 1.02493
-0.0097541809 -0.34555289 1.092369
-0.024455789 -0.3392067 1.078246
-0.1135889 -0.178468 0.85861278
-0.3825193 -0.50081092 1.04976
-0.083494537 -0.1725172 0.73605782
-0.1335115 -0.1738271 0.89859933
-0.37522539 -0.45576841 1.036472
0.034274161 -0.1742508 0.90778983
-0.1215496 -0.1756119 1.013013
-0.24092799 -0.17308471 0.75129741
-0.1085873 -0.1735892 0.99175298
-0.2266977 -0.17633501 0.67585027
-0.1158654 -0.1828631 0.98383027
-0.38168979 -0.49382451 1.043285
-0.089863896 -0.178151 0.69840473
-0.27883321 -0.1749422 0.9475531
-0.065239847 -0.1743788 0.75541729
0.67084521 -0.31281209 0.3746385
0.01345861 -0.1738131 0.77892393
-0.33011019 -0.2028413 1.00792
0.0026362541 -0.17560069 0.8856988
-0.29081741 -0.34417689 0.79882783
-0.1059459 -0.16458941 0.74034113
-0.091613829 -0.1698553 0.88460338
-0.3633351 -0.3833791 0.96800011
-0.043113109 -0.1753855 0.99087578
-0.3241418 -0.35030839 0.82284617
-0.119963 -0.17656089 0.75728881
-0.1047865 -0.1711563 1.0112979
-0.1238169 -0.1750176 0.96736848
-0.04213303 -0.17653561 0.78156942
-0.29158249 -0.34187919 0.78347468
-0.1192943 -0.1670687 0.78099912
-0.3657991 -0.46924621 0.91791898
-0.2042473 -0.1727138 0.7796219
-0.2711556 -0.3418563 0.6917187
-0.065593183 -0.17311481 0.97327399
-0.043059532 -0.1733146 0.83652788
-0.2396351 -0.17326391 0.725196
-0.28313881 -0.34312269 0.8316952
-0.32360399 -0.193216 0.95868361
-0.2172309 -0.17223071 0.94596839
-0.36671269 -0.44535881 0.97913218
-0.05508941 -0.49051899 1.122798
-0.1023255 -0.17225011 0.79239422
-0.096265607 -0.17665111 0.74501932
-0.25586051 -0.40411761 1.063895
0.045132399 -0.3515659 1.112347
-0.1808375 -0.1731365 0.80771607
-0.31828779 -0.1716321 0.9979881
-0.27464429 -0.1814196 1.028327
-0.2177771 -0.34086609 0.77976131
-0.3057121 -0.1862139 0.830585
-0.33200529 -0.35415959 0.85052657
-0.33593011 -0.34815341 0.83097231
-0.29099119 -0.34364921 0.79154342
-0.091206253 -0.1724665 0.88876271
-0.27631131 -0.171248 0.94160569
-0.33924419 -0.21491051 1.001496
-0.3534615 -0.41700599 0.88833129
-0.35948741 -0.3660295 0.96152598
-0.1423595 -0.175915 0.75753123
-0.32524899 -0.44600239 0.75651008
-0.2737194 -0.3364673 0.73919988
-0.2178406 -0.1745726 0.74169409
-0.26923761 -0.33904669 0.69031608
-0.33129281 -0.4432264 0.78522962
-0.2404737 -0.1729223 0.7491594
-0.1162032 -0.1733882 0.73006952
0.0109936 -0.17493869 1.043322
-0.3755489 -0.42593661 1.0128061
-0.26104429 -0.329698 0.69564128
-0.32479969 -0.1972858 0.92732853
-0.2536428 -0.3423436 0.72423488
-0.1207488 -0.1759416 0.91211241
-0.2736963 -0.33328801 0.89232183
-0.3559612 -0.32160929 0.99812973
-0.3040148 -0.32752979 0.82438707
-0.27841631 -0.3450017 0.7431702
0.53024137 -0.30544811 0.79569042
-0.3752887 -0.4154878 1.000937
-0.13418689 -0.1770037 0.8141526
-0.3456839 -0.42280859 0.87312371
-0.2422372 -0.3364515 0.77656841
-0.3339673 -0.50375408 0.75979412
-0.3220529 -0.2005564 0.90925872
-0.36221299 -0.46470061 0.90540892
-0.33541399 -0.46784419 0.77479142
-0.33346131 -0.47345331 0.79642189
-0.3183004 -0.17174441 0.99095792
-0.30208209 -0.35955989 0.70069063
-0.2890842 -0.1839779 0.72732317
-0.2566126 -0.33492041 0.7139107
-0.23788109 -0.1720361 0.93454778
-0.32120231 -0.46187711 0.71886051
-0.37009531 -0.4579407 0.91701049
-0.37718201 -0.43889949 0.97023958
-0.2539199 -0.34013629 0.76999903
-0.312599 -0.33891511 0.92394751
-0.32343751 -0.44845271 0.75620252
-0.32540289 -0.45355639 0.78376973
-0.34259471 -0.47279751 0.82730281
-0.37063321 -0.45502341 0.96213871
-0.33025569 -0.48438871 0.7416563
-0.3535535 -0.467767 0.87355697
-0.33999899 -0.46826991 0.79938549
-0.1972014 -0.1708855 0.78142351
-0.35491729 -0.37103879 1.02064
-0.3491047 -0.38386759 0.91775268
-0.3174246 -0.40979791 0.73529851
-0.33603901 -0.25202659 0.97214109
-0.33767271 -0.49147451 0.75348592
-0.31526119 -0.3375842 0.94800872
-0.3525925 -0.37466091 0.91539788
0.040049609 -0.3298685 1.110096
-0.33538201 -0.19902501 0.97481072
-0.32108721 -0.3461915 0.73561841
-0.33514449 -0.1836296 0.95101792
-0.25748089 -0.3318831 0.81581593
-0.29842919 -0.1903099 0.82954419
0.55946958 -0.3381649 0.46423689
-0.2243824 -0.3331649 0.83746052
-0.2182633 -0.29590759 0.77288699
-0.30904719 -0.1999153 0.82299769
-0.32197869 -0.49463961 0.66982311
-0.32598951 -0.48376659 0.69025868
-0.37069011 -0.40953761 1.02551
-0.3811585 -0.4732396 1.036738
-0.37327191 -0.41211411 1.021216
-0.37734249 -0.44482201 1.036965
-0.36943111 -0.40608129 1.004318
-0.2412886 -0.30302301 0.76347768
-0.2818518 -0.1748406 0.86513299
-0.38073599 -0.38308561 0.94252902
-0.08736825 -0.1699838 0.99664128
-0.33184189 -0.2133007 0.97634959
-0.23061091 -0.2784805 0.73292732
-0.1700314 -0.1726549 0.9315508
-0.35065621 -0.28060579 1.008094
-0.20647439 -0.30921599 0.7915507
-0.35655969 -0.47173631 0.88857001
0.054417972 -0.1719436 0.77520192
-0.35213819 -0.2905125 1.0085239
-0.3404606 -0.45593989 0.82619721
-0.31592259 -0.22874971 0.95088673
-0.32978681 -0.38427809 0.8217662
-0.37245959 -0.39116579 1.003002
-0.38885221 -0.50427639 1.03599
-0.1953595 -0.1795931 0.9117974
-0.37260559 -0.3436721 0.99294323
-0.3666929 -0.35608789 0.98823708
-0.059913222 -0.1722765 0.77090847
-0.36750939 -0.35933089 0.99793857
-0.33470151 -0.38440979 0.85029012
-0.063373864 -0.17859121 0.84664369
-0.2290439 -0.2926738 0.75600988
-0.13560849 -0.1712056 0.73144788
-0.36100999 -0.3319115 1.014279
-0.33862329 -0.4503938 0.79963219
-0.27775481 -0.2071764 0.70651102
-0.031711701 -0.1756327 0.80127132
-0.124525 -0.1705016 0.79950237
-0.34762171 -0.33296719 1.027336
-0.36136341 -0.37493399 0.97131318
-0.21663199 -0.30827621 0.77411091
-0.078512907 -0.16914301 0.98090798
-0.18665829 -0.1737203 0.93223858
-0.33654559 -0.2194895 0.96885657
-0.31407249 -0.36515701 0.66611302
-0.246435 -0.1758848 0.94730628
-0.26108199 -0.32914829 0.82115322
-0.2474495 -0.27296719 0.73004472
0.052815851 -0.1808666 0.72400808
-0.300892 -0.2361849 0.9481073
-0.0086731911 -0.17284051 0.84879547
-0.34641689 -0.27660471 1.016631
-0.3803086 -0.4657236 0.99550313
-0.3326169 -0.26771319 1.018066
-0.2416046 -0.3307682 0.86263162
-0.1299191 -0.17762449 0.88107789
-0.3070192 -0.28845131 0.95436198
-0.2333367 -0.2958155 0.75570953
-0.1241845 -0.1716994 0.96013469
-0.1095689 -0.17804401 0.67749327
-0.3390474 -0.34012201 0.95046192
-0.37060821 -0.46339449 0.96945947
-0.30093399 -0.337163 0.88765937
-0.39393911 -0.49218941 1.013523
-0.31655589 -0.33336571 0.94051981
-0.22454061 -0.32881269 0.76386678
-0.33579379 -0.35206491 0.95604062
-0.312213 -0.34781641 0.74224138
-0.30391711 -0.18763161 0.80715549
-0.2099925 -0.29654029 0.78454751
-0.30087581 -0.18348341 0.82048088
-0.28137821 -0.19929931 0.68597078
-0.3639912 -0.45670551 0.95384681
-0.01439393 -0.1728328 1.0113569
0.038813591 -0.1697828 0.99066889
-0.30152139 -0.17509221 0.72992009
-0.28235319 -0.34993431 0.69342422
-0.053118769 -0.1732676 0.77922642
-0.3252041 -0.34140179 0.73464638
-0.29809141 -0.33531231 0.7212531
-0.31267741 -0.50405091 0.65914333
-0.3243067 -0.33260739 0.91955918
-0.29183599 -0.3379544 0.89614248
-0.32042801 -0.4726238 0.69062012
-0.34002891 -0.46438611 0.82086211
-0.3386474 -0.2037816 1.0110739
0.022109451 -0.18087479 1.075199
0.0283792 -0.35333779 1.108672
0.044236839 -0.1749938 0.96075171
-0.3403056 -0.24382991 1.012952
-0.34432659 -0.32529971 0.9817664
-0.3827568 -0.47660789 1.036832
-0.33859649 -0.27078709 1.020759
-0.37626001 -0.39841709 1.01317
-0.29678771 -0.1760902 0.92395288
-0.30301401 -0.33578539 0.83878362
0.044887599 -0.1840042 0.94228238
-0.31512231 -0.2858668 0.95063722
-0.2321009 -0.168585 0.73524302
0.0099431872 -0.2249382 1.0848089
-0.31422341 -0.3328346 0.70191509
-0.35291359 -0.45754021 0.8793931
-0.33139271 -0.46275771 0.73635232
-0.31571889 -0.18951569 0.82780308
-0.2708253 -0.18001489 0.82383871
-0.2926513 -0.31613329 0.94339228
-0.38192549 -0.46499369 0.95700538
-0.1459946 -0.1720918 0.79885602
-0.36815971 -0.42730361 0.96630919
0.02268124 -0.1782811 0.69217861
-0.1956148 -0.32517931 0.82924032
-0.25840539 -0.1838804 1.025824
-0.25592631 -0.33109939 0.86572999
-0.1086461 -0.1718556 0.86289752
-0.2687057 -0.29602101 0.92027009
-0.33710891 -0.27626511 0.97021818
-0.1035262 -0.16929071 0.84691721
-0.1200864 -0.1701083 0.97328818
-0.2376454 -0.33175999 0.89664972
-0.26987809 -0.33820379 0.75763679
-0.1112847 -0.1719476 0.98029298
-0.2472104 -0.2914131 0.90352339
-0.22424351 -0.33106411 0.82521611
0.4153392 -0.28567001 0.7453239
-0.25090519 -0.1723652 0.80965167
-0.35097659 -0.41975099 0.88651967
-0.32205829 -0.35026139 0.92795843
-0.3065916 -0.2010735 0.82508302
-0.27680671 -0.34430349 0.79812747
-0.14432991 -0.17572971 0.9806127
-0.2923024 -0.37147781 0.62464339
-0.3007589 -0.1924817 0.8315801
-0.29175389 -0.34942919 0.6388061
-0.26537019 -0.2306008 0.6386773
-0.2078878 -0.19036029 0.64281583
-0.28152379 -0.43086249 0.59253222
-0.33370829 -0.35322449 0.84380871
-0.27832431 -0.42578799 0.60903329
-0.2928378 -0.43602681 0.60901529
-0.29273751 -0.44546881 0.59853661
-0.336934 -0.2669892 1.0096411
-0.1931535 -0.49939111 0.5931741
-0.24886081 -0.1779616 0.84415197
-0.33822569 -0.2678633 1.019995
-0.1238687 -0.1906521 0.65735322
-0.2195157 -0.39115861 0.60536599
-0.27205729 -0.4380829 0.61014831
-0.1642646 -0.40391541 0.61450177
0.071284853 -0.39646739 0.65840882
-0.0075859618 -0.1751235 0.84517747
-0.26008281 -0.43912971 0.59493119
-0.26219559 -0.23586141 0.63595623
-0.084317513 -0.17268521 0.72348779
-0.26494819 -0.2640551 0.63167632
-0.2684907 -0.26777431 0.63133991
-0.059077341 -0.4842124 0.62742728
-0.2736983 -0.30935419 0.62468338
-0.21141461 -0.390789 0.61187363
-0.1271666 -0.40255269 0.62004232
-0.18319941 -0.34588841 0.6528405
0.0092393272 -0.3739731 0.64757448
-0.27751029 -0.4392764 0.59712791
-0.25880581 -0.39573339 0.60382509
-0.2345722 -0.34867001 0.62923592
-0.25174171 -0.40627241 0.60117728
-0.057952698 -0.41021931 0.64938688
-0.1929979 -0.43993679 0.60210133
-0.19199669 -0.38432369 0.610991
0.02607947 -0.36008999 0.65225142
-0.31436959 -0.41782871 0.70456147
-0.1102869 -0.48725241 0.61123282
0.037088931 -0.2470331 0.718925
-0.123908 -0.4967801 0.60888159
0.051206298 -0.39148501 0.6577239
0.0087140724 -0.34082851 0.68798631
0.039967019 -0.26193529 0.71933961
0.02034067 -0.2795518 0.72982991
-0.057315659 -0.19118731 0.67004669
0.025906989 -0.45995751 0.63977522
0.097252756 -0.36894399 0.66655958
0.04121596 -0.24848691 0.72221398
0.046758909 -0.28928721 0.71010011
0.01449799 -0.20087311 0.68162078
-0.1488812 -0.1898752 0.65339738
-0.042125881 -0.3408291 0.73388642
-0.18212689 -0.45842719 0.59590542
-0.25999749 -0.48289809 0.58901602
-0.1655129 -0.42445269 0.60470212
0.1135432 -0.42755899 0.66346902
-0.1021693 -0.40813199 0.62200832
-0.04915579 -0.45255101 0.63128662
-0.09436658 -0.40908399 0.6243062
-0.1098901 -0.40936089 0.61999112
0.079769723 -0.38193309 0.66172659
0.0071568969 -0.47157201 0.63235933
-0.055181421 -0.49678561 0.62236392
-0.3104724 -0.473391 0.6440534
-0.069424592 -0.49573621 0.62312692
0.1120013 -0.39108941 0.66277522
0.095018342 -0.38402489 0.66491282
-0.064257242 -0.46759301 0.62933248
-0.31302309 -0.3463614 0.70227093
-0.35975149 -0.44864511 0.9122656
-0.3260116 -0.44532391 0.75484371
-0.32188469 -0.4892692 0.65616471
-0.3034938 -0.33727169 0.81686759
-0.2913343 -0.34667689 0.78855008
-0.03907248 -0.1901481 0.6723752
-0.1787385 -0.4144676 0.60695219
-0.30004981 -0.3497645 0.69563782
-0.0066805179 -0.37813431 0.65037721
0.07163503 -0.46115261 0.65209621
-0.2148307 -0.3812393 0.60849088
-0.32820931 -0.47779 0.71831107
-0.31594589 -0.2025324 0.91806638
-0.2324511 -0.50382799 0.59127629
-0.29121259 -0.34358189 0.81215799
-0.2183927 -0.4563036 0.59830338
-0.2903538 -0.33443871 0.82628691
-0.26898599 -0.363648 0.60862899
-0.2446541 -0.36397529 0.60320598
0.024707351 -0.29633549 0.72032791
-0.32696339 -0.4001233 0.73824501
0.048117429 -0.2739448 0.71120411
0.055134062 -0.17473841 0.74236989
0.050554581 -0.1887009 0.68792158
0.05250356 -0.1898865 0.69455272
-0.06147008 -0.18551549 0.66988069
-0.087773196 -0.30228889 0.78804332
-0.032286689 -0.3113018 0.76498258
-0.099944919 -0.3361603 0.75485742
-0.034406211 -0.208106 0.68003958
-0.2459933 -0.29179731 0.61913002
-0.1209008 -0.47754851 0.61596471
0.02313186 -0.44463179 0.64024639
-0.25746679 -0.29230329 0.62079293
-0.3488881 -0.32178459 0.99083579
0.0263648 -0.2589061 0.72951669
0.020166701 -0.30548349 0.72280049
-0.19162001 -0.42357519 0.60255963
-0.2056912 -0.47283641 0.5893327
0.043784801 -0.173732 0.74930322
0.039667841 -0.47341201 0.64009792
-0.35721651 -0.3503418 1.020697
0.1097054 -0.1785858 0.72083658
0.030154379 -0.394198 0.64799488
-0.25142279 -0.49755061 0.58533567
-0.19002379 -0.48862201 0.59523147
-0.073298387 -0.2052072 0.66460317
-0.2689983 -0.38302189 0.59772778
-0.017849689 -0.3894735 0.63996208
0.5511505 -0.50362831 0.97418177
0.1213514 -0.3004705 0.7048623
-0.34674069 -0.312345 1.009392
0.0244292 -0.2888585 0.73068023
-0.071577862 -0.1942651 0.6680311
0.040853981 -0.29326251 0.7223016
-0.23117229 -0.17594901 0.69951522
-0.36975041 -0.47337219 0.96506667
-0.19242311 -0.19771039 0.64310092
-0.025341449 -0.30782619 0.76204181
0.034157999 -0.27462849 0.71683389
-0.087558851 -0.3285073 0.74626511
-0.091916293 -0.29180741 0.7809158
0.077411138 -0.17494839 0.73493779
-0.1830622 -0.50598711 0.5966351
0.1138946 -0.42364019 0.6681757
-0.1615178 -0.42012721 0.60743833
-0.2088462 -0.4557524 0.59550297
-0.1483821 -0.3243714 0.71970153
0.05191439 -0.50031412 0.63816112
0.0752303 -0.4075225 0.65625823
-0.001230508 -0.4458943 0.64677727
-0.098240018 -0.33878821 0.71773827
-0.270408 -0.30249429 0.62131041
-0.26937029 -0.29482901 0.62341791
-0.30696899 -0.3324427 0.71676761
-0.2308487 -0.25203991 0.6398136
-0.2648555 -0.20628481 0.6408357
-0.31308249 -0.34993279 0.78488553
0.01016527 -0.3543829 0.66373217
-0.3019945 -0.34743941 0.69474351
-0.278227 -0.26554951 0.62297201
-0.088873453 -0.33334261 0.7726559
0.020805361 -0.3540113 0.66105562
-0.098059893 -0.1741243 0.87229818
-0.2027951 -0.33799449 0.64954668
-0.074055217 -0.35389411 0.64024132
-0.34038839 -0.42221469 0.82757401
-0.182979 -0.33320639 0.66199869
-0.21520559 -0.29192251 0.62960309
0.1140228 -0.45187929 0.66790372
-0.2866753 -0.41480339 0.60182017
-0.044998258 -0.1836049 0.67388731
0.023277519 -0.3407034 0.67981237
-0.30444631 -0.4308888 0.61942059
0.55329227 -0.50030023 1.006364
-0.095154852 -0.45800021 0.62903857
-0.26352841 -0.3860667 0.59721041
-0.13412049 -0.19897901 0.64603531
-0.31685221 -0.3363893 0.93502998
0.0062049632 -0.2590569 0.73784429
-0.1892886 -0.48686919 0.59134161
-0.1884011 -0.4865309 0.59229022
0.07774891 -0.3813937 0.66153491
0.1139295 -0.42685121 0.66185337
0.109338 -0.42075899 0.65778732
0.13410939 -0.45706609 0.65879828
0.071533881 -0.40421221 0.64769262
0.096307337 -0.38682219 0.67425042
0.01547844 -0.37035969 0.66087729
-0.04415464 -0.38566571 0.64916331
-0.068890586 -0.3629649 0.64199388
0.0083649904 -0.37461671 0.65042531
-0.13089889 -0.3863439 0.62411422
-0.1235826 -0.40060759 0.61622733
-0.1594934 -0.42014089 0.60316497
-0.16376179 -0.42449829 0.60358667
-0.270818 -0.4340544 0.59868008
-0.1718695 -0.2631979 0.6883207
-0.099181563 -0.44538751 0.63090712
-0.1302238 -0.3737548 0.58011931
-0.18770941 -0.43791169 0.59533381
-0.1935312 -0.50063628 0.59722859
-0.078882657 -0.2800653 0.79470283
-0.19948339 -0.2211974 0.6539402
-0.1168985 -0.4726893 0.60942751
-0.1769504 -0.29312971 0.69380349
0.071082532 -0.45879081 0.64871448
-0.105422 -0.49512601 0.62026572
-0.1703774 -0.2023297 0.63888198
-0.2079609 -0.38865459 0.60180491
-0.1766101 -0.48142749 0.59743577
-0.1282649 -0.35066849 0.61687768
-0.037757371 -0.43439159 0.61881453
-0.20355409 -0.1904359 0.64177227
-0.1801631 -0.28006619 0.64440829
-0.241087 -0.27794269 0.5966199
0.050343219 -0.38994899 0.65517849
0.01960686 -0.4481332 0.64806199
0.02342486 -0.29324561 0.71887618
-0.0095503032 -0.3775582 0.65373731
0.093772799 -0.3702313 0.67752522
-0.05873185 -0.47918889 0.61987221
0.065478429 -0.45985049 0.65095001
-0.058416069 -0.1852176 0.67206961
-0.071190447 -0.2047001 0.66634619
-0.1789792 -0.2854276 0.69281828
-0.18507551 -0.25115451 0.68551111
-0.1428252 -0.38388291 0.62388182
-0.1949964 -0.28317899 0.6735633
-0.20057531 -0.28829059 0.66300392
-0.1956422 -0.44593149 0.59918171
-0.1960126 -0.4983238 0.59408998
-0.1994652 -0.45702961 0.59647441
-0.21947099 -0.391974 0.60638469
-0.1794814 -0.45771641 0.5986352
-0.24533761 -0.36428091 0.60540491
-0.24961179 -0.49468109 0.58472788
-0.2209121 -0.487268 0.58068788
-0.1743274 -0.25514051 0.70034021
-0.25808939 -0.4800615 0.58565068
-0.26390481 -0.3786059 0.59362769
-0.2097169 -0.26347011 0.66200811
-0.19072109 -0.42566821 0.60781538
-0.039002419 -0.1899242 0.67597967
-0.1864436 -0.50178182 0.59535831
-0.1563905 -0.44479269 0.6084978
-0.17712361 -0.41330209 0.60391003
-0.2202154 -0.49081531 0.58871722
-0.1469866 -0.20413169 0.65124148
-0.1473863 -0.34939 0.62917727
-0.20160539 -0.25747171 0.66126508
-0.2120707 -0.50611538 0.57502449
-0.22505701 -0.4782283 0.58696091
-0.2201315 -0.32572481 0.62802052
-0.21464691 -0.1878195 0.62843972
-0.2418064 -0.30408821 0.64249313
-0.064598203 -0.1978506 0.67485797
-0.085145868 -0.2045379 0.66163802
-0.052541912 -0.19063459 0.67107528
-0.1645532 -0.2708734 0.70776838
-0.090133756 -0.2005266 0.65855229
-0.12794811 -0.4865731 0.61297762
-0.16506059 -0.2533462 0.72070628
-0.1594009 -0.4042705 0.6150763
-0.13519029 -0.20224459 0.65630871
-0.1647594 -0.42842531 0.60965341
-0.1271691 -0.384471 0.62216628
-0.17824569 -0.26491809 0.69784671
-0.1774133 -0.29313859 0.68926132
-0.1861137 -0.3839947 0.61491758
-0.1445282 -0.3660242 0.62225699
-0.1424063 -0.4908731 0.61237383
-0.2215305 -0.28551689 0.6406132
-0.19096559 -0.2614342 0.67908698
-0.1941877 -0.2821627 0.6766597
-0.16103169 -0.42907321 0.61064279
-0.2110637 -0.45666951 0.59643459
-0.1786093 -0.4063552 0.60758817
-0.1934291 -0.44374871 0.60077912
-0.18986081 -0.4991428 0.59314209
-0.20438769 -0.47499219 0.59375679
-0.02242082 -0.381506 0.64498872
-0.041529 -0.42717129 0.63458872
-0.26836899 -0.4235374 0.59227598
-0.26853439 -0.42766821 0.58694828
-0.1184056 -0.1899271 0.65644151
0.05066514 -0.27363771 0.70865709
0.0105319 -0.3772161 0.65016818
-0.2895909 -0.44321749 0.59539813
-0.26649171 -0.4310559 0.58394921
-0.05169243 -0.3746354 0.63919473
-0.29419741 -0.31792301 0.9405728
-0.29671961 -0.33920631 0.78125191
-0.05739665 -0.48969501 0.62352318
-0.3003957 -0.34304199 0.81816661
-0.2641311 -0.22575261 0.63225383
-0.26577109 -0.26292789 0.62761438
-0.26482481 -0.33747721 0.85500592
-0.1997291 -0.1939052 0.64080048
-0.2810694 -0.19028869 0.72488147
-0.29135111 -0.3454808 0.63277727
-0.33685359 -0.49532139 0.75844932
-0.2663762 -0.1688704 0.8212235
-0.28284791 -0.1871473 0.71769112
-0.30281541 -0.34078991 0.81963968
-0.30299661 -0.34470439 0.7246967
-0.30220449 -0.35288721 0.69689351
-0.32484919 -0.33872589 0.91261393
-0.32440051 -0.44704449 0.75667417
-0.30447289 -0.186345 0.82816339
0.036645468 -0.29190451 0.71826708
-0.28141069 -0.3448886 0.78608692
-0.2869131 -0.33765119 0.89333278
0.01460928 -0.35445371 0.6945504
-0.25034201 -0.33956221 0.81971377
-0.05600965 -0.1768406 0.93818152
-0.079028487 -0.34650481 0.65529448
-0.076594651 -0.4039695 0.63592517
-0.2388868 -0.33706841 0.85577381
-0.02633566 -0.35187009 0.711339
-0.2519246 -0.33846509 0.7323029
-0.2670238 -0.17453881 0.94718683
-0.27501029 -0.2350653 0.66242069
-0.2734158 -0.341582 0.72241342
0.062901743 -0.47665471 0.65975201
-0.33021241 -0.3575809 0.84424919
-0.2257126 -0.340294 0.77351803
-0.2728779 -0.3088752 0.61987299
-0.2679427 -0.33824071 0.88757718
-0.2505537 -0.34170869 0.76627707
-0.062319279 -0.36397839 0.66157663
0.13017949 -0.3603254 0.68863112
-0.32940021 -0.44513249 0.78384298
-0.29236159 -0.34169701 0.79488063
-0.13491531 -0.3734293 0.6245867
-0.198256 -0.34280741 0.63730848
-0.1165512 -0.4088791 0.62449551
-0.084314577 -0.45301381 0.62889361
-0.12523431 -0.3396033 0.6881479
-0.34139261 -0.34498361 0.85205573
-0.26229551 -0.27269551 0.63090831
-0.34681469 -0.42424271 0.89271432
-0.27225679 -0.2679562 0.66454381
-0.00280565 -0.3583051 0.69954139
-0.31385469 -0.4978615 0.69810921
-0.276694 -0.26304811 0.67061722
-0.31883809 -0.49480829 0.69187391
-0.1926446 -0.2068059 0.64434868
-0.1176782 -0.50219542 0.60762769
-0.3298178 -0.35395831 0.8697902
-0.074662209 -0.40621129 0.63268638
-0.34767261 -0.4655453 0.88732147
-0.2592167 -0.3453967 0.82472038
-0.102074 -0.3917793 0.63056082
-0.32793641 -0.38685679 0.82413739
-0.02548945 -0.3973932 0.64007831
-0.01388127 -0.29799861 0.69829261
-0.29813859 -0.19454899 0.81969827
-0.3075107 -0.36156559 0.73910302
-0.25463009 -0.3988097 0.59958798
-0.30534509 -0.4358393 0.70806092
-0.2741493 -0.3108297 0.63640261
-0.0086150169 -0.32941371 0.70985663
-0.2771346 -0.26722571 0.6499387
-0.35262361 -0.47663561 0.89307249
-0.048572838 -0.1926614 0.67303658
0.02712417 -0.26847941 0.71572971
-0.33012521 -0.35361499 0.83026499
-0.35056019 -0.49580079 0.88896048
-0.2365164 -0.2644366 0.73311692
-0.32268831 -0.35437119 0.82640702
-0.02535552 -0.1749804 0.81253147
-0.15075231 -0.18281069 0.78992581
0.093943238 -0.28610569 0.68833047
-0.30545059 -0.47945911 0.64698571
-0.2974638 -0.29286689 0.9498142
-0.2391835 -0.34351969 0.79142141
-0.29413271 -0.34189719 0.67092079
-0.30679169 -0.49876469 0.65577519
0.41713199 -0.31710961 0.64367777
-0.25679511 -0.2374516 0.70366621
-0.2274996 -0.17708801 0.93927681
-0.27469921 -0.4423241 0.59787488
-0.3382203 -0.42948401 0.83863521
-0.25952679 -0.34588051 0.91150749
0.570135 -0.3545571 0.71189362
-0.25750369 -0.30725509 0.63331568
-0.3074643 -0.48672181 0.633461
-0.27506009 -0.20190489 0.69486582
-0.2067223 -0.33139569 0.78161502
-0.2971262 -0.40556559 0.64595151
-0.30239001 -0.37906039 0.65973753
-0.32573029 -0.4639613 0.77949119
-0.32158259 -0.4116821 0.75006467
-0.33577251 -0.38342589 0.84751362
0.049053669 -0.18990199 0.69045502
-0.2602784 -0.235071 0.63540578
-0.2426687 -0.29510811 0.6230402
-0.1373688 -0.4092395 0.62009948
-0.1837759 -0.3886162 0.61387408
-0.039765239 -0.34192631 0.73243612
-0.28687701 -0.44222599 0.60680193
0.077845097 -0.3860369 0.65989012
-0.25829011 -0.28651929 0.6236217
-0.1202694 -0.48421091 0.61427242
0.021645781 -0.35489199 0.65303957
-0.043541308 -0.45288911 0.63256061
0.1472902 -0.4251371 0.68192911
-0.126379 -0.33457801 0.63608682
-0.032544971 -0.3594088 0.71920848
-0.1195353 -0.34240401 0.69513237
-0.1429455 -0.38540319 0.62400818
-0.01520121 -0.17797381 1.010957
-0.3050817 -0.36079639 0.71588671
-0.28513721 -0.34714839 0.70171303
-0.2164703 -0.34324309 0.78469157
-0.22413421 -0.3381086 0.83895308
-0.2410558 -0.3419323 0.79408729
-0.32321671 -0.44652849 0.75823241
-0.31296891 -0.50457913 0.66701078
-0.26642609 -0.331056 0.69407332
-0.29847121 -0.43047169 0.63485128
-0.1096137 -0.35089231 0.64027017
-0.1148201 -0.1674761 0.78434849
-0.23359931 -0.34167811 0.82839072
-0.090961218 -0.17485221 0.70187312
0.1401787 -0.35641471 0.68985099
-0.2831586 -0.33342111 0.7930907
-0.32012609 -0.4577713 0.72322768
-0.2583752 -0.33615229 0.71256351
-0.018485069 -0.37711889 0.64193243
-0.078672647 -0.42586139 0.62579173
0.041754361 -0.17404211 0.72867411
-0.006929636 -0.3376601 0.70886278
-0.33247441 -0.47639331 0.83163577
-0.1387485 -0.1944599 0.65775478
-0.1539616 -0.39173821 0.62021858
-0.1150447 -0.1800013 0.86390477
-0.2285988 -0.50576383 0.589728
-0.2946243 -0.33151501 0.79688197
-0.28564921 -0.3410213 0.8335526
-0.21598139 -0.49645519 0.5911361
-0.2740843 -0.34311789 0.86296058
-0.069775216 -0.36001241 0.64402139
-0.2120938 -0.46057701 0.60285681
0.01635313 -0.35667661 0.66117561
0.06132919 -0.1780929 0.77420551
-0.32007411 -0.4864645 0.72388631
-0.33765981 -0.47976729 0.83390588
-0.3565588 -0.46196541 0.90544569
-0.2360903 -0.34281209 0.77886653
