# .PCD v0.7 - Point Cloud Data file format
VERSION 0.7
FIELDS x y z
SIZE 4 4 4
TYPE F F F
COUNT 1 1 1
WIDTH 1420
HEIGHT 1
VIEWPOINT 0 0 0 1 0 0 0
POINTS 1420
DATA ascii
0.1288918 -0.33673561 0.63933772
0.087026753 -0.38753769 0.62684232
-0.01241814 -0.34705329 0.59959531
0.0119602 -0.1615075 0.60907048
0.059280809 -0.2085766 0.62356269
0.02256221 -0.2117506 0.61222363
0.1140832 -0.107116 0.64904499
0.048445921 -0.19794729 0.62175483
0.04764986 -0.34574869 0.60560691
0.046160389 -0.20483901 0.61796433
0.01658204 -0.1045302 0.6072942
0.1612187 -0.2754733 0.653754
0.1364274 -0.38712829 0.64453989
0.18764921 -0.36909401 0.66254658
0.070027567 -0.2012729 0.63000113
0.040991232 -0.1384147 0.61971521
0.0423376 -0.12672549 0.61703533
0.099058107 -0.1784104 0.64062202
0.075841233 -0.36630121 0.61844492
0.1283921 -0.2332776 0.64570367
0.080859922 -0.1554798 0.63569981
0.081904709 -0.29538971 0.62631541
0.1782265 -0.3674511 0.66183603
0.091706537 -0.1785216 0.63683331
0.043258131 -0.1206419 0.62112641
0.04499431 -0.1551853 0.62067288
0.059503149 -0.20438109 0.62447029
0.14226919 -0.1236838 0.65090573
0.04792038 -0.1831546 0.62179548
-0.01074406 -0.37473211 0.59339541
0.082725689 -0.38330051 0.62477088
0.1132141 -0.1444786 0.63923049
-0.01003854 -0.37178251 0.59465998
0.053256609 -0.30260581 0.61662167
0.120117 -0.2818611 0.64260668
0.1096176 -0.34468159 0.63608348
0.042673931 -0.396395 0.60664821
0.01419164 -0.2029355 0.60979658
0.058140129 -0.12664109 0.62225509
0.042443331 -0.097845562 0.81874782
0.0139367 -0.33932331 0.5949896
0.067067161 -0.3273702 0.61601287
0.1065089 -0.1380841 0.64166647
0.0058736829 -0.31496909 0.59898722
0.058994059 -0.28219911 0.624174
0.118903 -0.16610301 0.64710271
0.073051497 -0.1580371 0.63026911
0.122554 -0.3144955 0.63624048
0.001271105 -0.1753893 0.60290831
0.1089764 -0.1789981 0.64063537
0.080448017 -0.186736 0.63197792
0.04407423 -0.18286709 0.62349182
-0.01621362 -0.2443632 0.6085065
0.0066220881 -0.2960332 0.60651767
0.16877881 -0.38720861 0.66051197
0.070117787 -0.2408933 0.6281783
0.002964623 -0.2186999 0.60328013
0.001690904 -0.34933859 0.59277469
0.01728173 -0.33847961 0.59937221
0.178712 -0.38151971 0.66294312
0.1614819 -0.32646731 0.65548849
0.102035 -0.24016359 0.63132632
0.036024898 -0.2381773 0.60262078
0.094095528 -0.30640301 0.62643498
0.04012005 -0.40220469 0.60614538
0.1672662 -0.4084965 0.65743059
0.034829091 -0.29993981 0.61236513
0.0217374 -0.1042865 0.69608837
0.01499396 -0.29778299 0.60635167
0.0071995668 -0.195691 0.60662669
0.14433479 -0.27796629 0.65139079
0.067113139 -0.36835501 0.61540729
0.001069713 -0.37040371 0.59433198
0.05434512 -0.36581811 0.61211711
-0.0054636481 -0.1542709 0.60116708
0.073745362 -0.3953605 0.61795622
0.1439521 -0.192939 0.64971459
0.049899649 -0.402484 0.60813332
0.062348861 -0.231106 0.62708223
0.056899291 -0.406602 0.61029619
0.025850959 -0.26288959 0.60940611
0.1300777 -0.33033571 0.64346308
0.05851217 -0.40833339 0.61108959
-0.085326657 -0.40060019 0.75113177
0.076035067 -0.39357269 0.62132353
0.070660457 -0.32294029 0.62197542
0.057810038 -0.3381103 0.61467361
0.072005309 -0.1449233 0.62949359
0.0256446 -0.1006526 0.7376579
0.073519297 -0.1185657 0.63457388
0.05581104 -0.1001978 0.64070612
0.01151307 -0.1698973 0.60774457
0.01939722 -0.163496 0.61228842
0.065303013 -0.1174509 0.62739623
0.056940019 -0.3641603 0.61369199
0.02203048 -0.3064236 0.60451132
0.044900779 -0.3871862 0.60298729
-0.01277252 -0.1677468 0.60388488
0.050741151 -0.1638988 0.62202072
-0.096379168 -0.40074179 0.78788012
0.082803532 -0.30408141 0.62306929
0.01866349 -0.1022941 0.61303753
0.1168145 -0.1899104 0.64454973
0.034113381 -0.21412151 0.61847192
0.1133439 -0.1596631 0.64214832
0.076804243 -0.1238587 0.630288
0.1031563 -0.137253 0.64497727
0.091685809 -0.1235787 0.64261168
0.1018896 -0.1726658 0.63910788
0.1382537 -0.2863574 0.65037543
0.12585869 -0.2926842 0.64883238
0.1624357 -0.26488411 0.65683579
0.184829 -0.36009341 0.66685963
0.1768921 -0.4090347 0.66351181
0.1072342 -0.2097449 0.64302051
0.004291296 -0.1002984 0.61746567
0.19194271 -0.1041998 0.67216128
0.077610157 -0.25922731 0.62698698
0.1666382 -0.40554869 0.65382987
0.050460801 -0.40032041 0.60600227
0.076213568 -0.29099709 0.62472618
0.024993081 -0.2331671 0.6093359
0.019329529 -0.2333782 0.60721111
0.1183537 -0.16553999 0.64461768
0.1073821 -0.2017518 0.639162
-0.01145205 -0.25732079 0.59754711
0.1074596 -0.2017391 0.63906598
-0.0086732432 -0.1688787 0.60204011
-0.001163775 -0.14481071 0.59947753
-0.01039029 -0.1770741 0.59484339
-0.01507674 -0.1654508 0.60515171
0.0001668422 -0.17609879 0.60142767
-0.0050486722 -0.1542674 0.59829181
0.14732569 -0.1318258 0.65579361
0.1351506 -0.1455906 0.64932311
0.050304729 -0.1951827 0.61755002
0.1348173 -0.18620031 0.64950562
0.1782869 -0.2374527 0.66296148
0.16201469 -0.21411601 0.65544969
0.1289221 -0.2326322 0.64526892
0.081960343 -0.1526017 0.63193327
0.1123374 -0.14580271 0.64169782
0.1029705 -0.2389189 0.63370991
0.1788113 -0.1629937 0.66480488
0.1368203 -0.18376631 0.65128648
0.091622099 -0.1774625 0.63382429
0.080219388 -0.15572689 0.63100868
0.06735374 -0.19503739 0.62926102
0.1677708 -0.15887889 0.66152602
0.068250567 -0.121142 0.62791419
0.05803569 -0.13788471 0.62436038
0.1024629 -0.1728849 0.63869047
0.069961272 -0.19927511 0.62660593
0.043498222 -0.1183926 0.61703521
0.1628879 -0.19426019 0.65632331
0.1126207 -0.140892 0.64040267
0.088603377 -0.18680669 0.62948048
0.1780889 -0.2611461 0.66130579
0.062317438 -0.20822489 0.61643451
0.14189041 -0.1244259 0.65199208
0.04021991 -0.1375034 0.61675578
0.0415438 -0.12643351 0.6150263
0.16238371 -0.2634238 0.65521163
0.1630815 -0.2986674 0.65627182
0.1615216 -0.32466921 0.65240049
0.1776 -0.34445971 0.65741181
0.1223358 -0.27980191 0.63748831
0.1953194 -0.36633241 0.66808617
0.1374058 -0.28459641 0.64769381
0.12682649 -0.28938171 0.64341652
0.063174874 -0.1872284 0.62196487
0.031575572 -0.24599411 0.61235052
0.1301447 -0.28052649 0.64408177
0.18427131 -0.35591519 0.66211373
0.1777609 -0.27029651 0.66334569
0.071242377 -0.15781841 0.62871182
0.058820281 -0.2038625 0.62265462
0.1385172 -0.2016117 0.65025443
0.081898287 -0.1857466 0.62891263
0.18678389 -0.1150635 0.66635418
0.1185744 -0.16512761 0.64449418
0.1069281 -0.2084996 0.63885099
0.071617238 -0.1445611 0.62882298
0.07532116 -0.1151488 0.62715298
0.1047069 -0.1377437 0.64054543
0.1095941 -0.178633 0.63967031
0.1162836 -0.1891851 0.64343423
0.114144 -0.15903661 0.64310408
0.0340406 -0.2122049 0.6149677
0.051162411 -0.1629 0.61898613
0.18491331 -0.26235089 0.66564721
0.1317188 -0.2075834 0.64795601
0.1943548 -0.30773461 0.67090142
0.1853406 -0.20045871 0.66551417
0.1370405 -0.27299649 0.64927822
0.1901435 -0.36116901 0.66578442
0.088077024 -0.1108521 0.63615602
0.06327986 -0.227819 0.62281442
0.19010711 -0.29511419 0.66812837
0.1946823 -0.13159721 0.67146659
0.1958178 -0.2933791 0.66929829
0.1850128 -0.27398291 0.66429752
0.1360995 -0.1024377 0.65429628
0.062564738 -0.1343936 0.62319052
0.017469279 -0.101854 0.60735321
0.16220561 -0.1038931 0.66432101
0.1141172 -0.1045608 0.64351839
0.176532 -0.23820999 0.66273159
0.19170859 -0.1213681 0.66732389
0.1896591 -0.25079361 0.66814238
0.1891626 -0.2486463 0.66653907
0.1663349 -0.151476 0.66233438
0.1142834 -0.1099302 0.64405882
0.071725048 -0.237941 0.62332028
0.1952741 -0.2493594 0.66852373
0.17788801 -0.2069362 0.66760182
0.1701095 -0.20354369 0.66271412
0.1895861 -0.21822099 0.66089559
-0.043812972 -0.095096953 0.69127429
0.046388961 -0.1826416 0.6223979
0.1767941 -0.3195411 0.66279
0.17537519 -0.1111098 0.67190689
0.05319678 -0.1142895 0.62388492
0.061542101 -0.1163966 0.62989211
0.1879997 -0.1582741 0.67139751
0.12603059 -0.1504811 0.64683717
0.080435537 -0.13764779 0.6278187
0.084014677 -0.1282097 0.64008719
0.15382101 -0.28458691 0.65794808
0.098808207 -0.1772503 0.64248002
0.086374097 -0.1518461 0.63852328
0.1483355 -0.2356538 0.65687579
0.1450192 -0.193137 0.64906472
0.1369793 -0.1177593 0.64763981
0.03638795 -0.1315037 0.61757362
0.025028929 -0.13507999 0.61393142
0.02690736 -0.1110912 0.61006391
0.030988971 -0.1041361 0.61219019
0.1412462 -0.1013012 0.66207689
0.19053259 -0.32717061 0.66608292
0.1625067 -0.1293927 0.65883392
0.14802019 -0.1325825 0.65405518
0.151563 -0.1052898 0.65220171
0.136402 -0.1468962 0.6543768
0.17411689 -0.1598853 0.65894508
0.1041689 -0.1575975 0.6356526
0.18854339 -0.1846073 0.66750097
0.1603467 -0.32956329 0.66081899
0.101928 -0.1125997 0.63738692
0.15235829 -0.2632876 0.66256928
0.19217031 -0.1039911 0.67265463
0.04743477 -0.19821329 0.62211877
0.1350579 -0.1469267 0.65196282
0.05723552 -0.1007613 0.63355231
0.039973069 -0.099916622 0.62646878
0.059856769 -0.1384691 0.62734419
0.036142848 -0.097931243 0.63230312
0.065723643 -0.1161476 0.62503523
0.04777275 -0.1472553 0.61984909
-0.0095438845 -0.1387105 0.59959859
0.04255452 -0.1040553 0.62027478
0.0052413158 -0.1011364 0.66460937
0.03524502 -0.1011354 0.69448417
0.03906614 -0.1031253 0.67293918
0.01071868 -0.1893246 0.60720563
-0.0299237 -0.1014135 0.77489102
0.04565433 -0.20568959 0.62019902
0.1137659 -0.14337949 0.64015353
0.078307509 -0.1581549 0.63378519
0.1329359 -0.1017864 0.72591633
0.0571061 -0.1396869 0.6253686
0.079685338 -0.15547711 0.63469338
0.069396317 -0.2001732 0.62875378
0.03913169 -0.12982731 0.61261088
0.01619946 -0.1036119 0.75488287
0.01422899 -0.1063303 0.60838169
0.057535961 -0.2093928 0.62322313
0.0682557 -0.2018114 0.62889773
0.061690431 -0.2398439 0.62157053
0.060697261 -0.23805059 0.62232858
0.05461999 -0.1116575 0.62032628
0.078023233 -0.13811889 0.63169098
0.1017377 -0.1732572 0.63849771
0.091425173 -0.1775073 0.63414133
0.044028081 -0.1184847 0.61638802
0.046209048 -0.1514384 0.6155495
0.01083882 -0.16067711 0.60659009
0.041129049 -0.1365231 0.61512482
0.027694991 -0.099958234 0.62685019
-0.01310699 -0.26769099 0.59677929
0.017762451 -0.1008951 0.60731238
0.1006564 -0.1753938 0.63573992
0.1115306 -0.1410998 0.64355648
0.098037221 -0.1095852 0.63712382
0.1138424 -0.1047864 0.64294291
0.070862867 -0.15826771 0.6294052
0.081300117 -0.18544219 0.62985837
0.018266199 -0.2042648 0.60315073
0.05350953 -0.207415 0.61952323
0.123582 -0.1020642 0.65135342
0.1162359 -0.1889998 0.64230537
0.106013 -0.13673469 0.63810033
0.035347879 -0.21073531 0.61262679
0.061651569 -0.2296585 0.62497008
0.001157518 -0.21949489 0.60264641
0.026389459 -0.37557071 0.60140538
0.1598559 -0.38912949 0.65456682
0.048255049 -0.2727814 0.61588621
0.1778104 -0.36681229 0.66005582
0.1896461 -0.3992779 0.6596067
-0.01041891 -0.37381881 0.59329188
0.01388719 -0.2923356 0.60780072
0.077105239 -0.26048669 0.62775898
0.05876245 -0.27907059 0.62057018
-0.67874682 -0.50890559 1.018513
0.1768328 -0.38433471 0.65413028
0.1769447 -0.37891069 0.65851527
0.1946505 -0.3666243 0.66683388
0.1674961 -0.40056029 0.64924031
0.01552262 -0.39246169 0.60005927
0.070062093 -0.2394769 0.62615442
0.1612127 -0.32192361 0.65046668
0.058750469 -0.1275865 0.62280691
0.053061139 -0.41042411 0.61361217
0.042766351 -0.1253906 0.61255521
0.057642981 -0.40586779 0.60770953
0.01245945 -0.30078721 0.60747772
-0.69919312 -0.50550628 1.045994
0.026602751 -0.09751942 0.76263982
0.064334512 -0.1030174 0.63109392
-0.02500008 -0.099788241 0.63609809
0.047383372 -0.1916483 0.61556381
0.0069534131 -0.1947598 0.60373813
-0.00084529893 -0.103542 0.68373662
0.1372153 -0.20315181 0.65222329
-0.01153755 -0.4010796 0.59757
0.073161431 -0.1166572 0.63010722
0.075200409 -0.098539427 0.64274639
-0.01169533 -0.23869669 0.59919232
0.1087924 -0.179258 0.64012498
0.092569903 -0.2250421 0.63350022
0.1186258 -0.16544031 0.64600551
0.070470013 -0.097545728 0.68746102
0.072064511 -0.14527971 0.62995207
0.0054781502 -0.1013687 0.71728569
0.1039544 -0.14469939 0.6384896
-0.035031561 -0.094938613 0.76433188
-0.053774759 -0.1018789 0.7340582
0.078232557 -0.1003473 0.69873083
0.079280756 -0.2229408 0.62836182
-0.020113731 -0.1040407 0.6349771
-0.005286078 -0.167162 0.60083318
0.000246977 -0.1763072 0.60122973
-0.018334839 -0.24327549 0.59354442
0.018352089 -0.098101117 0.62751007
-0.73601103 -0.43304291 1.0192209
0.0087114871 -0.095572136 0.60262901
0.05799643 -0.2049098 0.62359709
-0.0011758259 -0.1018533 0.60197979
0.045227069 -0.2204479 0.61739892
0.1039188 -0.13432319 0.63724983
0.094237648 -0.1182632 0.63156211
0.090001568 -0.1028632 0.63281131
0.090131544 -0.1086951 0.63129443
0.019192221 -0.1436504 0.60708982
0.076606072 -0.1242188 0.63037378
0.018305659 -0.1195399 0.6090216
0.01984006 -0.1634109 0.61081511
0.0461541 -0.29358059 0.60948253
-0.0089314179 -0.1741436 0.59730268
0.0798776 -0.098159768 0.65835172
0.01233404 -0.1697928 0.60590208
0.038642012 -0.15677971 0.61279511
0.1271293 -0.2349191 0.64828593
0.1686929 -0.3995747 0.64946151
0.1169895 -0.13890301 0.64706361
0.1613159 -0.1044181 0.66655159
0.075714573 -0.29092571 0.62615699
0.01825743 -0.21920881 0.60645252
0.1670552 -0.40628049 0.65556699
0.078360431 -0.25894231 0.62707359
0.1618263 -0.1042481 0.66829717
0.045910329 -0.2203382 0.61857319
0.005365497 -0.2130091 0.60428721
0.1384173 -0.2016602 0.65100509
0.1179904 -0.1655512 0.64605498
0.17865869 -0.14842691 0.66665208
0.18130711 -0.4009313 0.72993791
0.1827701 -0.3909449 0.71079493
0.1769866 -0.35268289 0.73772258
0.02806285 -0.3393127 0.60546952
0.113546 -0.313142 0.6368075
0.07847102 -0.35802269 0.62249613
0.12714539 -0.34262839 0.64167798
0.1152842 -0.31440231 0.6374954
0.18581609 -0.37018359 0.66885167
0.026712401 -0.37798181 0.60311377
0.077825613 -0.38408121 0.62519318
0.1584383 -0.3898114 0.65446007
0.062126439 -0.36250129 0.61621708
0.1332089 -0.38509789 0.6446532
0.055055059 -0.36597541 0.61549968
0.05577413 -0.3297469 0.61950529
0.054564539 -0.30324551 0.62005937
-0.0033682741 -0.28447449 0.60074192
0.087293036 -0.3831374 0.62382102
0.050914191 -0.30096141 0.61807323
0.1105882 -0.34402159 0.63629538
0.02047798 -0.21240591 0.610246
0.187589 -0.36774021 0.66141808
0.1357784 -0.3861239 0.64431518
0.0041926969 -0.32548159 0.60071921
0.1752242 -0.3485899 0.65931559
0.14665291 -0.3122291 0.64751518
0.02063424 -0.1851484 0.60483968
0.054559011 -0.26981121 0.61613888
0.015813289 -0.2888293 0.60263032
0.03706282 -0.39660349 0.60736197
0.16490801 -0.29960611 0.65795922
0.18392619 -0.3347896 0.67252398
0.082851738 -0.3541674 0.62694472
0.1057084 -0.3557837 0.62725937
0.1784267 -0.39197621 0.66519552
0.1179707 -0.2830826 0.64474499
0.1557661 -0.4136813 0.79178232
0.067309067 -0.32867581 0.61925149
0.078344353 -0.2979444 0.62888491
0.06423749 -0.40047619 0.61947709
0.021109801 -0.2265168 0.6099714
0.1398706 -0.4083297 0.65141118
0.015740929 -0.15996531 0.60570878
0.038837049 -0.40153641 0.60556972
0.01665869 -0.34004849 0.60007793
0.097358957 -0.3949112 0.63064271
0.16122849 -0.3260597 0.65681988
0.1493137 -0.40680289 0.6497981
0.1646609 -0.32694209 0.65776712
-0.00064165448 -0.2539348 0.5959233
0.041287448 -0.40911439 0.60532832
-0.0091686128 -0.37473041 0.59419882
0.068952337 -0.29024759 0.62471843
0.088627741 -0.3218244 0.62491989
0.015824899 -0.2071055 0.60867941
0.17534821 -0.39066401 0.66151112
0.077805221 -0.25923651 0.62747329
0.1245317 -0.1016031 0.88912863
0.1730036 -0.1062259 0.7507264
0.1715005 -0.1059385 0.73745728
0.1687984 -0.1050543 0.76371038
0.1420027 -0.1051739 0.83835918
0.1405773 -0.103437 0.84135139
0.1276764 -0.1042344 0.87461227
0.1771449 -0.102095 0.7394253
0.1616596 -0.1046202 0.78523737
0.1396099 -0.1289629 0.8570748
0.1787871 -0.23628341 0.66690081
0.17974821 -0.2582213 0.66554028
0.1802882 -0.2713269 0.66463852
0.1958753 -0.1119717 0.67787808
0.077847026 -0.1586704 0.63454479
0.063640252 -0.2409845 0.6227901
0.079414077 -0.15491889 0.6344707
-0.0029267941 -0.28360549 0.60081983
0.049549971 -0.30466869 0.62072158
0.02613231 -0.2127808 0.61000651
0.019225599 -0.3886241 0.59823149
0.019263839 -0.1003295 0.60923183
0.031224171 -0.3757647 0.60317868
0.13382719 -0.1025996 0.72593403
0.098121516 -0.1002727 0.7289145
0.03865815 -0.097890019 0.63051277
0.048552431 -0.1043746 0.61689931
0.04536768 -0.1463668 0.62198091
0.06026236 -0.2377298 0.62306178
0.16113751 -0.1021527 0.68648672
0.02107697 -0.32103401 0.60376161
0.0048178192 -0.29500201 0.60714191
0.1164953 -0.1000932 0.73064548
0.01973705 -0.1006777 0.71956593
0.092065454 -0.1069006 0.72348058
0.1499912 -0.1035979 0.66079938
0.00054428121 -0.1441038 0.60087937
0.091988541 -0.1034865 0.72389871
-0.034976762 -0.098019317 0.69316381
0.067807399 -0.121524 0.63004762
0.14226639 -0.1030679 0.65772849
0.089162201 -0.1109404 0.63646489
0.035479281 -0.099844992 0.62875211
0.057266671 -0.09944047 0.64137149
0.02064593 -0.097481564 0.62836641
0.1557667 -0.1068868 0.6626808
0.057206091 -0.13855159 0.62590319
0.056179181 -0.1380811 0.62758619
0.1095488 -0.1052997 0.64942539
0.098018877 -0.1078936 0.6414817
0.0060981289 -0.1011055 0.71879941
0.1342274 -0.1013703 0.65204448
0.05922981 -0.12590779 0.62271649
0.068232991 -0.098326728 0.73418993
0.1073831 -0.1045697 0.65188009
0.1482248 -0.1312698 0.65738118
0.1696668 -0.1584409 0.66309589
0.13920321 -0.18260171 0.64975202
0.068589859 -0.20267481 0.6305443
0.1384974 -0.1335863 0.65207672
0.13982651 -0.1377776 0.65489292
0.089395583 -0.1813685 0.63676208
0.100243 -0.17619111 0.64360982
0.029309779 -0.33800769 0.60497552
0.072791062 -0.2004319 0.62877238
0.032305378 -0.1584958 0.61237341
0.1933392 -0.13131049 0.67409903
0.166374 -0.1585139 0.66353101
0.13706741 -0.14538381 0.65234679
0.1139792 -0.31791261 0.63957423
0.1307506 -0.2336245 0.64971459
0.1139312 -0.14223909 0.64204019
0.095042072 -0.17762829 0.63612717
0.050014481 -0.3000423 0.61771208
0.04597253 -0.20045529 0.62191433
0.18045931 -0.1167398 0.66765749
0.14202 -0.1799189 0.65106338
0.1563044 -0.1245792 0.66263622
0.045469921 -0.205911 0.62145883
0.080993071 -0.2207416 0.62811607
0.1670312 -0.1181439 0.66619867
0.1140853 -0.13924889 0.64297259
0.15922651 -0.2194034 0.66103858
0.0069763069 -0.31992 0.59737301
0.046801079 -0.27456629 0.61918771
0.076671071 -0.26080969 0.62970889
-0.0077515952 -0.17468099 0.59906483
0.1445839 -0.14085861 0.65568161
0.1589449 -0.1934589 0.66198772
0.05096145 -0.2095339 0.62266272
0.1425378 -0.1249502 0.65683448
0.047480348 -0.1893287 0.6173088
0.0090283956 -0.19101299 0.60992759
0.17469791 -0.1118359 0.67052621
0.08164528 -0.098580569 0.63939887
0.1729486 -0.160092 0.66363978
0.1492869 -0.2070177 0.65465122
0.040602989 -0.1381844 0.62054569
0.107483 -0.201796 0.64228243
0.04702194 -0.1839907 0.62244761
-0.66788548 -0.5264883 1.004777
0.18002979 -0.2085395 0.66544539
0.067711674 -0.32937571 0.61979318
0.01480373 -0.1844143 0.60642737
0.19651011 -0.1159079 0.67644042
0.1846205 -0.1151276 0.67072332
0.11853 -0.2811234 0.64359528
0.0059908768 -0.2121411 0.60418183
-0.0080179367 -0.27935171 0.5971756
0.020950221 -0.1183647 0.60839587
0.19733091 -0.1046711 0.67828578
-0.002058632 -0.3811999 0.59609348
0.16018189 -0.26497409 0.65920031
0.13796321 -0.2043505 0.65568417
-0.01378248 -0.26000679 0.60230798
0.02591772 -0.2244942 0.60892493
0.1199075 -0.1651389 0.6469118
0.20007899 -0.1166897 0.67826122
0.01738414 -0.2067948 0.60843527
0.083575986 -0.29317179 0.62774187
0.01147079 -0.1617762 0.6101923
0.18032441 -0.1473144 0.66752529
0.044817749 -0.2214174 0.6195147
0.041447699 -0.2426504 0.61481202
0.001712381 -0.21767689 0.60095119
0.062370781 -0.230024 0.62635249
0.084298037 -0.30622071 0.62768728
0.099765532 -0.2278225 0.63937861
-0.01004405 -0.24914689 0.60005212
-0.0099833403 -0.2356039 0.60031003
0.1601281 -0.27940759 0.65895623
0.085183159 -0.325923 0.62703401
0.1174277 -0.18968301 0.64513081
-0.0075894832 -0.309912 0.59850502
0.13991681 -0.19044019 0.65257078
0.1165459 -0.1396483 0.64896601
0.1075812 -0.2079857 0.6420694
0.1255068 -0.29302841 0.64667302
0.1156287 -0.1888845 0.64477903
0.070708737 -0.23812491 0.6271081
-0.01029721 -0.3755081 0.59373027
0.1666604 -0.1527679 0.6641553
0.088482372 -0.2082732 0.63542658
0.041067649 -0.120683 0.6212033
0.069954596 -0.1113092 0.62786919
0.091422468 -0.1025996 0.63478482
0.1600776 -0.2178593 0.66282952
0.1610498 -0.19736519 0.6624518
0.076279327 -0.1242612 0.63245869
0.071879148 -0.1169758 0.63257611
0.079089478 -0.124309 0.63360357
0.097424023 -0.099714473 0.6406526
0.062917873 -0.2072185 0.62388408
0.057141371 -0.3577475 0.62078798
0.08207196 -0.100241 0.73081082
0.1123969 -0.09790986 0.73516428
0.19511341 -0.1114493 0.68243438
0.1953638 -0.1669859 0.6772328
0.065683357 -0.1018847 0.63020921
0.049294509 -0.1137854 0.62712121
0.094535701 -0.1159696 0.65228599
0.1485803 -0.1084406 0.6613515
0.060517062 -0.1902073 0.62612969
0.13322631 -0.12837359 0.64864558
0.050889 -0.1556499 0.62604338
0.069760554 -0.1390865 0.63739061
0.088333748 -0.19882341 0.63931388
0.1525631 -0.15632731 0.65261942
0.08352612 -0.241623 0.63324678
0.1000337 -0.2457604 0.64113998
0.1510971 -0.17968281 0.65719968
-0.01175135 -0.13110819 0.60234809
0.073559947 -0.1437933 0.62984449
0.094685197 -0.222801 0.63525808
-0.0082326587 -0.2752201 0.60087031
0.04870747 -0.30099261 0.62086058
0.064377137 -0.33184519 0.62005502
0.17805129 -0.3450385 0.66124558
0.081242688 -0.29779911 0.62614352
0.1517707 -0.40578449 0.64793408
0.1955906 -0.29570249 0.67180932
0.1958532 -0.36949891 0.66869283
0.16032401 -0.32798249 0.65785831
0.1066092 -0.1799376 0.64265507
0.16110881 -0.26689559 0.65977597
0.15909611 -0.2799142 0.66045737
0.1294667 -0.33673739 0.64192092
0.16196349 -0.2166277 0.6605081
0.19282331 -0.29565039 0.66953403
0.1861427 -0.40509099 0.66583711
0.1627536 -0.30230221 0.65902889
0.1755023 -0.3618477 0.66079038
0.1697662 -0.3867414 0.65820187
0.1564483 -0.4137516 0.65063018
0.1904152 -0.4131043 0.6709165
0.080270521 -0.22418819 0.63033909
0.067354582 -0.37026051 0.61795449
0.159398 -0.3896811 0.6532141
0.17700189 -0.36738989 0.6604718
0.168653 -0.36157891 0.65926808
0.17661659 -0.38659391 0.66188788
0.0100187 -0.40617031 0.59646863
0.1883038 -0.41040671 0.66696441
0.190285 -0.3974514 0.66976053
0.1809126 -0.4011808 0.72844332
0.077099562 -0.26157469 0.62799042
0.057240911 -0.2404898 0.62301582
0.1925644 -0.39895359 0.69802779
0.069267869 -0.2021073 0.62791049
0.1636045 -0.35711169 0.78886777
0.1777219 -0.35426831 0.73800993
0.18824381 -0.40742129 0.69517082
0.1629099 -0.41162911 0.65733552
0.07392896 -0.29466251 0.62685609
0.07207717 -0.39602461 0.61796439
0.033619639 -0.40691319 0.60446233
0.1388306 -0.20303071 0.65133929
0.1068828 -0.2034117 0.64141881
0.1494766 -0.4118945 0.64565659
0.13791031 -0.33363271 0.6474579
0.1181378 -0.3844555 0.89293933
0.075484872 -0.26482779 0.6312077
0.1183639 -0.38437501 0.89300591
0.1373708 -0.1072615 0.8444795
0.1216493 -0.1054585 0.89222711
0.13271651 -0.1074261 0.8708393
0.1541364 -0.26628461 0.80503541
0.1336346 -0.3040984 0.84813869
0.1398335 -0.1311454 0.85738868
0.15366741 -0.23642009 0.81217062
0.13134161 -0.26052201 0.84785658
0.1347127 -0.26792809 0.84903377
0.1519724 -0.2100115 0.81628072
0.1637785 -0.25390539 0.7925061
0.132431 -0.1218414 0.86563468
0.139263 -0.15906391 0.84720492
0.1343064 -0.120929 0.84736443
0.13578171 -0.38972411 0.83726162
0.13119359 -0.38433141 0.86627001
0.1365425 -0.34501871 0.84467179
0.1723908 -0.1613472 0.66300613
0.1744862 -0.20939741 0.66211522
0.1768537 -0.1101545 0.67118818
0.17506351 -0.23960111 0.66554898
0.1731894 -0.2418182 0.66701603
0.1465703 -0.135821 0.65815842
0.05860832 -0.2435004 0.6266371
0.13170201 -0.1897957 0.65193611
0.059729312 -0.2448834 0.62595958
0.1492576 -0.1041554 0.66021138
0.13677821 -0.1457099 0.6530754
0.078691363 -0.15989131 0.63791138
0.1872182 -0.25185779 0.67230183
0.1789794 -0.16346291 0.66527861
0.1591516 -0.2196862 0.66102332
0.1676088 -0.1091617 0.76543713
-0.0040755812 -0.2871846 0.60416192
0.1113418 -0.1496799 0.64720547
0.1689491 -0.1063049 0.76289117
0.1704004 -0.1063415 0.7439667
0.1896019 -0.121145 0.67440021
0.1905168 -0.1577383 0.67079657
0.1814111 -0.1170631 0.66375881
0.1337062 -0.1841238 0.65400648
0.1498155 -0.1063101 0.66067839
0.1521259 -0.2081918 0.65487242
0.1889655 -0.187537 0.67342901
0.1598451 -0.1990563 0.66398519
0.0774028 -0.1625964 0.63814038
0.13552549 -0.148699 0.65428722
0.03718821 -0.1084143 0.62614739
0.067343943 -0.2062609 0.63230568
0.099132732 -0.18052711 0.64618862
0.083062179 -0.1921142 0.63823712
0.095986687 -0.18331 0.64451528
0.1445203 -0.1294129 0.64547622
0.090219729 -0.18179271 0.63957793
0.1264811 -0.2371394 0.65126389
0.04173094 -0.2129086 0.62526917
0.021087971 -0.21441799 0.61416513
0.070853136 -0.122837 0.62835562
0.1753937 -0.1085748 0.74948651
0.1424493 -0.1365916 0.65097398
0.053992782 -0.1447414 0.62957269
0.045308851 -0.2787711 0.62136078
0.17015959 -0.2499487 0.7572332
0.1110704 -0.1437657 0.64744961
0.1935367 -0.1853748 0.67386907
0.1827345 -0.2488158 0.72201198
0.18914419 -0.2098992 0.69951272
0.058277618 -0.20666569 0.62714362
0.16811711 -0.35620841 0.66399157
0.1762913 -0.368788 0.66129762
0.155922 -0.39353871 0.65695149
0.084159337 -0.3533324 0.62043142
0.128011 -0.3403455 0.63944292
0.051550649 -0.33661339 0.62501329
0.1127849 -0.31806481 0.63857323
0.1878918 -0.37029499 0.66674769
0.080503747 -0.39115739 0.62717849
0.1331877 -0.39004979 0.64556003
0.18988129 -0.40266681 0.66361833
0.1081085 -0.34673509 0.63740557
0.12873641 -0.39153561 0.64819223
0.15995631 -0.30482951 0.66135728
0.02926554 -0.37795371 0.60437292
0.1256665 -0.3400349 0.64245802
0.0068844031 -0.29553881 0.60799718
0.05114112 -0.3728835 0.61892283
0.01671885 -0.3373898 0.60957891
0.1974626 -0.29190081 0.66591412
0.1901429 -0.32841519 0.66797328
0.082634874 -0.35486481 0.62740427
0.02647865 -0.34643051 0.61001742
0.002066328 -0.33022439 0.60380608
0.04879735 -0.30521339 0.61957312
0.1751221 -0.39136201 0.661367
0.1223635 -0.2805391 0.64221299
0.1777415 -0.40292141 0.73069823
0.19038381 -0.40697381 0.66534442
0.1946243 -0.37062761 0.67011619
0.1769291 -0.26100159 0.66543388
0.093931228 -0.3660647 0.63214022
0.1594303 -0.32849801 0.6583125
0.15849219 -0.26780289 0.66147119
0.1790954 -0.39147949 0.66383141
0.1571347 -0.28301871 0.66211867
0.1344884 -0.27452981 0.6503827
0.1824968 -0.37416491 0.6653114
0.1857487 -0.3747389 0.70399493
0.1791791 -0.40332529 0.72974658
0.19520099 -0.29576021 0.67110461
0.1771995 -0.27426481 0.66492277
0.18984871 -0.3733353 0.69850498
0.094476022 -0.31284839 0.63245988
0.08189936 -0.29804009 0.62942833
0.1750852 -0.39088759 0.73885471
0.17826919 -0.33395609 0.74137831
0.1746842 -0.38874891 0.74222851
0.079446673 -0.31007841 0.62884891
0.1529429 -0.39918941 0.64569789
0.1982445 -0.36327651 0.67511612
0.1590036 -0.35405061 0.76544511
0.04016633 -0.3615641 0.61258298
0.1945264 -0.41007599 0.66940218
0.1870386 -0.4024328 0.68137252
0.067335732 -0.29237261 0.62600058
0.093691111 -0.39991829 0.63395029
0.18248861 -0.3930473 0.71154928
0.1605453 -0.2111325 0.66972822
0.18823341 -0.1315107 0.67073679
0.1886964 -0.25077191 0.66954321
0.1817148 -0.1885698 0.67546058
0.1460886 -0.2101243 0.65607041
0.1881061 -0.15852159 0.67237431
0.18862391 -0.329422 0.66814423
0.17920721 -0.34136471 0.72366953
0.1812568 -0.1809769 0.72239399
0.1691737 -0.176596 0.75604761
0.19938269 -0.1921404 0.67693383
0.073256083 -0.1598758 0.63104802
0.17935079 -0.3626661 0.66703367
0.1539119 -0.1264102 0.66305822
0.1854004 -0.1084705 0.68156618
0.05579653 -0.13305651 0.62819922
0.0135128 -0.34299901 0.59833658
0.1411391 -0.1292139 0.6584062
0.15151989 -0.40575469 0.64824247
0.19473059 -0.2009753 0.67337859
0.041608639 -0.186039 0.62250233
0.056788031 -0.3574906 0.62113082
0.1929314 -0.2466532 0.67523432
0.1955234 -0.3090052 0.67140353
0.1685985 -0.17624781 0.75672042
0.1847019 -0.26386669 0.66730261
0.071483493 -0.2394959 0.62742019
0.0135879 -0.39452171 0.60096192
0.06183245 -0.3750909 0.62093228
0.17633089 -0.1835555 0.72829431
0.13972209 -0.20294 0.65248507
0.044197921 -0.1276861 0.61566448
0.1954352 -0.1750299 0.67374849
0.1271819 -0.33460629 0.64790928
0.042379931 -0.4097712 0.60636538
0.068502568 -0.3981564 0.61792737
0.050005522 -0.41439459 0.6140151
0.1581852 -0.4134841 0.65105629
0.05168198 -0.41475439 0.61201137
0.036696851 -0.40717319 0.60902822
0.044084132 -0.2043158 0.62637812
0.0047945278 -0.1059002 0.7217387
0.01269398 -0.1030432 0.78228313
0.018720111 -0.1043488 0.69833779
-0.01387851 -0.1042235 0.77302003
-0.45376709 -0.41357261 0.70706397
0.034658879 -0.1093339 0.67821681
0.01430091 -0.1009649 0.71412492
-0.05184627 -0.1200671 0.73978162
0.097332843 -0.1826835 0.64536607
0.001813903 -0.1066111 0.77655017
0.0068734931 -0.1084469 0.79884899
0.057335071 -0.16714559 0.63102728
-0.47868931 -0.42178869 0.69771987
0.076930337 -0.26165509 0.62781852
0.0197907 -0.099165469 0.71175861
-0.024533769 -0.1036813 0.8045575
-0.05502874 -0.1014381 0.81406838
-0.06216583 -0.1080424 0.78518778
-0.062577948 -0.1049507 0.8084498
-0.05414363 -0.1024717 0.76208937
0.1121713 -0.1047965 0.76815557
0.13625 -0.1043289 0.77838248
0.143948 -0.1090888 0.81372732
-0.0049641631 -0.1058668 0.65256709
0.038002901 -0.1044275 0.63186711
0.017283371 -0.099604517 0.63148528
0.03734237 -0.1017402 0.64964509
0.03092931 -0.1034841 0.66606611
0.1144583 -0.1042791 0.7830798
0.19414429 -0.13408311 0.674568
-0.00078415149 -0.28802311 0.6012997
-0.01078682 -0.26142171 0.60158688
-0.01021185 -0.2505812 0.60539711
-0.68739492 -0.55290359 1.033499
-0.6871593 -0.50725138 1.045305
0.04885897 -0.27657521 0.62020189
-0.62453061 -0.5193758 1.028688
0.0031275621 -0.28906769 0.6022203
-0.2956475 -0.40707019 0.84327888
0.051303402 -0.30201021 0.61576772
-0.65130311 -0.56084031 1.053304
0.01636613 -0.2262463 0.61075699
0.037403408 -0.2386799 0.61528552
0.054291662 -0.30747291 0.61618298
0.079805233 -0.3103978 0.6346733
0.08626312 -0.35863429 0.628802
-0.045496929 -0.1006819 0.70646131
0.022393299 -0.1012921 0.75933021
0.01785299 -0.1035332 0.7030192
0.02940066 -0.1013114 0.72614378
-0.044887759 -0.13702559 0.70631617
-0.065128848 -0.1038158 0.76579642
-0.01249016 -0.13494401 0.60281497
-0.042225018 -0.14174861 0.67721498
-0.072079793 -0.26870331 0.75222093
-0.05533829 -0.27007049 0.70394647
-0.041843869 -0.1211714 0.69071048
-0.01142102 -0.1182182 0.61135298
-0.08253742 -0.27251571 0.79142529
-0.031992398 -0.26745549 0.63432997
-0.047883749 -0.1647854 0.69782633
-0.04207306 -0.1759062 0.68025053
-0.02716931 -0.1025433 0.78195471
-0.077333927 -0.28382939 0.77697688
-0.044509299 -0.25318119 0.68092382
-0.060568482 -0.1995196 0.72804672
-0.023351099 -0.1162795 0.62481052
-0.05800543 -0.30267739 0.72128212
-0.06111481 -0.320333 0.72084159
-0.02897249 -0.2115685 0.63588858
-0.072740853 -0.3033894 0.7512815
-0.038451821 -0.25344849 0.68072122
-0.061301369 -0.28884101 0.72560757
-0.057765558 -0.1617648 0.73010409
0.001870321 -0.1009486 0.61199641
-0.024104539 -0.18141501 0.62344062
-0.05358395 -0.1485434 0.72479612
-0.07379365 -0.1886708 0.77004999
-0.060460191 -0.31105781 0.71950948
-0.027442601 -0.1312961 0.6294744
-0.066286758 -0.1067834 0.7631731
-0.06553001 -0.16732921 0.75678903
0.172629 -0.1086705 0.68217468
-0.04102261 -0.30218151 0.66308057
-0.073040023 -0.1093062 0.7830894
-0.049825061 -0.1360383 0.70721328
-0.077859163 -0.21505991 0.79139441
-0.071890138 -0.2057648 0.76651782
-0.045410961 -0.151741 0.68556821
-0.065942623 -0.32202899 0.76069951
-0.06143868 -0.25473699 0.72803348
-0.049343549 -0.1713499 0.70111632
-0.039309781 -0.1658269 0.67653251
-0.036444802 -0.1579013 0.66393697
0.14089429 -0.1039329 0.79503441
0.099076577 -0.106589 0.70656568
-0.058328871 -0.1241541 0.74132931
0.1341415 -0.1034275 0.66369581
-0.084893793 -0.1926973 0.79406118
-0.017401321 -0.1178139 0.61162877
-0.06149615 -0.2243278 0.72801042
-0.05587979 -0.1518178 0.72073972
-0.03292352 -0.26774159 0.63232309
-0.024587169 -0.1260805 0.61702758
-0.080887757 -0.161522 0.7952776
-0.04097664 -0.1114631 0.691356
-0.056018181 -0.1076326 0.71569258
-0.01326155 -0.108462 0.60142708
-0.043349959 -0.169764 0.6871298
0.02086913 -0.1007409 0.61884338
-0.03818164 -0.1047454 0.67740631
-0.034584571 -0.1315026 0.66405869
-0.076264299 -0.1533794 0.77389169
-0.075204387 -0.27273551 0.76558268
-0.049490549 -0.2342499 0.70545208
-0.030644011 -0.32817861 0.63502008
-0.050703641 -0.29899159 0.69524193
-0.064845808 -0.237516 0.73486787
-0.072414778 -0.3251006 0.74915433
-0.083037183 -0.21138211 0.79094613
-0.060840499 -0.29655099 0.72242242
-0.035788588 -0.12920269 0.67568672
-0.051473889 -0.25310239 0.69613957
-0.05515163 -0.2051412 0.71987212
-0.0805301 -0.27467111 0.78123897
-0.05356 -0.14453 0.72390962
-0.05454075 -0.13936649 0.72764528
-0.024703801 -0.28336099 0.61549127
-0.081689209 -0.1972951 0.79065698
-0.068300247 -0.1547416 0.76073611
-0.074841633 -0.29707769 0.76152068
-0.04681826 -0.141289 0.70802188
-0.062245119 -0.1613034 0.73793489
-0.070222303 -0.28451741 0.74773687
-0.031448212 -0.1107578 0.64195073
-0.024880899 -0.1806694 0.62497902
0.01474373 -0.1020518 0.78232241
-0.063269317 -0.31753811 0.72254241
-0.026868621 -0.122324 0.6365031
-0.085975319 -0.28368241 0.80264121
-0.049811091 -0.27755469 0.69520128
-0.016660079 -0.1057534 0.61038327
-0.085594311 -0.1176576 0.80952638
-0.071750604 -0.30421269 0.75524127
-0.075964063 -0.1985945 0.77304173
-0.068936206 -0.20673411 0.75850302
-0.06010823 -0.2339581 0.72427893
-0.073340692 -0.20826089 0.76743591
-0.064678021 -0.1194906 0.73814851
-0.022346839 -0.13862661 0.62265992
-0.080981337 -0.30599239 0.7731275
-0.039366789 -0.27089 0.65954709
-0.030441031 -0.1686853 0.66122442
-0.01851723 -0.1024433 0.61148739
0.067643151 -0.1023167 0.85915339
-0.01187143 -0.1748542 0.60213298
-0.062871233 -0.3709242 0.71480262
-0.053776361 -0.1156408 0.72644049
-0.072058372 -0.1041841 0.78441203
-0.086139083 -0.2140779 0.81253761
-0.08449395 -0.3631795 0.79183388
-0.069862247 -0.1964736 0.7644971
-0.081038982 -0.29874599 0.79152322
-0.050982069 -0.1007426 0.76181501
-0.05136257 -0.1007881 0.72071248
0.085220523 -0.1031629 0.64172012
0.03445993 -0.1011881 0.71063578
-0.045801889 -0.2993193 0.66808432
-0.051633909 -0.30495399 0.69426221
-0.077368073 -0.27201581 0.75295639
-0.056978151 -0.16096731 0.72002822
-0.020963211 -0.1028921 0.62449431
-0.069620728 -0.172004 0.76498991
-0.080243081 -0.26103899 0.78293473
-0.02767371 -0.1144663 0.6379869
-0.03181982 -0.12526651 0.66216248
-0.025837749 -0.1764527 0.62633842
-0.070833333 -0.30388561 0.74705619
-0.082141846 -0.35261479 0.77126509
-0.047960091 -0.1718858 0.66644287
0.14202531 -0.1025577 0.70968771
0.1294435 -0.101565 0.69283551
-0.089075007 -0.39176399 0.78831571
-0.070998758 -0.31336719 0.75156778
0.09082593 -0.1021565 0.72854292
-0.07113643 -0.1007034 0.77109838
-0.069048762 -0.20014881 0.759911
-0.04071036 -0.25401661 0.68199772
-0.058670439 -0.1572329 0.72947067
-0.0577875 -0.17792261 0.71836579
-0.047191739 -0.1743653 0.67691082
0.053350281 -0.1005323 0.65978271
-0.022586109 -0.1232257 0.61856818
-0.069090366 -0.1678019 0.76951742
-0.092924543 -0.3101519 0.80560398
-0.067277901 -0.1912549 0.75958657
-0.070182957 -0.3170439 0.74616092
-0.05056164 -0.29645881 0.69178522
0.1164652 -0.106184 0.70610559
0.083367109 -0.1068396 0.72817802
-0.05395576 -0.1017265 0.81492293
-0.073880427 -0.1107513 0.78200209
-0.073872872 -0.33226019 0.75123131
-0.0750774 -0.27120581 0.77146381
-0.043493401 -0.1444588 0.67682421
-0.0415923 -0.2021002 0.68298858
-0.054931171 -0.31290439 0.71480882
-0.01252986 -0.25006449 0.60152853
-0.045130569 -0.3505975 0.67188013
0.1269224 -0.1052288 0.70633918
-0.059666488 -0.35936669 0.68776852
-0.049376 -0.22405089 0.69669747
-0.01648536 -0.28081259 0.620107
-0.02076927 -0.20592929 0.61722249
-0.085155278 -0.3468692 0.77406478
-0.035734341 -0.190183 0.64931393
-0.033185739 -0.3563315 0.63519043
-0.090161957 -0.41063139 0.79020739
-0.088532217 -0.40386581 0.78502691
-0.02255824 -0.1357477 0.62240553
-0.04008032 -0.36478639 0.65857822
-0.039990261 -0.35526249 0.6585772
-0.01330155 -0.27744851 0.60031259
-0.077369273 -0.1046112 0.79883879
-0.0157528 -0.34688661 0.60414863
-0.048091128 -0.34446129 0.68100291
-0.03160096 -0.32420731 0.63501102
-0.0080874925 -0.38999039 0.59711879
-0.04077119 -0.36021891 0.66118139
-0.04030988 -0.38836369 0.65791458
-0.02747792 -0.27382439 0.62907368
-0.057479192 -0.37756619 0.69215387
-0.03436045 -0.40155569 0.6408515
-0.01153551 -0.3775973 0.59298372
-0.008522273 -0.3338778 0.60318452
-0.040062521 -0.3973999 0.65160328
-0.029361909 -0.334337 0.62325472
-0.003008849 -0.3171998 0.60576582
0.0022921029 -0.1040509 0.72783798
-0.056280918 -0.37809539 0.69129431
-0.01014998 -0.38853639 0.60002828
-0.051976189 -0.287873 0.70380819
-0.050919201 -0.1481691 0.70822632
0.19422349 -0.1016041 0.69336462
-0.0071482169 -0.403249 0.59455681
-0.038468141 -0.1114227 0.67504501
-0.01797298 -0.2345769 0.60147071
-0.048719019 -0.23346619 0.6931501
-0.026339561 -0.3482188 0.6399526
-0.028861281 -0.2216372 0.62779772
-0.01268086 -0.1970183 0.60164481
-0.02374639 -0.28541929 0.61002272
-0.03158332 -0.25905949 0.64314067
-0.0028534411 -0.37467149 0.59502262
-0.056565318 -0.2305136 0.71525729
-0.07175298 -0.27159911 0.75209808
-0.074366353 -0.2012955 0.79310101
-0.073308967 -0.1010858 0.78301531
-0.075685687 -0.1100324 0.78621262
-0.065578461 -0.32290661 0.82536578
-0.078693971 -0.41255379 0.82156968
-0.088786058 -0.2137294 0.81415838
-0.057670001 -0.40900141 0.82816619
-0.072400503 -0.1766793 0.81712478
-0.062474281 -0.1811039 0.82495379
-0.025295241 -0.3997041 0.83975577
-0.022781391 -0.32285351 0.83879203
-0.083406277 -0.2459545 0.81932938
-0.062953576 -0.25383139 0.82501048
-0.078726009 -0.27897859 0.81976688
-0.089512028 -0.1745245 0.81165069
-0.079285473 -0.1568376 0.81989878
-0.038332891 -0.101859 0.8102169
-0.069835588 -0.26598749 0.82361323
0.02592794 -0.36553439 0.85741901
-0.03985488 -0.27205089 0.8317607
-0.01394824 -0.2487127 0.83969623
-0.040641341 -0.2410316 0.83670431
-0.0042441231 -0.37641409 0.845101
-0.02754814 -0.23231091 0.83827639
0.03076333 -0.39931279 0.85865188
-0.0043627592 -0.1020368 0.84720552
0.016228581 -0.16552711 0.85745877
-0.03993272 -0.1061668 0.69904637
0.032287549 -0.24466489 0.85847771
-0.008209398 -0.1653353 0.84348369
-0.01108629 -0.1059692 0.84136587
0.053037129 -0.2720975 0.87509412
0.060021721 -0.34483159 0.87060189
-0.080064513 -0.22729111 0.82082939
-0.0075777569 -0.32537341 0.84568822
0.01487592 -0.1059883 0.85038447
0.033249252 -0.19808491 0.8554275
0.002254629 -0.1016608 0.77711302
0.048983131 -0.097553387 0.85270512
-0.08335454 -0.26576909 0.81924093
-0.051113989 -0.21523701 0.82480657
0.096075177 -0.2935549 0.88269287
-0.072199292 -0.3489323 0.80491477
-0.0203388 -0.2465086 0.83955908
-0.0082032271 -0.17477681 0.83853972
0.1071576 -0.2807267 0.88642192
-0.069697842 -0.1031935 0.79933828
0.1051266 -0.32134539 0.88496512
0.036939889 -0.39447209 0.85971808
0.093164362 -0.34200111 0.87928772
0.038936522 -0.1052695 0.86015242
0.1233274 -0.100794 0.82574898
0.01393048 -0.114269 0.85299271
-0.0067918659 -0.1196835 0.84481359
0.1039224 -0.1042038 0.72634739
-0.078858547 -0.1160408 0.81700122
0.1054197 -0.1751245 0.887936
0.065847293 -0.1986703 0.87299287
-0.079311423 -0.1863364 0.81699067
0.1009788 -0.25030339 0.88832438
-0.04999933 -0.25439349 0.83263421
-0.082603268 -0.34036449 0.81911123
-0.070581026 -0.1947961 0.81138372
0.095540807 -0.2118236 0.88581491
0.074631266 -0.13185529 0.87089258
-0.078115471 -0.21385001 0.7780472
0.034812141 -0.1000445 0.68016678
-0.05693578 -0.1017034 0.80350882
-0.01580967 -0.17906781 0.83884692
-0.016364571 -0.2757293 0.83974338
-0.01202905 -0.1214453 0.83528918
-0.075276583 -0.1410605 0.79157013
0.086246863 -0.13266359 0.88107347
0.039604921 -0.1013652 0.63149267
0.085945897 -0.2018967 0.87496889
0.07720232 -0.375366 0.87588418
-0.038555101 -0.1899633 0.83139372
0.1075372 -0.24128141 0.88010472
-0.047466639 -0.27879959 0.69524878
0.061365921 -0.1810369 0.8669042
0.0001292676 -0.1083324 0.85201252
0.00067424402 -0.3441619 0.85116702
0.03662172 -0.29105511 0.87723148
-0.087741181 -0.4063178 0.81952292
-0.000237959 -0.2158937 0.83509028
-0.04049908 -0.14654461 0.83039051
-0.069939934 -0.1915195 0.81979591
-0.08789812 -0.39596021 0.80508852
-0.056814179 -0.37541291 0.83024383
-0.03645765 -0.41072881 0.83996588
-0.02349142 -0.21294729 0.83656782
0.070722528 -0.30510941 0.8724305
0.020513641 -0.1026351 0.84826893
0.090022206 -0.1723142 0.8661322
-0.029523101 -0.25778669 0.83552718
-0.077253997 -0.32802171 0.81687659
0.037403248 -0.1638089 0.86091179
0.04308201 -0.1811761 0.86543322
0.019447111 -0.2301416 0.85941333
0.094784893 -0.1425045 0.88699782
-0.072580323 -0.22132391 0.81823683
0.0054834569 -0.2367714 0.84747398
0.1138181 -0.38687959 0.88827908
0.035396129 -0.13693079 0.85927498
-0.0029942689 -0.1044942 0.84017819
0.096605211 -0.1059728 0.77978683
0.1183196 -0.23909131 0.87314302
-0.062100239 -0.2122139 0.73939079
0.1304757 -0.29047641 0.88505542
-0.046888791 -0.1144994 0.70761132
-0.03560482 -0.177761 0.67108202
-0.0285252 -0.1918516 0.63888001
-0.049643122 -0.40359259 0.82774317
0.13208421 -0.1894049 0.88858879
0.028760361 -0.20006789 0.85650963
0.1053632 -0.29428509 0.88492298
-0.063276157 -0.23028129 0.81932372
0.027174581 -0.3257629 0.86286157
-0.1045691 -0.40801039 0.85338902
0.08854036 -0.26771191 0.87918478
-0.05128378 -0.3590377 0.82884562
-0.082393453 -0.2896356 0.78902012
0.091352761 -0.39034691 0.8824687
0.055799499 -0.19681799 0.8637588
0.159189 -0.41498721 0.95825559
0.1900471 -0.4132807 0.90798157
-0.071896844 -0.13256919 0.82361281
-0.01974652 -0.1280482 0.83920622
-0.029569879 -0.1068688 0.83094537
-0.0039399369 -0.1393487 0.85234058
-0.039448731 -0.29011741 0.83098322
0.095894009 -0.32698429 0.8936016
0.03966089 -0.35475019 0.86297667
0.2026647 -0.4111644 0.90763187
-0.048732229 -0.39849201 0.82656348
-0.031407349 -0.1068193 0.70282131
-0.077466682 -0.25940949 0.81560773
-0.016790209 -0.41480049 1.1445301
0.087561712 -0.1184378 0.8777616
-0.066257283 -0.1607575 0.7614252
0.117083 -0.2261382 0.8811186
0.0065203621 -0.18411469 0.8534531
0.079107478 -0.3954733 0.87690812
-0.04764916 -0.16026691 0.82574892
-0.072837003 -0.096485078 0.7956965
-0.063116789 -0.2712957 0.82407022
-0.063792758 -0.13491911 0.8249774
-0.063162483 -0.1971162 0.82425261
0.1068707 -0.31027251 0.88414007
-0.01335556 -0.34746861 0.83991861
-0.037852939 -0.1446467 0.83644623
0.019430051 -0.10121 0.756069
0.02318766 -0.101539 0.84279889
-0.028455161 -0.1207642 0.63716
-0.042938609 -0.3438631 0.83125228
0.1255479 -0.1812579 0.8849647
0.098814689 -0.1185453 0.88446558
0.077890441 -0.1426328 0.87637073
0.065251634 -0.14008041 0.86648637
0.1250992 -0.2273422 0.88616687
0.068301223 -0.38361001 0.87136823
0.018459359 -0.2438177 0.85026091
-0.070898317 -0.2494455 0.81539059
-0.02673557 -0.24263079 0.83613998
-0.04999759 -0.21880829 0.82021099
-0.082956918 -0.40520871 0.77983469
0.1082509 -0.133064 0.88651729
-0.018536471 -0.3946411 0.83951181
0.05799767 -0.1015039 0.64195961
-0.032739691 -0.37746289 0.83338922
0.025063271 -0.1095062 0.71752328
0.091670357 -0.41681781 0.92666072
0.01036518 -0.1214789 0.85162109
0.121728 -0.30434829 0.88595599
0.059041452 -0.38000119 0.86785138
0.081820101 -0.38026321 0.87277079
0.089546107 -0.30311689 0.87634403
0.1113224 -0.38851589 0.88507038
0.13426439 -0.20884129 0.88329852
0.1137003 -0.21228559 0.88170451
0.1148695 -0.1905465 0.88127017
-0.07350453 -0.291058 0.81946993
0.02712151 -0.09574917 0.74760222
-0.02552983 -0.1181682 0.83114243
-0.030414671 -0.1085058 0.66911298
0.064775892 -0.1013845 0.80760038
0.080180593 -0.1064109 0.8722021
0.1409826 -0.099642769 0.80694282
0.059927329 -0.1009613 0.85986459
0.1217984 -0.24470121 0.88540947
-0.080183797 -0.34134969 0.80154258
0.01251857 -0.1038546 0.78169137
-0.061846022 -0.1579185 0.82066327
-0.04374687 -0.283604 0.82577127
0.1281445 -0.1055704 0.70730811
-0.05291542 -0.29816169 0.70390588
0.1136996 -0.1022759 0.86719692
0.099809751 -0.1198629 0.88101178
0.05088938 -0.13267811 0.86470771
0.0518509 -0.37526661 0.8668704
-0.034265552 -0.28920051 0.65315711
-0.01013337 -0.35086909 0.83171368
0.104789 -0.41459489 0.89558572
0.1112723 -0.16613419 0.8797133
0.072264649 -0.13994551 0.87126279
0.1121749 -0.1600118 0.87882501
-0.055439722 -0.26290801 0.8253985
0.1244945 -0.15244199 0.88727713
0.28038231 -0.4197816 1.034452
0.040149271 -0.1050196 0.68210649
-0.047699779 -0.1327275 0.71370631
-0.035854809 -0.23945659 0.83045697
-0.08582259 -0.2270989 0.79758692
0.1278265 -0.1071541 0.88184339
0.1303281 -0.1071863 0.82683867
0.1246968 -0.1319745 0.88502848
0.1475208 -0.1037258 0.82666153
0.058046989 -0.27915591 0.86689138
0.1003517 -0.25456229 0.88170618
0.081189238 -0.2363579 0.87540883
0.03839523 -0.3960143 0.85518122
-0.001524274 -0.38177049 0.84453082
0.1095525 -0.37318751 0.87953287
-0.033983812 -0.2543515 0.65342093
0.13087919 -0.124084 0.88734782
-0.01838167 -0.40894699 0.84265321
0.003637688 -0.2059496 0.85227752
-0.062580332 -0.1100242 0.82083529
0.1368468 -0.092290118 0.69243997
0.01585741 -0.1071063 0.70928288
-0.03975809 -0.1039632 0.7831164
-0.02585653 -0.1047999 0.77254063
-0.039380152 -0.13901991 0.6835711
0.015740581 -0.27652171 0.84941387
0.025780911 -0.1229163 0.85298771
0.1191051 -0.27052489 0.89216179
0.1226326 -0.2601757 0.88696277
0.003289324 -0.2339696 0.84403718
0.01693194 -0.39662501 0.49364659
0.092928648 -0.3716979 0.88254207
0.087565958 -0.42140391 0.89694971
-0.020491511 -0.27537191 0.83327132
0.01282498 -0.20235901 0.85488802
0.13973629 -0.1030428 0.66795123
0.113035 -0.1131755 0.73707622
0.06513162 -0.41614661 0.93152517
2.694968e-05 -0.1044423 0.72176021
0.24368151 -0.41603851 1.072336
0.0077818139 -0.40041119 0.84719843
-0.084833808 -0.2697238 0.80401862
0.097663112 -0.1740896 0.88413692
0.064140387 -0.2068179 0.86720109
0.049270138 -0.25760379 0.85995102
0.1079744 -0.41232729 0.98156452
0.1161427 -0.35284889 0.87796593
-0.01812597 -0.1059507 0.67581689
0.14662839 -0.1030085 0.80542707
0.14140099 -0.1040548 0.79654819
0.064161107 -0.099426419 0.79674357
0.1230334 -0.1008701 0.8814429
0.1241687 -0.09880358 0.80255371
0.1297335 -0.098428912 0.84686053
0.1688038 -0.1000882 0.75289428
0.084339768 -0.1042676 0.73015767
-0.04617887 -0.1081568 0.73962212
0.16251209 -0.098665677 0.75152391
0.1580672 -0.20028821 0.79112518
0.1268782 -0.1089169 0.89514267
0.1491352 -0.2066994 0.79133242
0.15310229 -0.1079681 0.80964899
0.1539358 -0.202858 0.81941062
-0.001279235 -0.1014033 0.84531152
-0.037350189 -0.1036693 0.71133178
0.1340849 -0.1021788 0.84083068
0.055243868 -0.099814638 0.8664946
0.133619 -0.1050517 0.88982958
0.1505826 -0.1013339 0.72876167
0.19708601 -0.17501859 0.67071182
0.17830069 -0.19303089 0.74636048
0.1705527 -0.2376398 0.77456719
0.16429541 -0.2614021 0.80084229
0.1616233 -0.1081722 0.78664732
0.1555717 -0.2353286 0.81373078
0.15875781 -0.2068305 0.79373181
0.1684424 -0.19597089 0.77455848
0.120026 -0.105686 0.88759762
0.1795132 -0.33253631 0.74016279
0.128023 -0.1001825 0.87394089
0.170812 -0.110403 0.76120609
0.1460679 -0.1850902 0.84718633
0.1760412 -0.2109179 0.75545108
0.1416246 -0.15782461 0.84754121
0.13213541 -0.1087639 0.87331212
0.19981091 -0.1801627 0.66668862
0.1428445 -0.1298577 0.85680169
0.15966821 -0.2381119 0.77822608
0.16513281 -0.1511683 0.76759797
0.17547581 -0.1732647 0.75447547
0.19019359 -0.2060502 0.70222062
0.1468059 -0.1543377 0.84497458
0.1660978 -0.1589471 0.77059639
0.1566104 -0.2144092 0.79679972
0.02145757 -0.098627329 0.63995361
-0.06153192 -0.1008207 0.78781289
0.19990081 -0.29238549 0.67297828
0.1463612 -0.18764719 0.84169757
0.148606 -0.25023341 0.84182543
0.1470675 -0.38149619 0.83833247
0.1613135 -0.25591779 0.79775512
0.16741461 -0.1174857 0.77271658
0.14343961 -0.3390798 0.8395105
0.1081816 -0.1013351 0.79704303
0.01871589 -0.099899709 0.8400287
0.14585081 -0.1012118 0.70538241
0.1704367 -0.1114118 0.76298898
0.1903452 -0.39386529 0.68232977
0.15832581 -0.13402089 0.76905888
0.1808304 -0.21714599 0.73537731
0.1491055 -0.1931929 0.82585019
0.1922213 -0.26623791 0.70526159
0.16693529 -0.26769689 0.77070719
0.16942289 -0.33677369 0.77115649
0.1399948 -0.1303034 0.86035329
0.23528861 -0.41737199 0.69405073
0.1312087 -0.1008034 0.80548197
0.16879679 -0.3491019 0.76271528
0.1666263 -0.34847501 0.79696751
0.1797796 -0.35255799 0.7389155
0.13718051 -0.2347897 0.87131578
