# .PCD v0.7 - Point Cloud Data file format
VERSION 0.7
FIELDS x y z normal_x normal_y normal_z curvature
SIZE 4 4 4 4 4 4 4
TYPE F F F F F F F
COUNT 1 1 1 1 1 1 1
WIDTH 583
HEIGHT 1
VIEWPOINT 0 0 0 1 0 0 0
POINTS 583
DATA ascii
0.084514484 -0.38939393 0.6262731 0.35788244 0.11431008 -0.92674339 0.0016184001
0.11354292 -0.34569746 0.63914013 0.36706722 0.022804812 -0.92991477 0.0015202176
0.13520724 -0.10689167 0.66121501 0.22149843 0.70086551 -0.67803097 0.070327342
0.016700275 -0.097435996 0.6328907 0.048164696 0.98759121 -0.14947815 0.015774902
-0.0084926961 -0.2743907 0.60566705 -0.54784262 -0.29619595 -0.78239149 0.036805741
0.018353686 -0.33842078 0.60695952 0.12496711 0.013037218 -0.99207526 0.0089476565
0.066107683 -0.1072664 0.63556457 0.27943033 0.66359425 -0.6939463 0.059141807
0.075467058 -0.36123177 0.62522644 0.33238223 0.0037396378 -0.94313729 0.00097887102
0.099150382 -0.39558843 0.63065076 0.34729859 0.16183408 -0.92368466 0.0012997354
0.059579141 -0.28315049 0.62345213 0.29385632 0.052361287 -0.95441431 0.00012151343
0.093735464 -0.37072718 0.63264525 0.3269802 0.036746867 -0.94431651 0.0017994407
0.18000314 -0.16582935 0.66661686 0.51978171 -0.030021356 -0.85377145 0.0087823048
0.19062616 -0.37045038 0.66920328 0.81021565 -0.095536269 -0.5782935 0.046071135
0.12927979 -0.3231951 0.64614362 0.34566221 0.048494052 -0.93710512 0.00019340875
0.15359129 -0.40637603 0.64864635 0.34892702 0.15838112 -0.92366952 0.0058999648
0.17885473 -0.40793347 0.66021752 0.55681682 0.047280047 -0.8292886 0.012075756
0.11889722 -0.24947843 0.64541239 0.36457625 0.018053884 -0.93099856 0.00032578903
0.084328055 -0.32438502 0.62715107 0.3390215 0.048053112 -0.93955058 0.00088774256
0.15691255 -0.10993138 0.66440201 0.22989485 0.58881181 -0.77488643 0.033171162
0.16819443 -0.10030071 0.68727839 0.23452549 0.94606793 -0.223502 0.024146678
0.1456876 -0.10233032 0.72600859 0.02217729 0.9993453 0.028583828 0.00067328819
0.13851836 -0.10001725 0.69414026 -0.014998094 0.99942452 -0.030426852 0.0034099827
0.040642537 -0.10284895 0.63142407 0.31213009 0.73838979 -0.59779209 0.042292364
0.18190056 -0.24390133 0.66704649 0.64735985 0.060332987 -0.7597928 0.018350791
0.13843144 -0.14746688 0.65279937 0.30255124 0.039281048 -0.95232332 0.00063098862
0.082889013 -0.15442199 0.63610053 0.29513192 0.01676457 -0.95530945 0.001134563
0.0038376797 -0.32736778 0.60601062 0.0088073537 0.014147563 -0.99986118 0.0094118463
0.081739023 -0.38141578 0.62689543 0.34560981 0.070995823 -0.93568873 0.0017435211
0.055250134 -0.33271095 0.61747676 0.30024046 0.044841561 -0.95280898 0.0011429987
0.087165654 -0.34798372 0.62884027 0.35397387 -0.025746295 -0.93490088 0.0006665918
0.0083661973 -0.1910305 0.60917997 0.072252467 -0.075960912 -0.99448955 0.010346617
0.077707641 -0.13986598 0.63387287 0.33577442 0.0035765972 -0.9419356 0.0023965645
0.041435752 -0.35624114 0.61311078 0.34056565 0.036700804 -0.93950415 0.00058137288
0.1804558 -0.21369803 0.66916013 0.57765818 0.0082109524 -0.81623751 0.018807255
0.1424004 -0.12487364 0.65479046 0.17468552 0.33162397 -0.92709792 0.017791275
0.17059973 -0.11849181 0.6654138 0.35138378 0.49521181 -0.79454064 0.020941433
0.066676028 -0.32870951 0.62108451 0.30416858 0.060463239 -0.95069748 0.00073214114
0.1694697 -0.34965497 0.65965617 0.43001923 0.063894622 -0.90055585 0.0047881952
0.17863604 -0.11787605 0.66931796 0.42792287 0.54277414 -0.7226882 0.028706565
0.056605007 -0.32911474 0.61858618 0.28465211 0.063938163 -0.95649624 0.0010063759
0.12034243 -0.28486869 0.64538163 0.33602738 0.036626253 -0.94113982 0.0019282827
0.056369353 -0.20888174 0.62534553 0.33879623 0.04896003 -0.93958509 0
0.083220549 -0.2962316 0.62996119 0.30408773 0.08430028 -0.94890684 0.00048459257
0.16213968 -0.26657492 0.66018254 0.32131794 0.002230491 -0.94696873 0.0014232205
0.082412072 -0.3055605 0.62853247 0.30870312 0.097073399 -0.94619191 0.00064399967
-0.011490799 -0.26159793 0.60482329 -0.67118376 -0.17740072 -0.71975088 0.015718309
0.157649 -0.28282905 0.6581791 0.31460637 0.020608624 -0.94899857 0.00042434034
0.19305283 -0.29736745 0.6748842 0.97713238 0.022897823 -0.21139492 0.075935535
0.036519706 -0.13327405 0.61626029 0.38993898 0.092906281 -0.91614187 0.0049456749
-0.0074321432 -0.28131074 0.60768306 -0.431187 -0.28664473 -0.85551888 0.038103994
0.18081057 -0.26681361 0.66666669 0.41675395 0.02087809 -0.90877944 0.0070749549
0.11435006 -0.11056715 0.64955485 0.39274961 0.30388933 -0.86798561 0.021766191
0.17861886 -0.27180421 0.66513979 0.4079552 0.031442907 -0.91246039 0.0046996856
0.059012659 -0.12861821 0.62697005 0.37941071 0.17344645 -0.90882552 0.0084179631
0.11171671 -0.1074411 0.65192097 0.30734476 0.70635092 -0.63765782 0.032727018
0.19137907 -0.186259 0.67803836 0.90548259 -0.16625345 -0.39046261 0.034113798
0.01564214 -0.39273214 0.60118097 0.20019509 0.062489301 -0.97776121 0.0039553698
0.18412894 -0.25004554 0.66928548 0.70088869 0.011466983 -0.71317852 0.038575403
0.035664458 -0.36178276 0.61074859 0.34347638 0.071471937 -0.93643785 0.00054170622
0.18422097 -0.36080518 0.66347831 0.56165314 0.012315128 -0.82728112 0.012420074
0.0084693795 -0.10212607 0.66604227 0.011639567 0.99646401 0.083211429 0.0024199979
0.12863094 -0.28668329 0.64865375 0.33110327 0.044878941 -0.94252664 0.0016881583
0.093203411 -0.27027327 0.63499212 0.35083741 0.025988866 -0.93607569 0.00040932483
0.1509804 -0.35860634 0.6530273 0.28797847 0.017744159 -0.95747244 0.00073941483
0.095985182 -0.32925943 0.63106853 0.37810063 0.028953196 -0.92531157 0.0010902199
0.13893206 -0.41927472 0.62242347 -0.51349056 -0.65451872 0.55491686 0.021670081
0.049409498 -0.13471773 0.62228817 0.38406006 0.090544596 -0.91885775 0.0048973728
0.086433053 -0.24637952 0.63317406 0.32336387 0.039111216 -0.9454661 0.00012262116
0.1705039 -0.38690877 0.65675288 0.48928905 -0.01832437 -0.87192917 0.0052171242
0.10908713 -0.2079981 0.64185333 0.31694493 0.019782996 -0.9482376 2.9863599e-05
0.19342127 -0.33043176 0.674775 0.79099321 0.07778731 -0.60685992 0.045822158
0.13738041 -0.34460458 0.64851677 0.33836201 0.046721403 -0.93985552 0.0012296451
0.19134797 -0.39020625 0.67588454 0.89536923 0.026118979 -0.44455793 0.044368345
0.17840724 -0.32364368 0.66352814 0.44592863 0.097634055 -0.88972759 0.0032129372
0.12322663 -0.32059601 0.64413404 0.35164607 0.056631718 -0.93441844 0.00041305769
-0.0067497008 -0.32733205 0.61026841 -0.38483506 0.052484039 -0.92149198 0.049066704
0.079045273 -0.34797639 0.62587732 0.33414888 -0.024674183 -0.94219732 0.00056528405
0.13778897 -0.30790928 0.65043372 0.32913882 0.061159387 -0.94229889 0.0002660173
0.10070289 -0.31011903 0.63559258 0.39329225 0.11444645 -0.91226262 0.00044666842
0.040543947 -0.32454073 0.61286968 0.28742683 0.074731015 -0.9548828 0.00055820268
0.14980035 -0.35482392 0.65292931 0.29993132 0.039436802 -0.95314527 0.00094974192
0.0055597797 -0.3165465 0.60610706 0.014829155 0.011910085 -0.9998191 0.0044300538
0.066513702 -0.37098807 0.62215322 0.33822477 0.058192842 -0.93926442 0.0010403618
0.025310641 -0.26491255 0.612656 0.33431521 -0.013475749 -0.94236499 0.0006864905
0.059360214 -0.33965153 0.61896366 0.31647605 -0.015406683 -0.94847536 0
0.017938752 -0.10232777 0.78271347 -0.013961313 0.99889052 0.044976652 0.0004480546
0.024553865 -0.10070887 0.75532866 -0.040079907 0.99902117 0.018715432 0.00030567122
0.057310306 -0.29009402 0.62238437 0.29610175 0.059730124 -0.95328701 0.00054484449
0.077004537 -0.29255527 0.62830567 0.29419598 0.073804393 -0.95289117 0.0004145345
0.10381496 -0.34006736 0.6348871 0.36970592 0.019481974 -0.92894453 0.00095290417
0.059126101 -0.10563698 0.86208981 -0.25498393 0.60328645 0.75566435 0.04300553
0.10555372 -0.10076129 0.81544441 0.04610198 0.99882966 0.014628016 0.00026858997
0.14899004 -0.13257325 0.65603769 0.26331204 0.20845236 -0.94192064 0.011206454
0.189162 -0.40810359 0.66761589 0.69467044 0.13828386 -0.70591116 0.025169624
-0.0004543539 -0.35452586 0.60362875 -0.18274975 0.20581606 -0.96137524 0.01932456
0.14715984 -0.11234475 0.65975803 0.23794164 0.45170075 -0.8598547 0.027789732
0.14465153 -0.17166755 0.65416193 0.3273367 0.0053948159 -0.94489235 0.00023321908
0.11296303 -0.22196747 0.64291978 0.35596874 0.0095832078 -0.93444872 0.00038060386
0.14916857 -0.23688249 0.65648651 0.29029065 0.019207401 -0.95674574 0.00059478002
0.13016911 -0.33073515 0.64635044 0.34839514 0.054203503 -0.93577921 0.00039766793
0.17152904 -0.38444173 0.65725368 0.500543 -0.020341806 -0.86547267 0.0051078163
0.12419927 -0.27593175 0.64719927 0.33212078 0.00197174 -0.9432348 0.0011627572
0.13737977 -0.25739369 0.65228224 0.32258695 0.017187396 -0.94638377 0.00014075244
0.032227777 -0.23473819 0.61386818 0.32923448 0.046314124 -0.94311172 0.00059862289
-0.01031331 -0.26519704 0.60485339 -0.61732411 -0.19650757 -0.76177144 0.021359215
0.090923198 -0.38419139 0.63046914 0.35903564 0.088984989 -0.9290722 0.0018759777
0.15482198 -0.30716455 0.65639055 0.33634353 0.062417679 -0.93966854 0.00023971239
0.13235681 -0.10126185 0.71663612 0.0058574551 0.99986076 0.015624254 0.00078085845
0.0058994954 -0.098212495 0.82196045 -0.13419299 0.98319513 0.12377218 0.027336465
0.17298773 -0.20861122 0.66480303 0.43183753 0.059020299 -0.90001833 0.006325068
0.17687868 -0.38485286 0.66138142 0.54095942 -0.034606665 -0.84033638 0.0087908963
0.17014879 -0.26943803 0.66202891 0.3693673 0.021391515 -0.92903721 0.0053160274
0.16036081 -0.10275982 0.76299834 0.35288063 0.91215456 0.20844519 0.022906998
0.032514412 -0.10167752 0.70450991 -0.015711498 0.99726081 -0.072277233 0.00042342319
0.1526064 -0.30892017 0.65546256 0.33286849 0.06221525 -0.94091862 0.00063924934
0.013949709 -0.30078176 0.6072464 0.18644251 0.010875484 -0.98240572 0.0057586208
0.078989118 -0.25078058 0.63017356 0.32297647 0.04105841 -0.94551587 0.00042939442
0.17216766 -0.25524887 0.66207361 0.41889045 0.019111469 -0.9078356 0.010667164
0.10851759 -0.2501843 0.64091194 0.36418849 0.016795922 -0.93117386 0.00032925355
0.020853866 -0.30825868 0.60805899 0.20651314 0.019510357 -0.97824925 0.0058038263
0.077427864 -0.33468384 0.62456977 0.32988897 0.0087769106 -0.94397897 0.00031424544
0.056780092 -0.10226388 0.66968632 -0.0037441691 0.99828023 0.058501467 0.0022717908
0.14656401 -0.10604027 0.81473559 0.31351829 0.93400073 0.17131527 0.011775251
0.1322093 -0.10049906 0.68529391 -0.036431953 0.99144751 -0.12531739 0.0061759008
0.18784933 -0.25253341 0.67238253 0.8800112 -0.008247952 -0.47488138 0.032108277
-0.016628327 -0.38027751 0.6056841 -0.66337907 0.16221893 -0.7304883 0.04110416
0.0388324 -0.40207946 0.60810256 0.31924653 0.16264825 -0.93360978 0.0068694232
0.13701905 -0.27598533 0.6512059 0.32689673 0.0091449404 -0.94501579 0.00053817948
0.15097792 -0.28080428 0.65622926 0.31113359 0.021888856 -0.95011407 0.00026728227
0.017445605 -0.10999747 0.61057025 0.29066995 0.48605102 -0.82417548 0.030734308
-0.012408388 -0.40851739 0.59390998 0.08038754 0.14766708 -0.9857648 0.037515782
0.056756563 -0.41074222 0.60815108 0.3023999 0.2908054 -0.90773702 0.008389907
0.048796218 -0.2495355 0.61952955 0.33620209 0.0070009045 -0.94176388 0.00072133355
0.090568252 -0.31152132 0.63059855 0.37243158 0.099298887 -0.92273206 0.00085259147
0.041287832 -0.13833712 0.61837137 0.39687371 0.036469892 -0.91714841 0.0034714392
0.046201859 -0.18373227 0.62199754 0.34334955 0.010330344 -0.93915093 0.00025096649
0.17553416 -0.10677107 0.67501444 0.38876396 0.79238898 -0.47008759 0.023173787
0.15917313 -0.10320449 0.67344791 0.18460053 0.87519181 -0.44717109 0.033376046
0.19080408 -0.25261915 0.67533118 0.92665255 -0.052949678 -0.37217116 0.027720785
0.060283717 -0.20425269 0.62679881 0.32694742 0.032787133 -0.94447362 5.5586665e-05
0.19254866 -0.16286062 0.675488 0.75535077 -0.0034031612 -0.65531194 0.055380821
0.11284177 -0.14282027 0.64493221 0.30393863 0.039237831 -0.95188326 0.0010693672
0.19406328 -0.1339885 0.6764046 0.81670034 0.094617024 -0.56925231 0.030178536
0.042076126 -0.12913893 0.61892736 0.37042457 0.18411471 -0.91043258 0.012002004
0.015897313 -0.20877977 0.61099857 0.20301215 0.036366243 -0.97850066 0.009044935
0.043289267 -0.11856574 0.62042356 0.3740038 0.2917318 -0.88034862 0.014181689
0.081251159 -0.18961692 0.63364184 0.28679627 0.044264592 -0.95696837 0
0.10853127 -0.20343044 0.64153999 0.3051644 0.027281191 -0.95190883 0.00057054352
-0.0013491248 -0.26921171 0.60284466 -0.12923224 -0.11625348 -0.9847762 0.046554059
0.038921136 -0.40365815 0.60811955 0.3183521 0.17492504 -0.93169379 0.0073331231
0.04788987 -0.10725787 0.62880343 0.30038914 0.60094631 -0.74069554 0.044894386
0.14973804 -0.10688844 0.66544241 0.15803525 0.68142486 -0.71462232 0.048099
0.17209397 -0.16034804 0.66380769 0.42661002 -0.040147573 -0.90354419 0.0055712257
0.058805637 -0.10546289 0.63530457 0.27707264 0.72535294 -0.63015383 0.056693442
0.19609691 -0.11585967 0.6876272 0.72411072 0.60268652 -0.33530957 0.074530013
0.19462183 -0.11407624 0.68490022 0.63106805 0.66514885 -0.39916173 0.052029047
0.15671028 -0.098987445 0.6911391 0.0530417 0.99431354 -0.09234184 0.0091077732
0.11113877 -0.10125391 0.73832256 -0.017254351 0.99947286 -0.027500108 0.00014722353
0.12079404 -0.20847426 0.64598477 0.33864966 -0.0054201344 -0.94089687 8.5982014e-05
0.11523157 -0.101839 0.71055537 -0.026554799 0.99962622 -0.0065074889 0.00065414666
0.13970041 -0.10171335 0.7246204 0.016231053 0.99967861 0.019473715 0.00050687342
0.01717566 -0.10133615 0.71601969 -0.046562873 0.99855483 -0.026834872 0.0010386282
0.039312195 -0.10206386 0.63211411 0.304138 0.78577948 -0.53856349 0.0354481
0.13662374 -0.10315672 0.78063899 0.17590149 0.98429734 0.014748203 0.0042547258
0.17773724 -0.11069141 0.67217946 0.43740574 0.65015036 -0.62127352 0.026492149
0.048469722 -0.10006603 0.74839187 -0.006717172 0.99991244 0.011394271 0.00055389706
0.13293999 -0.10105447 0.68877077 -0.034777116 0.99563712 -0.086587287 0.0047457265
0.01700436 -0.1024858 0.78601223 -0.010137594 0.99882948 0.047296617 0.00046191108
0.024538033 -0.10069206 0.75827628 -0.033269059 0.99913013 0.025140118 0.00039592973
0.045565769 -0.10320931 0.67254996 -0.016500421 0.99547547 0.093575858 0.0021816154
-0.039207362 -0.099572331 0.80274618 -0.026858618 0.99469864 0.099263534 0.0068387943
-0.051094536 -0.10233619 0.815126 -0.2477963 0.91740471 0.31139293 0.018850826
0.10676814 -0.10026829 0.76087493 0.0099839717 0.99961436 -0.025911205 0.00031331496
0.081440203 -0.10281596 0.69810534 -0.0024242671 0.9999423 -0.010468598 0.00074737146
0.076271072 -0.099789791 0.79328644 0.0021374449 0.99999517 -0.0022438494 0.00023648964
0.1579185 -0.10302641 0.67365247 0.16161801 0.8998512 -0.40515107 0.031341288
0.008903672 -0.22962417 0.60686624 0.13744061 0.073666669 -0.98776686 0.0061689392
0.14663833 -0.31939864 0.6519556 0.32590097 0.058882538 -0.94356841 0.00035042231
-0.003743988 -0.10024605 0.65337008 -0.18219121 0.98302132 0.0218031 0.014003849
0.14299364 -0.10206845 0.72812074 0.018741418 0.99945879 0.027035626 0.00063280488
0.19178224 -0.26803029 0.70277482 0.95958287 -0.054509487 0.27609667 0.001627095
0.013345269 -0.098016985 0.63296032 0.023118332 0.98937756 -0.14351904 0.014480224
0.030110782 -0.1001427 0.65009099 0.053429667 0.9985652 0.0035818175 0.010194607
0.033363637 -0.10087804 0.7111032 -0.017033586 0.99752706 -0.068188883 0.00077883998
0.099076204 -0.1001976 0.78562951 0.052042723 0.99824578 0.028228695 0.00017528086
0.19187357 -0.23756057 0.68085456 0.93924636 0.018439606 -0.34274802 0.021615872
-0.017983388 -0.10388178 0.63682282 -0.60590869 0.76544082 -0.21673706 0.029983472
0.067835204 -0.099892169 0.80960697 0.016920801 0.99980128 -0.010538089 0.00046199458
-0.053468123 -0.10222587 0.76299661 -0.289552 0.94739485 -0.13639134 0.017362878
-0.0026284042 -0.10176201 0.74729091 0.0081303874 0.9996078 -0.026796475 0.00049800338
0.0064658709 -0.10248573 0.79595929 0.019732777 0.99979788 -0.0038507413 0.0026620009
-0.015137147 -0.1021772 0.66771996 -0.21046549 0.97444665 -0.07847283 0.03185495
-0.062164102 -0.10431076 0.76885337 -0.3034839 0.94551659 -0.11788113 0.0065658465
-0.0017521984 -0.10074057 0.83088487 -0.30990365 0.65452373 0.68960744 0.023802973
0.0012810272 -0.10156064 0.66559839 -0.016618704 0.99836868 0.054623749 0.0042918003
0.069612324 -0.099479422 0.8225103 0.051364593 0.99796337 -0.037826192 0.0011485802
0.11603212 -0.1012339 0.79052949 0.074482635 0.99710208 0.015483203 0.00023918244
0.17576502 -0.1134175 0.76273549 0.92489946 0.21939833 0.3105242 0.025260748
0.13545507 -0.1035644 0.67001301 -0.033075027 0.89498246 -0.44487357 0.049800668
-0.0083592394 -0.14264844 0.60592318 -0.32697749 0.038135707 -0.94426227 0.024782486
-0.029751699 -0.097415894 0.6947208 -0.47429341 0.83576596 -0.27666056 0.043306943
0.17566867 -0.34356579 0.75386071 0.94667649 -0.04613477 0.31886533 6.3189371e-05
0.10890188 -0.10125523 0.82140827 0.060279567 0.99792361 0.022687279 0.00080882024
0.059664406 -0.10037316 0.79071259 -0.03203487 0.99945867 -0.0074976194 0.00046739538
0.1270614 -0.10274052 0.83532923 0.33474615 0.94013745 0.063926339 0.018216539
0.1007915 -0.10053436 0.79643661 0.048712235 0.99853927 0.023377974 0.00019267523
0.085358225 -0.10374165 0.86651963 -0.12008961 0.7334255 0.66907811 0.042908229
-0.034567568 -0.10097312 0.81896442 -0.058051042 0.94687676 0.3163138 0.016412672
-0.041447435 -0.098913178 0.77160561 -0.14828096 0.98607355 -0.075310305 0.010867577
0.1159149 -0.10182643 0.821612 0.083068743 0.99637312 0.018441359 0.0011349299
0.14630941 -0.1052754 0.80532199 0.23200677 0.9720456 0.036058765 0.0034298229
0.14539672 -0.10543752 0.81143105 0.22545747 0.97219372 0.063311554 0.0035580709
0.16066191 -0.10200304 0.75366104 0.29458275 0.94302613 0.15466966 0.051276073
0.16501157 -0.21578789 0.6613791 0.38815218 0.05622137 -0.91987884 0.0057957047
0.16627288 -0.10115553 0.7515161 0.40580258 0.89720953 0.17418154 0.070788838
0.16151683 -0.10949474 0.78439069 0.4407106 0.87990761 0.17758577 0.041770626
0.14030088 -0.10941455 0.84631944 0.69320077 0.69895267 0.17589144 0.055039532
0.14595206 -0.13554791 0.65562916 0.28882632 0.14545311 -0.9462679 0.0066688
0.0027329733 -0.10156786 0.61593604 -0.1307267 0.88039547 -0.45586661 0.038303223
-0.057769101 -0.098310925 0.78332293 -0.29015234 0.95192564 -0.098230667 0.0083297901
0.18654402 -0.13558453 0.73268628 0.93889236 0.034111038 0.34251645 0.0043156589
0.18421692 -0.37710869 0.66404629 0.61156249 -0.065053679 -0.78851712 0.017285742
0.17660661 -0.18843947 0.74501568 0.94423622 0.038148142 0.3270514 0.00036239953
0.18809849 -0.36835152 0.71722937 0.94681132 -0.019928558 0.32117149 0.0004621828
0.18191223 -0.29859349 0.73382151 0.95762146 0.010268639 0.28784674 0.00029310503
-0.048421856 -0.10386296 0.73592943 -0.72067732 0.67942172 -0.13787825 0.044567592
0.033993904 -0.10033235 0.65167457 0.054291889 0.99847007 -0.010474924 0.0098715322
0.19658847 -0.40047717 0.68607938 0.86748624 0.44424444 -0.22386281 0.024878062
0.18709823 -0.24567358 0.72281402 0.95561284 -0.00087119453 0.29462406 0.00088884705
0.17283626 -0.35171574 0.75956887 0.9472512 -0.049729846 0.31661037 0.00016724349
0.014293556 -0.1012046 0.7717604 0.0051423926 0.99917811 0.040207256 0.00082693016
0.011809776 -0.10144256 0.73775625 -0.051383987 0.99867362 -0.003270475 0.00025522729
0.085427672 -0.10073061 0.82854116 0.035166498 0.99936908 -0.0049736472 0.00039157816
0.13122422 -0.10395205 0.8408497 0.40093541 0.91395128 0.062800966 0.019250162
0.14351115 -0.11342518 0.8441245 0.71708113 0.66767788 0.20000198 0.052366674
0.067166246 -0.10289992 0.86251163 -0.15405589 0.7883411 0.59563839 0.043843776
0.13412915 -0.10513704 0.66425335 0.12442315 0.86127418 -0.49267185 0.059815072
0.044749483 -0.1115313 0.62394863 0.35350481 0.4220373 -0.83481663 0.030944416
0.16931741 -0.13489597 0.76861596 0.93159676 -0.010192282 0.36335045 0.0037724753
0.13255064 -0.10977709 0.87000555 0.81163955 0.37326768 0.44934672 0.035347749
0.14352559 -0.30703998 0.84109133 0.96656424 0.098655492 0.23668671 0.00042089444
0.08854723 -0.09938366 0.85792065 0.026020227 0.98059857 0.19429222 0.019553959
0.18824516 -0.32938597 0.71706307 0.95133787 0.052304395 0.30367824 0.00085398415
0.16711576 -0.36934522 0.77469236 0.95096982 -0.047335092 0.30564001 9.6045602e-05
0.19252473 -0.27447757 0.70030767 0.98321283 -0.055399757 0.17384918 0.0082141506
0.16240728 -0.35224104 0.79206109 0.95149565 -0.053466525 0.30298072 0.00010169901
0.19262904 -0.43576723 0.67022699 0.69149607 0.061800141 -0.71973193 0.016517272
0.1620402 -0.35680878 0.79233128 0.95340824 -0.045471754 0.29823652 0
0.22472389 -0.43617475 0.71884781 0.46728256 -0.83165258 -0.30000156 0.19252825
0.13919014 -0.099926695 0.68153834 -0.022390084 0.98607475 -0.1647889 0.0088876123
-0.0042239958 -0.17017305 0.60627478 -0.25531206 -0.16477659 -0.95271426 0.047789667
0.094130814 -0.11458476 0.63889468 0.28632304 0.33199614 -0.89877564 0.022845654
-0.044569287 -0.10258008 0.75093412 -0.39484254 0.90453637 -0.16097628 0.04416072
0.16116343 -0.41009459 0.77885753 0.92470819 -0.17100112 0.34010801 0.0015263875
0.18303022 -0.28015402 0.72824317 0.95206374 -0.042171553 0.30297887 0.0011347438
0.19187976 -0.30830058 0.69925994 0.99179888 -0.073459938 0.10458776 0.010002435
0.17614581 -0.28711882 0.74829292 0.94972789 0.020140337 0.31242797 0.0003188448
0.17507429 -0.42045569 0.85935712 -0.0001537784 -0.89514887 0.44576728 0.0015950263
0.23315455 -0.42470372 0.71377259 0.57090503 -0.81706089 -0.080492266 0.16576245
0.18405685 -0.43202797 0.71616596 0.93707204 -0.0082103899 0.34903952 0
0.20953517 -0.41903362 0.70313948 -0.51088864 -0.83419114 0.20764881 0.067565843
0.16247062 -0.10087929 0.68039769 0.17926183 0.94185126 -0.2842209 0.022960667
-0.023950411 -0.099849984 0.75658816 -0.0026149808 0.99898452 -0.044977568 0.0030635558
0.05511646 -0.099119425 0.81780589 0.013504834 0.99854344 -0.05223611 0.0012599418
0.09423434 -0.10016701 0.79720467 0.044557035 0.99866331 0.026195416 0.00020475278
0.040033109 -0.37610242 0.61079949 0.35670796 0.083992474 -0.9304325 0.00013345953
0.039992802 -0.34086445 0.61300009 0.2892471 0.0086195758 -0.95721561 0.00026069279
0.14457303 -0.10200851 0.71356356 -0.0022240821 0.999053 0.043453686 0.0012860706
-0.0067470763 -0.10911278 0.84012496 -0.36316422 0.45240775 0.81451768 0.031091003
-0.032284025 -0.10300128 0.82294482 -0.15955134 0.83336318 0.52919674 0.022173746
0.23379686 -0.41833884 0.69930857 0.57090503 -0.81706089 -0.080492266 0.16576245
0.18689543 -0.19087888 0.67327487 0.64702189 -0.093753755 -0.7566855 0.032750722
0.087086141 -0.10194343 0.7336632 -0.013891628 0.9994297 -0.030777548 0.00044846706
0.13262023 -0.099686578 0.6899218 -0.034430735 0.99644703 -0.076862007 0.0043939725
0.087226592 -0.10303387 0.68328834 0.00099955872 0.99980903 0.01951967 0.0020227006
0.15173534 -0.10760915 0.81420517 0.38135606 0.90645123 0.18142141 0.01037674
0.088514604 -0.41773915 0.92423332 -0.0012364647 -0.9999662 0.0081284242 0.015878674
-0.074336782 -0.41469786 0.877913 -0.21249348 -0.96922958 0.12425932 0.0024316509
0.109823 -0.41002047 0.93840015 0.15908729 -0.98659903 0.036245078 0.035896439
0.017916698 -0.099250682 0.62456304 0.10527473 0.92997468 -0.35222775 0.021759303
-0.0017787436 -0.10763863 0.6109916 -0.25821018 0.68635356 -0.679887 0.062425572
0.024781642 -0.09946724 0.62854463 0.26095805 0.85460109 -0.44895193 0.030326994
-0.0050629186 -0.1093047 0.60965645 -0.28595373 0.56338054 -0.77513415 0.0582355
-0.0063658077 -0.10840013 0.61204541 -0.33315182 0.66898775 -0.66442847 0.060162183
-0.011501244 -0.1138522 0.61081052 -0.51857841 0.40918264 -0.7507636 0.053116057
0.01674179 -0.097539678 0.63283926 0.048164696 0.98759121 -0.14947815 0.015774902
0.0095765907 -0.10340719 0.6136927 0.029158561 0.7878896 -0.61512572 0.046076052
0.04968759 -0.10286399 0.68837577 0.0094014462 0.99991006 0.0095645469 0.0021501377
0.053081837 -0.10291097 0.67398334 -0.014362236 0.99636918 0.083918013 0.0015388211
0.039336864 -0.10256719 0.63135469 0.30684802 0.75013882 -0.58577806 0.039074324
0.068231441 -0.10292334 0.70754313 0.0029496402 0.99985582 -0.016724817 0.00033634173
0.040896758 -0.10277274 0.68270689 -0.0084192585 0.99996448 0.00037704076 0.0030421673
0.1699592 -0.10136784 0.68382037 0.27903217 0.9141928 -0.29392612 0.022142757
0.04164036 -0.1035448 0.63149023 0.31427112 0.72775859 -0.60959089 0.043683995
0.057837211 -0.10703219 0.63313657 0.30275339 0.6292339 -0.71582484 0.057376575
0.052358929 -0.099022523 0.65520799 0.055040207 0.99767303 -0.040236007 0.009490543
0.056413334 -0.10201448 0.66953957 -0.0037441691 0.99828023 0.058501467 0.0022717908
0.17650735 -0.10598617 0.73889059 0.72307563 0.67492241 0.14710996 0.076871641
0.05594629 -0.099057339 0.65136653 0.089418925 0.98069769 -0.17388569 0.03498707
0.060662944 -0.10715036 0.63428783 0.27737063 0.68808287 -0.67052782 0.061199713
0.1379382 -0.10308413 0.66999859 -0.023695273 0.88350397 -0.46782398 0.052523565
0.16009218 -0.10234196 0.73549372 0.19124614 0.98107314 -0.030336929 0.0090686427
0.15576774 -0.10253058 0.67475909 0.13028768 0.92471319 -0.357674 0.032379255
0.17369345 -0.10408566 0.67895406 0.34812891 0.85556465 -0.38316497 0.019229215
0.053480584 -0.10281966 0.68312162 -0.010460427 0.998896 0.045797508 0.0018598464
0.078862265 -0.1026011 0.67843461 0.00037797284 0.99888331 0.047243103 0.00088298315
0.037495974 -0.098948069 0.64864123 0.12443656 0.98910379 -0.078670785 0.016014345
0.14615063 -0.1054633 0.8132953 0.28012744 0.95080084 0.13231173 0.0091781998
0.14509203 -0.10507082 0.8083235 0.22679661 0.97316527 0.038894024 0.0031519562
0.13086404 -0.10298421 0.83288276 0.30683532 0.94500816 0.11318846 0.016574984
0.13597448 -0.10486645 0.83303273 0.29919168 0.94547361 0.12870142 0.014977413
0.16895247 -0.10702576 0.76537246 0.85287523 0.41097137 0.32203481 0.041201945
0.13536507 -0.1042839 0.82665133 0.28363431 0.94576889 0.15834391 0.012979099
0.10813633 -0.10143099 0.80378675 0.053390458 0.99839044 0.019128874 0.00024582449
0.11908226 -0.10151483 0.82229763 0.12485245 0.99200249 0.018521326 0.0019404488
0.11797718 -0.10165953 0.83535194 0.20218042 0.97726059 0.063913703 0.010204047
0.16773692 -0.10181777 0.74996144 0.36318997 0.91988581 0.14799716 0.066287927
0.16678816 -0.10196819 0.75127375 0.40580258 0.89720953 0.17418154 0.070788838
0.044282116 -0.10291079 0.67112672 -0.011579551 0.9958716 0.090031065 0.0021925475
0.14847903 -0.10209616 0.71879435 0.0076511214 0.99870509 0.050295554 0.0013809913
0.060160946 -0.10262253 0.68129987 -0.015015761 0.9978922 0.06313251 0.0011424739
0.1449053 -0.102097 0.72527468 0.023789044 0.99922162 0.031468369 0.00064721907
0.14401497 -0.11270108 0.84267497 0.6798948 0.70089704 0.21560694 0.048472445
0.13335581 -0.10037712 0.68428212 -0.034169264 0.99132025 -0.12695132 0.0061841481
0.032055579 -0.10306714 0.66632527 -0.0087979361 0.9941023 0.10808899 0.0013563482
0.078831002 -0.102776 0.68610281 0.0062884549 0.9998675 0.015014598 0.00095732411
0.027484193 -0.099288844 0.62961525 0.27203265 0.85993558 -0.43186691 0.028397365
0.10825089 -0.10563534 0.65202641 0.1553711 0.88370204 -0.44150949 0.030647391
0.13231738 -0.10596139 0.86289245 0.77818739 0.52183998 0.34943858 0.039047681
0.074837193 -0.10218834 0.73115385 0.010140757 0.99848896 -0.054009382 0.00053550431
-0.0071120327 -0.10037331 0.65217078 -0.2300148 0.97318703 0.00050899771 0.01961717
0.013071281 -0.10135733 0.72016793 -0.057904519 0.99790311 -0.028922768 0.00043337533
-0.06651894 -0.10950726 0.81757271 -0.58342451 0.5760355 0.5725373 0.037667375
0.17871575 -0.10540064 0.703502 0.38032016 0.92427617 0.032711614 0.016600257
0.1072756 -0.1014019 0.80540186 0.049855933 0.99852461 0.021515664 0.00021726641
-0.047983959 -0.10550389 0.82195884 -0.16864313 0.897937 0.40653232 0.011510637
0.064025231 -0.10671528 0.86554784 -0.28261223 0.51623964 0.80847198 0.042522598
0.031196419 -0.10098298 0.71044874 -0.020757757 0.99747956 -0.067850001 0.00083340605
-0.047932651 -0.10572365 0.82218373 -0.16864313 0.897937 0.40653232 0.011510637
-0.066559136 -0.10981942 0.8178581 -0.58342451 0.5760355 0.5725373 0.037667375
0.13669212 -0.1032714 0.78172821 0.17926392 0.98371983 -0.012641656 0.0031470577
-0.030834986 -0.098477058 0.69064659 -0.42954171 0.8514452 -0.30089024 0.036770444
-0.057241585 -0.10354741 0.76158416 -0.42390269 0.87747616 -0.22437072 0.024674688
-0.063813254 -0.10686294 0.76653361 -0.35213172 0.92321396 -0.15388067 0.0055065015
-0.057174779 -0.10555694 0.75802237 -0.45315418 0.85720623 -0.24464025 0.026893463
-0.0039652018 -0.1061034 0.61230069 -0.28535485 0.7158829 -0.63724744 0.059349995
-0.046373293 -0.10566857 0.71761107 -0.86068535 0.47485951 -0.18365541 0.011518329
-0.029857421 -0.10699544 0.67196351 -0.69573778 0.64092529 -0.32428971 0.033769734
-0.049105454 -0.10981087 0.72149098 -0.89497924 0.39727116 -0.20294799 0.015787574
-0.04973197 -0.12410907 0.70948666 -0.94351226 0.17355298 -0.28224787 0.0053801164
-0.027199278 -0.10506643 0.67234296 -0.57642508 0.74752748 -0.33005568 0.046986248
-0.069136299 -0.10832491 0.77244729 -0.41171095 0.89865386 -0.15137817 0.0055927695
-0.056863364 -0.12705356 0.73111159 -0.94112915 0.20893198 -0.26575077 0.0099249519
-0.057339773 -0.10738833 0.75304294 -0.51388109 0.80388349 -0.29949546 0.036550242
-0.086905837 -0.41184375 0.820656 -0.13197057 -0.81205595 -0.56846189 0.037490103
-0.086975098 -0.41385809 0.82537621 0.049651012 -0.94142771 -0.33353963 0.049106658
-0.09018904 -0.41423124 0.83187461 -0.31310138 -0.93305582 -0.17712824 0.022959653
-0.075479589 -0.41481477 0.87270916 -0.21249348 -0.96922958 0.12425932 0.0024316509
-0.091445774 -0.41352355 0.85345352 -0.19010465 -0.98078364 0.043860193 0.0013208336
-0.056645203 -0.4081603 0.82942301 -0.27820423 0.16051336 0.94701523 0.013561534
0.051533673 -0.09669514 0.84524858 -0.060898777 0.98420411 0.16623345 0.02020767
0.10756835 -0.10143875 0.72857571 -0.021118892 0.99967933 -0.013969865 0.00015788195
0.069223203 -0.099478103 0.82005745 0.045841943 0.99845356 -0.031449616 0.0011016426
0.1284171 -0.10141419 0.6994766 -0.040790033 0.99891102 0.022648696 0.0013725277
0.14961912 -0.099322997 0.69048345 0.010499511 0.99501592 -0.099161796 0.0085288007
0.1343499 -0.10057973 0.69118136 -0.028584652 0.99764574 -0.062336773 0.0040354775
0.13784333 -0.10292269 0.67035007 -0.041999944 0.89365584 -0.44678321 0.049579687
0.058464613 -0.10091611 0.64490342 0.19663149 0.9379161 -0.28574389 0.046316598
0.14139214 -0.10416218 0.66835171 0.0089611523 0.87199533 -0.48943207 0.053305298
0.051832721 -0.1000148 0.80449736 -0.025022382 0.9993068 -0.02756205 0.00035853023
0.027467929 -0.10018154 0.72384953 -0.044373348 0.99873126 -0.023810741 0.00085259328
0.12483852 -0.10111359 0.70332104 -0.027558146 0.99948609 0.016375106 0.0012258018
0.012496749 -0.10271413 0.78773761 0.017813602 0.99879283 0.04577649 0.00075588725
0.054084513 -0.10009949 0.80540836 -0.0157371 0.99954778 -0.025624461 0.00040800951
0.059327096 -0.10041878 0.77943617 -0.030394608 0.99950004 0.0087159714 0.00026400338
0.076834545 -0.10241482 0.72912681 0.0034485634 0.99900877 -0.044379149 0.00065102958
0.080671042 -0.102747 0.69508547 -0.0001946101 0.99999797 -0.0020195884 0.00094859092
0.12661086 -0.10154604 0.71011674 -0.0025495603 0.99979389 0.020140495 0.00078164297
0.017728074 -0.10114688 0.76078451 -0.028643252 0.99930048 0.024043152 0.00059160002
-0.0014057504 -0.10122087 0.83189017 -0.32912368 0.60361487 0.72617257 0.028171306
0.11909515 -0.10169363 0.83422637 0.23648316 0.96928227 0.067583926 0.010043155
0.1461174 -0.10203277 0.72191304 0.012032196 0.99927139 0.036219496 0.00054390385
0.14645156 -0.10571815 0.81241602 0.27210629 0.95549339 0.11397656 0.0071512563
0.13271108 -0.1062709 0.86177129 0.76554447 0.55440784 0.32645616 0.037005458
0.16813651 -0.10182448 0.74793077 0.33532685 0.93461245 0.11855578 0.058651015
0.020998467 -0.1009972 0.75648636 -0.032933623 0.99923509 0.021082008 0.00042860999
0.069184043 -0.10301853 0.71277481 0.0082399137 0.99968612 -0.02366122 0.00046633239
0.16925696 -0.10246673 0.74981385 0.41120434 0.895621 0.16962928 0.067065261
0.013971977 -0.10131986 0.72032994 -0.057904519 0.99790311 -0.028922768 0.00043337533
-0.011972005 -0.10103273 0.64355659 -0.39563894 0.91768181 -0.036469072 0.029214596
0.023594212 -0.10074735 0.71539581 -0.056515638 0.99752361 -0.041864961 0.00060899404
0.041348469 -0.10282754 0.68071973 -0.0041358792 0.99903959 0.043622721 0.0032575899
0.01894632 -0.10166711 0.70704269 -0.037556861 0.99811512 -0.048535578 0.0015213019
0.051648378 -0.099751182 0.65874785 0.055579748 0.99816179 -0.024165565 0.009612401
0.056914311 -0.10461601 0.6359781 0.281432 0.745013 -0.60477412 0.057920791
0.039744399 -0.10360479 0.62951624 0.32212362 0.70495379 -0.63188332 0.04121523
0.032341626 -0.100924 0.71075344 -0.020757757 0.99747956 -0.067850001 0.00083340605
0.083096832 -0.10046651 0.83447766 0.041631613 0.99904722 0.013088559 0.00061878952
0.055935062 -0.10293527 0.68685037 -0.0070430106 0.99931031 0.036458824 0.0013238685
0.10835309 -0.10025328 0.76380128 0.046727795 0.99886686 -0.0090251481 0.00029925696
-0.0037887478 -0.103372 0.61589789 -0.29161912 0.80738693 -0.51291764 0.050726853
0.030700805 -0.10155888 0.78357565 -0.040796787 0.9986527 0.032070596 0.00035187384
0.0033616675 -0.10210292 0.72207695 -0.048726801 0.99866003 -0.017432082 0.00082880235
0.054367356 -0.10241908 0.67253786 -0.012068314 0.99618328 0.086447537 0.0014517009
0.036842737 -0.099596195 0.72498721 -0.01603112 0.99958926 -0.02375309 0.0010315671
0.021985089 -0.10147168 0.77526164 -0.025495512 0.99904215 0.035563592 0.00049109774
0.049935259 -0.10061296 0.78790796 -0.042807229 0.99907357 0.0044171289 0.00024791088
0.052342396 -0.097397439 0.84642249 -0.054025132 0.98526597 0.16227226 0.019079361
0.037882786 -0.10133588 0.84917164 -0.21799614 0.77878946 0.58818763 0.016360419
0.093864813 -0.10005446 0.80529535 0.041446999 0.99892116 0.020942222 0.00020283459
0.10320612 -0.099967003 0.77639133 0.065661356 0.99758625 0.022591613 0.000206752
0.081375077 -0.10245109 0.72956544 -0.0079922229 0.99934137 -0.035397891 0.000735629
0.088852242 -0.10290417 0.67134577 0.05581414 0.9974702 -0.044021476 0.0037847192
0.1772148 -0.10897133 0.74593759 0.91240561 0.28217858 0.29646468 0.040902942
0.17215647 -0.10202297 0.68390846 0.31939968 0.89630574 -0.3076036 0.025270086
0.11686128 -0.10985796 0.88415873 0.21945009 0.69891828 0.68070173 0.091864742
0.17291749 -0.10541727 0.74937779 0.79765457 0.53212756 0.28387937 0.083893776
-0.0052723181 -0.10061678 0.75058252 0.019299347 0.99941683 -0.028171677 0.00058213156
0.13802014 -0.10625132 0.84488636 0.66315758 0.73417854 0.1456157 0.052560467
0.15797867 -0.10100458 0.67893422 0.13615805 0.95339245 -0.26926556 0.025327357
-0.013882563 -0.10022188 0.77869684 0.062041029 0.99765307 0.028970506 0.00036289939
0.0041228067 -0.09955468 0.61970955 -0.12214527 0.90633869 -0.40451297 0.032088682
-0.0094390726 -0.10156368 0.62507534 -0.39279595 0.87224358 -0.29138023 0.033854768
-0.031265687 -0.10009003 0.68898445 -0.42954171 0.8514452 -0.30089024 0.036770444
-0.023972996 -0.10267574 0.82499033 -0.23845406 0.790838 0.56366199 0.041827578
0.080524951 -0.099537253 0.83653831 0.05580679 0.99819261 0.022295451 0.0016631198
-0.015281796 -0.10171958 0.79815328 0.08220201 0.99606532 0.033117265 0.001017206
-0.039679993 -0.097925827 0.80745614 -0.036160629 0.98842603 0.14733095 0.011200981
0.056733333 -0.1026952 0.85752594 -0.15572105 0.87597251 0.45653382 0.0093018087
-0.042518478 -0.1036754 0.70557529 -0.82910067 0.48401594 -0.27985838 0.020319458
0.0093701836 -0.1023141 0.67153704 0.024148269 0.99895889 0.03870346 0.001710634
-0.025852261 -0.11034362 0.64674193 -0.71477908 0.68711317 -0.13025515 0.030290779
0.0045982013 -0.10118599 0.66121221 -0.013672841 0.99632543 0.084549583 0.0028597596
0.040726956 -0.10327066 0.6894086 -0.0035681536 0.99899393 -0.044704072 0.00061204162
-0.0078722378 -0.10018168 0.63930374 -0.32200328 0.94315439 -0.082301825 0.019771764
0.04170499 -0.10296308 0.67109388 -0.017269779 0.99542344 0.093989372 0.0020300068
0.0062604304 -0.1011687 0.66023415 -0.019990891 0.99514097 0.096409678 0.0024824645
0.078345656 -0.10269376 0.68336999 0.012062551 0.99942589 0.03165983 0.00076103216
0.038351361 -0.10384276 0.62838304 0.31299561 0.70020241 -0.64167774 0.03997748
0.11175899 -0.10165405 0.72391272 -0.018353166 0.99972844 -0.014365291 0.00019543033
0.18917748 -0.10832443 0.70073634 0.64417374 0.76485634 0.0059063295 0.05364421
-0.0021846609 -0.10208158 0.73434538 -0.029996568 0.99942684 -0.015692269 0.00042931346
0.11712098 -0.10975556 0.88389444 0.21945009 0.69891828 0.68070173 0.091864742
0.099389374 -0.10342417 0.86046284 -0.016411599 0.95181495 0.3062335 0.034662034
0.13530488 -0.11087761 0.86487812 0.81771845 0.40785754 0.4061881 0.030465437
0.15131019 -0.10764029 0.80834365 0.35581923 0.92971128 0.095024057 0.024362179
0.093641073 -0.10373381 0.68715841 -0.012514716 0.99991274 0.0042247255 0.0019331825
0.087666407 -0.13894148 0.87753159 -0.3157925 0.013519497 0.94873196 0.00096841156
0.10146511 -0.10339807 0.69244677 -0.023571096 0.99956405 -0.017778747 0.00087367761
0.12962052 -0.10030539 0.68225932 -0.030178171 0.99102658 -0.13021404 0.0060689691
0.13094063 -0.10556234 0.86327088 0.72718376 0.57832921 0.36978263 0.048399542
0.11870708 -0.1014357 0.81752151 0.11234338 0.99358761 0.012751641 0.0014761856
0.14876489 -0.10577314 0.80343229 0.24647996 0.96828759 0.040826101 0.0034691843
0.12251294 -0.10141715 0.81712031 0.13369881 0.99073583 0.023813825 0.0022120818
0.1224501 -0.11406475 0.88312155 0.44728455 0.4800849 0.75462234 0.10293112
0.10056915 -0.10363295 0.87001312 -0.13191262 0.8181234 0.55970806 0.04254457
0.13659343 -0.10989195 0.8587603 0.79452157 0.52774119 0.30037433 0.042335384
0.12171671 -0.10161786 0.79748112 0.10084379 0.99483043 0.011958404 0.00061807228
0.12276168 -0.18466678 0.8866747 0.10586774 0.027543994 0.99399871 0.029889842
0.10333012 -0.11033534 0.88382477 -0.19876969 0.46859938 0.86075854 0.070549488
0.06034771 -0.30987757 0.86799389 -0.21996808 -0.063410841 0.97344393 0.0010431822
0.16304465 -0.10179381 0.67783648 0.20382607 0.91296941 -0.35347113 0.024180857
0.12057663 -0.18496925 0.88714302 0.10586774 0.027543994 0.99399871 0.029889842
0.080219544 -0.15415497 0.87543195 -0.33686373 -0.017932199 0.94138265 0.00093987462
0.12683076 -0.10943741 0.87783223 0.52779818 0.51612192 0.67457181 0.096342415
0.053171176 -0.28937086 0.86906624 -0.26485094 -0.014867102 0.96417475 0.003770378
0.094614208 -0.29874834 0.88214678 -0.22379912 -0.017449081 0.97447908 0.017115897
0.053216554 -0.35259366 0.86644423 -0.29538259 -0.013005992 0.9552905 0.00019563762
0.17942008 -0.10413549 0.6982432 0.38096914 0.92418504 -0.027287273 0.021798542
0.069758013 -0.37038618 0.87172252 -0.34475294 0.0096590193 0.93864375 0.00078373478
0.047371063 -0.10021021 0.76326805 -0.03080284 0.99941838 0.014634066 0.00025238236
0.026618956 -0.33981955 0.85927314 -0.35961166 -0.056162767 0.93141025 0.0013045095
0.01930582 -0.10158003 0.70619941 -0.032594252 0.99788821 -0.056185462 0.0016405014
0.068157457 -0.10299651 0.71117938 0.019432077 0.99953026 -0.023702139 0.00052497088
0.069420882 -0.10294056 0.71439999 0.007044334 0.9996742 -0.024534544 0.00049438106
0.071821436 -0.10292331 0.71372461 0.0012142032 0.9997313 -0.023147458 0.0005732518
0.067086525 -0.34476733 0.87063491 -0.37670934 -0.055687547 0.92465609 0.0020295137
0.14397447 -0.10192288 0.7243048 0.01867364 0.99938446 0.029699203 0.00063912023
0.13434395 -0.100275 0.68841791 -0.035597842 0.99496812 -0.093655646 0.0051330221
0.14566918 -0.10552926 0.81169981 0.23268512 0.97015566 0.068232052 0.0033932356
0.14580628 -0.10213003 0.72055709 0.011435409 0.99916673 0.039180562 0.00097719766
0.14121945 -0.10370028 0.66941512 0.0016361477 0.87392932 -0.48605022 0.052759666
0.17928058 -0.11119287 0.74282253 0.92210656 0.24537611 0.29918247 0.036314033
0.1527573 -0.10693686 0.8028304 0.3272289 0.94260466 0.066466451 0.026772961
0.1681866 -0.10640084 0.76489311 0.79075515 0.52925068 0.30757111 0.056136746
0.16639063 -0.1054922 0.76602286 0.65457433 0.69410306 0.29958874 0.045999393
0.1412414 -0.10495892 0.81748444 0.25486234 0.95798802 0.13154525 0.012431463
0.089985624 -0.10200235 0.67688423 0.021341953 0.99954921 0.021117583 0.0017320586
0.18856719 -0.10947128 0.68333697 0.55992669 0.7169255 -0.41533107 0.047384869
0.17633748 -0.10676546 0.7406044 0.72290838 0.67507243 0.1472434 0.075199619
0.078484595 -0.10279684 0.68792892 0.0062884549 0.9998675 0.015014598 0.00095732411
0.097754382 -0.1041529 0.64843857 0.19730563 0.85540718 -0.47890407 0.045094814
0.081021823 -0.10280102 0.69516456 -0.0015411237 0.99999255 -0.0035242559 0.00098298758
0.083257504 -0.10270826 0.69829232 -0.0063602063 0.99990654 -0.012106997 0.00070262904
0.14843272 -0.10535324 0.78204679 0.25868315 0.96225363 0.084563993 0.011870048
0.09406247 -0.10383654 0.68307161 -0.0057686893 0.99977452 0.02043776 0.0020035566
0.071985148 -0.10591008 0.63874954 0.13238409 0.73549742 -0.66446817 0.052770231
0.098909318 -0.1062113 0.64583999 0.23056015 0.67835236 -0.69762456 0.052874573
0.066964254 -0.1041925 0.6395787 0.22904137 0.76219636 -0.60547239 0.05568146
0.060316503 -0.10291746 0.63992226 0.25265181 0.85080457 -0.46075875 0.062858351
0.014558841 -0.10276107 0.789015 -0.011025336 0.99868155 0.050135639 0.00058078772
0.07880225 -0.1016357 0.67351395 0.011356427 0.99909043 0.04110248 0.0012160873
0.029731622 -0.099953949 0.73221254 -0.039289273 0.99920368 -0.0069563901 0.00037740229
0.012631337 -0.10258247 0.78551531 0.02139 0.99862456 0.047868919 0.00082625769
0.008756551 -0.10149041 0.66565317 0.008829983 0.99630243 0.085460551 0.0024795057
0.011342794 -0.10252069 0.67053735 0.015096379 0.99845856 0.053409617 0.0020535693
0.019657342 -0.1018237 0.70447105 -0.020744473 0.99855322 -0.049609795 0.0017675289
0.068940423 -0.10298639 0.70867378 0.0027531318 0.99984819 -0.017204281 0.00030167715
0.17973028 -0.11139257 0.74192941 0.92424762 0.24071126 0.29635185 0.037020739
0.1339813 -0.10688649 0.86031127 0.76462507 0.55746931 0.32338265 0.035604339
0.024746716 -0.09936098 0.62951577 0.24261922 0.87738585 -0.41392028 0.034594808
-0.074138485 -0.34141785 0.81882203 -0.68606383 0.01690287 0.72734499 0.026814586
-0.0032392221 -0.10517549 0.61339569 -0.25738108 0.73754805 -0.62432188 0.059362154
-0.00034524276 -0.10143198 0.66526669 -0.063932002 0.99677449 0.048510697 0.0071027908
0.020523105 -0.10136848 0.62142229 0.23031594 0.81280345 -0.53507477 0.024379302
-0.018187629 -0.10471898 0.63473558 -0.60119164 0.76397079 -0.23434411 0.028500412
-0.055703249 -0.10378759 0.81632251 -0.3796761 0.83471954 0.39886007 0.032832816
0.017333409 -0.10111439 0.76068652 -0.027093491 0.99934632 0.023935916 0.00062031747
-0.049878146 -0.10441492 0.73935765 -0.66198575 0.72201461 -0.20117097 0.046745587
-0.056850802 -0.099640869 0.80313706 -0.35579407 0.9220075 0.15268548 0.016249916
0.0018144399 -0.10167347 0.74075752 -0.030496053 0.99948525 -0.0099587357 0.00030503227
0.040325321 -0.10310515 0.63113493 0.31622124 0.73065627 -0.60509962 0.040378124
0.14504001 -0.10221525 0.71878463 0.0088833077 0.99893695 0.045233481 0.0011322483
0.16064768 -0.1088948 0.7864942 0.43654171 0.88623178 0.15499882 0.035482194
0.1411892 -0.10911754 0.84275872 0.64484084 0.74013984 0.19071771 0.052786458
0.13699636 -0.10966549 0.8581 0.78686529 0.55349177 0.2729286 0.041472469
0.11246053 -0.10091189 0.79108703 0.071381159 0.99733013 0.015403444 0.00025470805
0.13218817 -0.1057269 0.86110902 0.73598379 0.60853732 0.29666504 0.043096777
0.16153049 -0.10992543 0.78653866 0.43434599 0.88658571 0.15908894 0.038349904
0.16163562 -0.11137139 0.78491825 0.51500118 0.83492023 0.19411877 0.053815953
0.15532701 -0.10891158 0.8097927 0.40686533 0.9072879 0.10625108 0.030376039
0.068518005 -0.099777676 0.81202632 0.019077543 0.99978983 -0.0075062271 0.00048910087
0.17746751 -0.10892293 0.74331343 0.91028368 0.28347549 0.30170384 0.040759664
0.018748766 -0.10070439 0.62171227 0.14865059 0.88247198 -0.44625792 0.017666014
0.17911211 -0.10912641 0.73840433 0.92449236 0.24931307 0.2883693 0.038868882
0.14724414 -0.11903736 0.84019524 0.76198381 0.59041971 0.26605511 0.039862633
0.14150596 -0.13121103 0.85592359 0.92266554 0.10727549 0.37037873 0.010024634
0.13431925 -0.23660246 0.87312454 0.68223363 -0.085914187 0.72606885 0.029826298
0.17416592 -0.17519033 0.751387 0.94402921 0.033499077 0.32815644 0.00024776845
0.14228514 -0.13255736 0.85496134 0.92706138 0.091204189 0.36364657 0.0082169827
0.16775921 -0.1943391 0.77112663 0.93678957 0.030253148 0.3485831 0.00023619167
0.1273926 -0.10278036 0.83297455 0.30752823 0.94634849 0.099251561 0.017645024
0.14268164 -0.10433345 0.66743845 0.026218737 0.84319329 -0.53697079 0.058199707
0.127792 -0.1014904 0.71003056 -0.0052885106 0.99970043 0.023897357 0.00082079717
0.11395615 -0.10054761 0.77002043 0.0802968 0.99664229 0.016014688 0.0002972887
0.15085143 -0.10533424 0.66775626 0.086822778 0.78942603 -0.60767466 0.048414722
0.17344704 -0.1098002 0.76205528 0.91319293 0.26369336 0.310716 0.039289512
0.15349175 -0.10741819 0.80997449 0.38170975 0.91803944 0.10724375 0.025068592
0.076372683 -0.10214802 0.73326981 0.0077906772 0.99858975 -0.052515585 0.00053213141
0.17329361 -0.1761518 0.75432014 0.94338471 0.02911826 0.33042026 0.00026477178
0.083032794 -0.10131968 0.74278885 0.00013233034 0.99826443 -0.05888956 0.00045190341
0.14749713 -0.11821716 0.8400175 0.73623782 0.61668795 0.27865735 0.038447373
0.19158779 -0.21266177 0.69708776 0.99024671 0.098289117 0.098746039 0.0082449615
0.14418717 -0.18176074 0.84872764 0.94278836 0.032790221 0.33177552 0.00021810738
0.14487091 -0.18773714 0.84778196 0.94493365 0.033237945 0.32556984 0.00063152949
0.17882121 -0.25173622 0.74601722 0.93260992 -0.027781516 0.35981521 0.00041137423
0.11986755 -0.10189347 0.83420521 0.23798041 0.96924025 0.062759385 0.0097735068
0.097266771 -0.10379042 0.86228138 -0.083557807 0.89953691 0.42877898 0.030328618
0.14846069 -0.10627118 0.81185597 0.31348118 0.9418996 0.12064304 0.0068730549
0.13173604 -0.10838864 0.86812937 0.80587071 0.40241623 0.43431956 0.034955185
0.16812673 -0.10199556 0.74965614 0.36318997 0.91988581 0.14799716 0.066287927
0.068818212 -0.10247722 0.71752971 0.022226974 0.99922168 -0.032588165 0.00062769355
0.052628804 -0.099579327 0.65919679 0.047648262 0.99847418 -0.027909864 0.01011885
0.081822969 -0.10277657 0.6957202 -0.0022800209 0.9999848 -0.005027215 0.00091594539
0.19589505 -0.17101741 0.68336946 0.97891992 0.032451648 -0.2016497 0.040826358
0.13277839 -0.26519471 0.86952442 0.84666616 -0.1082491 0.52099764 0.013415872
0.1345481 -0.14780703 0.8717674 0.85016561 -0.040241107 0.5249753 0.0081208991
0.14297366 -0.302266 0.84020305 0.96642637 0.089321092 0.24091883 0.0010557411
0.14117099 -0.27174714 0.84670883 0.93490058 -0.076630726 0.34653801 0.00167612
0.14377756 -0.15707904 0.84809285 0.91884112 -0.0072347615 0.39456129 0.00050595048
0.17981333 -0.11356027 0.74719441 0.92482179 0.24851596 0.28800091 0.038042042
0.1361742 -0.13911471 0.86686623 0.869268 -0.020947916 0.49389696 0.0051193959
0.18250532 -0.13835908 0.73240757 0.933496 0.0039120787 0.35856643 0.0031474151
0.16126524 -0.25321066 0.79665697 0.96054143 0.0064018588 0.27806327 0.00077706028
0.15904848 -0.21911667 0.79602689 0.96713203 0.026647134 0.25287452 0.00076277333
0.15869507 -0.21728736 0.79672337 0.96682698 0.020528641 0.25460601 0.000752458
0.19304164 -0.25694174 0.70005494 0.99827772 0.00032424644 0.058662713 0.014528801
0.16736867 -0.16534813 0.76998818 0.94337618 0.028018974 0.33053952 0.00036200462
0.14186823 -0.26798987 0.84485137 0.93604034 -0.090809837 0.33997357 0.0017154446
0.13549428 -0.24420826 0.86944318 0.80485404 -0.069394536 0.58940172 0.016384391
0.17362593 -0.13371402 0.75448781 0.93079704 0.0014801958 0.36553335 0.0050272574
0.14237359 -0.10353458 0.66989207 0.022368098 0.87610376 -0.48160338 0.052261155
0.11766367 -0.10185127 0.71107501 -0.020174274 0.99979609 -0.00090450782 0.00069396419
