# .PCD v0.7 - Point Cloud Data file format
VERSION 0.7
FIELDS x y z
SIZE 4 4 4
TYPE F F F
COUNT 1 1 1
WIDTH 1445
HEIGHT 1
VIEWPOINT 0 0 0 1 0 0 0
POINTS 1445
DATA ascii
-0.13069139 -0.32345659 1.3266259
-0.3115873 -0.37800139 1.309184
-0.060223691 -0.29070529 1.3325371
-0.055666551 -0.088157378 1.301621
-0.19300491 -0.39644051 1.324874
-0.23178659 -0.24024031 1.2672271
-0.2888341 -0.18857139 1.2780941
-0.141463 -0.269658 1.322269
-0.2544015 -0.31978059 1.316529
-0.1277826 -0.35459229 1.32951
-0.1698954 -0.3859525 1.3281831
-0.29153851 -0.333812 1.307905
-0.1879732 -0.1056562 1.283356
-0.082974494 -0.09909565 1.300908
-0.06140558 -0.1072795 1.3053499
-0.31504431 -0.1455166 1.267516
-0.30064991 -0.18019331 1.276397
-0.32058069 -0.1796937 1.271819
-0.35539961 -0.38374579 1.290655
-0.31359529 -0.172657 1.271904
-0.06062074 -0.090526618 1.3009419
-0.1011797 -0.1858694 1.174575
-0.159521 -0.3204743 1.325773
-0.1140657 -0.4193123 1.345533
-0.1190702 -0.2468904 1.288229
-0.1544162 -0.39609629 1.332314
-0.083171099 -0.198386 1.1870199
-0.1432303 -0.24323981 1.2244641
-0.16857401 -0.42660829 1.3436151
-0.32497069 -0.28904489 1.2963229
-0.18210641 -0.42617959 1.33645
-0.1171424 -0.17818999 1.175995
-0.096189797 -0.38801789 1.337528
-0.1451401 -0.091960341 1.2875479
-0.1330855 -0.1041002 1.290244
-0.039041791 -0.1618742 1.224983
0.006271333 -0.1234729 1.29146
-0.2387359 -0.2952975 1.3092149
-0.099743277 -0.4017325 1.34156
-0.037130859 -0.13438299 1.2268699
-0.03229329 -0.13211159 1.236326
-0.30732891 -0.4251771 0.85206532
-0.28546929 -0.1721887 1.2802041
-0.2112831 -0.098989442 1.285888
-0.1011593 -0.1824476 1.1751291
-0.30694619 -0.29478559 1.299536
-0.27425119 -0.1562403 1.27645
-0.1126192 -0.2422895 1.259841
-0.21360271 -0.33492571 1.319366
-0.02941406 -0.3342692 1.348368
-0.17570969 -0.33447561 1.324224
-0.29648879 -0.38451931 1.310285
-0.3406584 -0.40482941 1.307557
-0.25542271 -0.3858991 1.323832
-0.2076478 -0.39844009 1.327309
-0.3422111 -0.28695199 1.27843
-0.1131844 -0.23948491 1.23315
-0.26365539 -0.1395257 1.2726001
-0.2342428 -0.2439604 1.2599699
-0.2201356 -0.238236 1.257519
-0.1414838 -0.17247599 1.182059
-0.3016969 -0.28028339 1.297917
-0.22820701 -0.1645788 1.244421
-0.30849719 -0.3800182 1.3068171
-0.30891779 -0.38733381 1.311788
-0.3514024 -0.40190321 1.3002011
-0.18565661 -0.3188625 1.3240089
-0.089834988 -0.2178331 1.179582
-0.1802358 -0.39327079 1.326654
-0.20651209 -0.2505368 1.307193
-0.3038134 -0.27468359 1.295688
-0.32478699 -0.40892819 1.313653
-0.3613328 -0.41081789 1.294785
-0.096400343 -0.1066423 1.298447
-0.33468929 -0.26730561 1.266914
-0.1193364 -0.19051591 1.176188
-0.26004401 -0.2650159 1.300956
-0.094723217 -0.37763169 1.34058
-0.25883061 -0.3122611 1.312332
-0.3581422 -0.39815491 1.294206
-0.31312221 -0.27744389 1.297743
-0.30889711 -0.29371941 1.297453
-0.19208901 -0.2485913 1.308157
-0.20349351 -0.33208269 1.32339
-0.1024708 -0.2311171 1.178255
-0.2029518 -0.159804 1.2400661
-0.24246921 -0.1536306 1.252236
-0.062926047 -0.1636966 1.197806
-0.1791649 -0.1571876 1.210502
-0.2370307 -0.42108181 1.3302619
-0.28062481 -0.36938339 1.311609
-0.220392 -0.1761556 1.235688
-0.171491 -0.32785371 1.319364
-0.1771418 -0.31445381 1.320369
-0.2658048 -0.27880919 1.303285
-0.0386163 -0.1654077 1.221999
-0.2750189 -0.1728247 1.272601
-0.2080659 -0.2764065 1.308117
-0.2370936 -0.42052889 1.337729
-0.14011151 -0.2453195 1.295828
-0.1336524 -0.1741147 1.1780781
-0.3121883 -0.39774531 1.308948
-0.2888723 -0.39404729 1.314998
-0.3050288 -0.30789149 1.301404
-0.34315899 -0.41564241 1.3023961
-0.32226601 -0.1982826 1.268401
0.007754385 -0.2470977 1.309707
-0.07389918 -0.28911951 1.330513
-0.07711035 -0.3633025 1.330592
-0.05716091 -0.36238551 1.339702
0.01394719 -0.2462935 1.332569
-0.06118083 -0.25193781 1.320549
-0.01494628 -0.3322413 1.351033
-0.01276761 -0.3926321 1.3584681
-0.021575211 -0.4003152 1.35833
-0.16321979 -0.35113749 1.324123
-0.1564634 -0.3834604 1.3338391
-0.30751139 -0.1928589 1.272231
-0.32316241 -0.37096301 1.304453
-0.02687785 -0.408214 1.3560981
0.01265016 -0.1424512 1.299299
-0.028369371 -0.41554749 1.3532619
-0.024008989 -0.32040039 1.347429
-0.31589401 -0.40432611 1.314015
-0.19653019 -0.31848109 1.316558
-0.25249431 -0.41704741 1.32323
-0.25057629 -0.41454509 1.331506
-0.007635653 -0.33615389 1.3555551
-0.1055642 -0.38932669 1.339922
-0.071169376 -0.41329059 1.3519289
-0.27402729 -0.38856411 1.3187571
0.048415061 -0.29368871 1.355467
-0.17918301 -0.4181655 1.33085
0.02181929 -0.31648961 1.348295
0.058820128 -0.3962481 1.3661259
0.068326712 -0.39658949 1.364761
0.018088341 -0.26439181 1.349562
0.03065449 -0.34591091 1.354684
0.02276605 -0.1000585 1.319019
0.02808887 -0.3808507 1.353514
0.019797741 -0.27028239 1.358867
-0.1120505 -0.29481611 1.32494
0.01527894 -0.30368751 1.355338
-0.072097421 -0.1037524 1.3109519
-0.1080582 -0.41980281 1.3511111
-0.076192498 -0.28849491 1.3272851
-0.1281891 -0.29240879 1.322686
-0.14472739 -0.38583031 1.338109
-0.1824916 -0.38851571 1.33104
-0.06178892 -0.3571445 1.349191
-0.1927807 -0.3796736 1.323368
-0.094644614 -0.2362671 1.219619
-0.23622771 -0.41865039 1.328782
-0.030936601 -0.39191851 1.350135
-0.026996201 -0.42274749 1.363602
-0.2501846 -0.41433269 1.3269711
-0.16118351 -0.3183662 1.3274159
-0.28519771 -0.1635039 1.278559
0.025080031 -0.30515051 1.342011
-0.19566549 -0.1031942 1.290387
-0.2311739 -0.27692139 1.3041
-0.20711 -0.1000561 1.280934
-0.119065 -0.41665751 1.339003
-0.31305501 -0.37494281 1.309772
-0.0065458422 -0.092118926 1.311849
-0.1966455 -0.39291829 1.328058
-0.099634953 -0.3819921 1.343647
-0.01432264 -0.15986709 1.267836
-0.29278079 -0.33261701 1.3101979
-0.29156891 -0.1580154 1.275148
0.01250929 -0.1404683 1.30257
-0.031718489 -0.20745151 1.244076
-0.2215227 -0.26961181 1.313841
-0.25227481 -0.31997031 1.320233
-0.16714109 -0.39074939 1.332319
-0.1724969 -0.3836408 1.3292871
-0.091543376 -0.33852649 1.331609
-0.1611765 -0.3665522 1.325628
-0.089461029 -0.34254751 1.333434
-0.15859909 -0.35234889 1.325718
-0.1944591 -0.249073 1.302955
-0.1561171 -0.38361919 1.330359
-0.15945929 -0.33257049 1.327778
-0.2788848 -0.14016759 1.272265
-0.06173813 -0.1891384 1.201834
-0.01354492 -0.180994 1.267309
-0.04240584 -0.1602051 1.226714
-0.25827751 -0.3141399 1.3104481
-0.176294 -0.42325461 1.344128
-0.29024509 -0.39128631 1.315068
-0.02529728 -0.178267 1.253567
-0.064833999 -0.24350379 1.315665
0.0051702862 -0.31662801 1.346808
-0.023785651 -0.27896449 1.335515
0.004667819 -0.2101575 1.286294
-0.1652603 -0.34661371 1.31995
-0.30340731 -0.1783729 1.278865
-0.2584056 -0.31846169 1.316133
-0.1964929 -0.37874579 1.316957
0.01480776 -0.246539 1.327503
0.0031483171 -0.2440616 1.313374
-0.23692229 -0.294458 1.305554
-0.32515019 -0.28942639 1.294692
-0.20885719 -0.39514729 1.325689
-0.32492629 -0.4088496 1.3093441
-0.145357 -0.2478399 1.274068
-0.30920941 -0.19212221 1.279007
-0.31215179 -0.3935889 1.31173
0.00082045788 -0.1279453 1.287962
-0.2210502 -0.2444322 1.264877
-0.26079509 -0.1037373 1.27393
-0.15262491 -0.32249671 1.3294851
-0.33472839 -0.29626891 1.28866
-0.30790249 -0.30101439 1.303149
-0.18701521 -0.3164829 1.323555
-0.15029471 -0.2412557 1.2301019
-0.2389521 -0.417236 1.3369319
-0.2631619 -0.26151079 1.304813
-0.26844281 -0.27607641 1.306372
-0.1864588 -0.409435 1.33723
-0.31343821 -0.2761699 1.295518
-0.3085849 -0.29194611 1.300046
-0.1380873 -0.1022614 1.2965569
-0.30275089 -0.1190037 1.269529
-0.34183881 -0.28198439 1.2781349
-0.2051197 -0.32486209 1.32259
-0.1409495 -0.3840149 1.340307
0.02033383 -0.30979979 1.3511879
-0.14148299 -0.2676667 1.322911
-0.1181861 -0.2380828 1.294847
-0.1352561 -0.31926471 1.330345
-0.054820299 -0.1736566 1.215623
-0.03945893 -0.1371797 1.2274981
0.02860588 -0.34476569 1.353146
0.0080443025 -0.14056911 1.300862
-0.1822211 -0.3068164 1.316553
-0.068736263 -0.1610174 1.202473
-0.30566049 -0.11563 1.26796
-0.04666996 -0.39532089 1.352023
-0.31612861 -0.1458925 1.264124
-0.32119569 -0.1782988 1.267819
-0.2105893 -0.09794151 1.277957
-0.30544481 -0.1679516 1.269209
-0.3232981 -0.1973379 1.2686549
-0.35434601 -0.4271003 1.1383981
-0.2035604 -0.3316896 1.320529
-0.055037022 -0.090513147 1.302691
4.11272e-06 -0.1074067 1.310873
0.04827863 -0.29477409 1.352091
-0.01336938 -0.32793051 1.3513989
0.045789361 -0.3504571 1.360458
-0.31474531 -0.1715408 1.271948
0.052971601 -0.3923676 1.367794
0.089557409 -0.41337159 1.379979
-0.1066756 -0.3891775 1.3373851
-0.27107501 -0.36997169 1.317058
-0.089886308 -0.41270271 1.349246
-0.039509948 -0.41849509 1.358374
-0.01001966 -0.38006529 1.362211
-0.03661406 -0.17802709 1.236532
-0.087141812 -0.40225661 1.35048
-0.3131133 -0.142288 1.263924
-0.30938309 -0.1140529 1.261063
-0.30564949 -0.097211666 1.180339
-0.27168441 -0.090408929 0.96415383
-0.28204671 -0.2413955 0.96516109
-0.35139841 -0.35168341 1.287959
-0.3564426 -0.3774097 1.288221
-0.34641969 -0.3055917 1.260275
-0.3576926 -0.39531401 1.295491
-0.35039589 -0.30239961 1.252775
-0.36019611 -0.3931548 1.296207
-0.29802769 -0.38112521 1.310408
-0.00051701069 -0.2107248 1.29307
-0.106599 -0.22063559 1.1816961
0.080777466 -0.2385563 1.341085
-0.1067789 -0.23456129 1.1860729
-0.024041589 -0.27050579 1.339741
-0.046605229 -0.27726269 1.34077
-0.070672691 -0.28827229 1.3289829
0.058249831 -0.35640371 1.358628
0.026619609 -0.34084079 1.365564
-0.070554383 -0.35566929 1.345428
-0.1201497 -0.35183519 1.3310961
-0.020379011 -0.38678229 1.362174
-0.0163064 -0.39336351 1.363695
-0.31482351 -0.16299319 1.273127
-0.21290091 -0.26938701 1.317214
-0.35520089 -0.3659547 1.2885751
-0.30726659 -0.3882415 1.311834
-0.17619219 -0.4162392 1.341665
-0.25738889 -0.2386177 0.99605739
0.026668491 -0.3750985 1.361667
0.099029779 -0.41872919 1.363534
0.00045025349 -0.36890349 1.357464
-0.29306519 -0.4027237 1.323384
0.037830949 -0.3583661 1.361798
-0.28325781 -0.36270961 1.314814
-0.28796199 -0.38220459 1.311517
-0.27088779 -0.26515171 1.3017581
-0.080091603 -0.40643021 1.357275
-0.27555159 -0.33344579 1.311572
-0.2810069 -0.2469878 0.87869918
-0.26433289 -0.2375737 0.94295382
-0.3076624 -0.091934443 1.197215
-0.25093019 -0.085907303 1.278372
-0.3066026 -0.1221867 1.21936
-0.31091839 -0.1232921 1.2195539
-0.24765021 -0.2355848 0.96185613
-0.227605 -0.1636824 0.980515
-0.2476327 -0.19868989 0.95566881
-0.30112141 -0.34736961 1.307272
-0.31810531 -0.36097541 1.307148
-0.34566101 -0.3836005 1.1601059
-0.3020907 -0.42213801 0.84297818
-0.33203089 -0.31946099 1.130234
-0.30228859 -0.37761921 0.88728178
-0.3138167 -0.3634831 0.94658607
-0.3529256 -0.331949 1.235314
-0.30934051 -0.38905579 0.93266243
-0.35180029 -0.31813189 1.262423
-0.31214899 -0.35922569 0.96667451
-0.32135671 -0.3910377 1.313929
-0.3238878 -0.39404491 1.001256
-0.310862 -0.3440344 1.002311
-0.3415789 -0.32436481 1.171219
-0.33814099 -0.26466969 1.210312
-0.30331019 -0.27728459 1.29915
-0.33321539 -0.34220201 1.1293451
-0.33463001 -0.2865625 1.182252
-0.32311001 -0.32930201 1.082938
-0.34288561 -0.31380501 1.185449
-0.30331299 -0.30858919 1.29687
-0.3394264 -0.2820631 1.214583
-0.1054251 -0.1844186 1.178957
-0.192298 -0.39548171 1.325838
-0.03733981 -0.33759841 1.3431931
-0.1775075 -0.39456329 1.335422
-0.25375551 -0.31353149 1.317189
-0.29460141 -0.2545706 1.013249
-0.1113085 -0.22653151 1.185949
-0.05751824 -0.25407279 1.32445
-0.24533699 -0.3246218 1.323706
-0.2457903 -0.28379679 1.3037339
-0.33886671 -0.3863098 1.1270421
-0.2273095 -0.1791968 0.97988188
-0.34800529 -0.34046581 1.2842391
-0.32262409 -0.32336599 1.071789
-0.1511417 -0.24211361 1.235715
-0.28935599 -0.24173041 1.076918
-0.35510349 -0.37191531 1.1992379
-0.2327434 -0.31154069 1.307552
-0.246176 -0.1980672 0.95152372
-0.23197059 -0.2661154 1.306058
-0.25754741 -0.23858871 1.07719
-0.2131408 -0.1076335 1.2788219
-0.2101552 -0.2430948 1.294512
-0.25984019 -0.36595309 1.3168989
-0.2448736 -0.1568868 0.9541809
-0.062744141 -0.1762801 1.200164
-0.0049970751 -0.40931389 1.369508
-0.30299559 -0.1018777 1.160372
-0.23010831 -0.25037789 1.303342
-0.1930961 -0.2473003 1.3087831
-0.2855204 -0.08658883 1.082178
-0.2784785 -0.1058196 1.032905
-0.29238391 -0.1018536 1.159704
-0.32415351 -0.3983846 1.020921
-0.28100041 -0.1126208 1.035448
-0.28969231 -0.1054696 1.081574
-0.2846331 -0.099453397 1.047033
-0.33234161 -0.31756249 1.138173
-0.31459379 -0.3442032 1.012911
-0.3013556 -0.2443255 1.1659679
-0.33684361 -0.32786781 1.185284
-0.27029449 -0.1042594 0.95826232
-0.27073109 -0.092825279 0.95536393
-0.30313429 -0.24848761 1.076943
-0.3078205 -0.27231029 1.0167331
-0.28580141 -0.18817221 1.208089
-0.29567599 -0.29036021 0.91440922
-0.26999941 -0.2168923 1.199201
-0.2989172 -0.25099751 1.042172
-0.34373349 -0.41654259 1.1606441
-0.31395561 -0.39138991 0.94743341
-0.34764111 -0.39143601 1.181609
-0.23968831 -0.18745629 1.172839
-0.2903654 -0.25234029 0.95297861
-0.35720021 -0.398545 1.3009861
-0.3478328 -0.3784081 1.19901
-0.28753439 -0.2328299 1.08176
-0.2770099 -0.2273535 0.89230692
-0.28590959 -0.24748001 0.89198363
0.02564257 -0.2447876 0.93247861
-0.25881559 -0.1282922 0.88866889
-0.29777199 -0.3325015 0.87833619
-0.2477729 -0.2350383 1.111691
-0.3148762 -0.34390461 1.042179
-0.291448 -0.34358519 0.85346878
-0.28329551 -0.2641528 0.87213928
-0.27164131 -0.3199102 0.84826952
-0.29515141 -0.2603837 0.9081794
-0.29237899 -0.2633467 0.8930465
-0.29169831 -0.30049479 0.91516232
-0.2292619 -0.19327711 1.162466
-0.28989801 -0.4067972 0.84255618
-0.2710751 -0.21080831 0.87863791
-0.31272021 -0.39315999 0.9159373
-0.257368 -0.23935761 1.074358
-0.34841019 -0.4202823 1.130071
-0.33077571 -0.25889179 1.268451
-0.30776599 -0.26583609 1.025557
-0.27819309 -0.33591729 0.85175472
-0.31801641 -0.4195289 0.97634572
-0.26298189 -0.33523411 0.84823102
-0.31707349 -0.2516984 1.096801
-0.3154273 -0.37331581 0.99089998
-0.26549429 -0.2840873 0.85189557
-0.26193839 -0.1681173 0.88111567
-0.128342 -0.2846154 0.86771429
-0.31190199 -0.34362629 1.013119
-0.26835531 -0.33206141 0.84759241
-0.28437051 -0.2461292 0.88862759
-0.29002091 -0.1877 1.215899
-0.32384029 -0.22290429 1.249023
-0.29054049 -0.29791319 0.90268898
-0.32289571 -0.32647589 1.093751
-0.084135681 -0.30361629 0.87364542
-0.33498171 -0.25002849 1.266981
-0.26464519 -0.28402579 0.85409242
-0.1514305 -0.28473929 0.86860949
0.042330012 -0.16178919 0.95515019
-0.30219719 -0.24855541 0.96667272
-0.26046449 -0.16429961 0.88185602
0.045478109 -0.1792011 0.95991331
-0.046566021 -0.2398967 0.94530481
0.04264991 -0.1483895 0.95097941
-0.21201409 -0.3606717 0.84835148
-0.2102568 -0.35218039 0.8471216
-0.30277881 -0.37239209 0.89940912
-0.1622014 -0.30274791 0.86102062
-0.190927 -0.34779859 0.84911478
-0.2167947 -0.3873255 0.83913481
-0.2814998 -0.1891619 1.200812
-0.31780231 -0.2027732 1.261246
-0.3514407 -0.42687911 1.14939
-0.33515161 -0.35344779 1.1754479
-0.27891129 -0.2419787 1.031286
-0.24977089 -0.12592191 0.88071388
-0.30235499 -0.33541179 0.90927613
0.02466278 -0.1785129 0.96505558
-0.123816 -0.089438908 0.90232998
-0.066733927 -0.36326429 0.86989403
0.050672021 -0.1969748 0.96608979
-0.1755514 -0.2438349 0.89902622
-0.30977339 -0.32658121 0.95419002
-0.1225744 -0.29888129 0.86237329
-0.092373103 -0.3094579 0.87137967
-0.214256 -0.28997931 0.85689658
0.00845173 -0.27101001 0.88061631
-0.3030988 -0.38486731 0.88731712
-0.1620421 -0.32521009 0.85241401
-0.124684 -0.39699879 0.85352618
-0.04730323 -0.39803761 0.86375451
-0.31482089 -0.17055219 1.262305
-0.25573719 -0.1850294 1.179898
-0.068299651 -0.39357021 0.86545348
-0.1074423 -0.38164809 0.84970438
-0.1137735 -0.2420565 0.88816291
-0.063471533 -0.3672581 0.87022913
-0.32047671 -0.2132522 1.268386
-0.2065372 -0.075467683 0.97054601
-0.2417118 -0.30517551 0.84922481
-0.2121722 -0.35563299 0.84954047
-0.055249069 -0.086074859 0.90580219
-0.17070749 -0.242303 0.90486318
-0.023619439 -0.2070497 1.005397
-0.186625 -0.39832541 0.83954108
-0.18167751 -0.28364551 0.86227667
-0.14737821 -0.26481009 0.86816257
-0.1936062 -0.36165071 0.84542871
-0.1322678 -0.3825143 0.85528058
-0.13555939 -0.2855159 0.87179589
-0.27065599 -0.172196 0.89534408
0.046202868 -0.1455384 0.95334047
-0.1457859 -0.089028798 0.89951497
-0.32153961 -0.37552989 1.053321
-0.19842941 -0.37020221 0.84073639
-0.2693949 -0.090016387 0.96826237
-0.190771 -0.098104648 0.89366519
-0.20644151 -0.089840271 0.89076638
-0.096352853 -0.3062807 0.86608058
-0.077733673 -0.23548821 0.98609728
-0.28511131 -0.089854397 1.076026
-0.3007611 -0.25584161 0.97540379
-0.30927661 -0.2430871 1.106402
-0.33340871 -0.36166579 1.1707931
-0.083714344 -0.23789521 0.93939197
-0.1383511 -0.3854802 0.85464412
-0.19934 -0.089918017 0.88466817
-0.069737397 -0.073736243 0.96002471
0.043328792 -0.173305 0.95629883
-0.2518377 -0.38340849 0.83839542
-0.046907868 -0.3902086 0.87329841
-0.20552251 -0.35526279 0.84563112
-0.28863639 -0.33215511 0.85482651
-0.25498149 -0.18582579 0.8708986
-0.1091325 -0.29345211 0.8709662
-0.1030849 -0.2399369 0.95143801
-0.2483741 -0.075811774 0.99256247
-0.1300887 -0.2795721 0.8601433
-0.056175862 -0.2335805 0.97355032
-0.313146 -0.38620409 0.94929183
0.01638085 -0.13943 0.97675937
-0.29623559 -0.33070391 0.91250533
-0.29470509 -0.27524281 0.92531502
-0.30456889 -0.307899 0.95539868
-0.1275273 -0.1011876 0.89589882
-0.05470201 -0.084998898 0.90753978
-0.2128637 -0.27929109 0.85508072
-0.08176592 -0.1605859 1.0256619
0.060745209 -0.088731162 0.92846042
-0.080767602 -0.19030739 1.022424
-0.1826233 -0.35103959 0.83464003
-0.2639918 -0.1928158 0.87564152
-0.28005141 -0.32950541 0.84632188
-0.1885789 -0.2406552 0.89483851
-0.25048599 -0.19345 0.87104487
-0.1848129 -0.3499999 0.84012908
-0.1353135 -0.29268369 0.86260778
-0.31171149 -0.41650271 0.96754438
-0.33562031 -0.34815589 1.17311
-0.36332431 -0.42694229 1.2851599
-0.05536494 -0.2482951 0.88483852
-0.075767733 -0.2326331 1.020674
-0.085336298 -0.098267481 0.89986622
-0.2309083 -0.076280177 0.88595623
-0.067934237 -0.094823487 0.91068143
-0.26788929 -0.17423379 0.88459587
-0.095862627 -0.23464391 0.99502158
0.030766159 -0.18366539 0.96535331
-0.17446309 -0.2374277 0.93260151
-0.19171029 -0.104972 0.89460349
0.058398511 -0.14037789 0.94033527
-0.1029674 -0.1058904 0.90705472
-0.236784 -0.26269919 0.85350668
-0.29803991 -0.3920463 0.85970259
-0.29746881 -0.074056163 1.20884
-0.16745751 -0.1027094 0.89228189
-0.25751841 -0.132237 0.88429278
-0.017493639 -0.2437342 0.93563211
-0.036990371 -0.23715571 0.96953392
0.044482291 -0.17161471 0.95146722
-0.141791 -0.2254488 0.96415108
-0.038688838 -0.32485291 0.87350488
-0.043534551 -0.34856719 0.86941582
-0.067572653 -0.25536171 0.87990332
-0.049023841 -0.3534891 0.87269622
-0.1268276 -0.303574 0.86648762
-0.1107222 -0.30971771 0.86604071
-0.031655759 -0.40181461 0.86806053
-0.1931593 -0.341041 0.84123462
-0.04074889 -0.33619991 0.86651111
0.01236305 -0.34680849 0.8920449
-0.29297641 -0.2410412 0.9781816
-0.27924281 -0.2430038 0.95876372
-0.3526161 -0.37638691 1.252189
-0.229434 -0.1505955 0.88174462
-0.2247524 -0.082058974 0.88963127
-0.1097137 -0.37994489 0.86751872
-0.1752286 -0.30851811 0.85915399
-0.035318881 -0.2501463 0.97119778
-0.29547751 -0.33824441 0.88724351
-0.2294305 -0.39562649 0.83355302
-0.24512669 -0.1362213 0.87383479
-0.037150711 -0.30764201 0.88741249
-0.0082540512 -0.39682969 0.86856067
-0.093578011 -0.34865731 0.86684322
-0.092593342 -0.31681609 0.86309439
-0.1835147 -0.38889149 0.84124172
-0.29932651 -0.26750159 0.93383157
-0.035241991 -0.1040045 0.9073782
-0.19132151 -0.072016038 0.99309498
-0.2985369 -0.4031679 0.84983271
-0.28193581 -0.26248401 0.86922377
-0.1808905 -0.24333771 0.87364322
-0.19384819 -0.4021495 0.83165193
-0.1950479 -0.2401605 0.9020381
-0.31226 -0.36677101 0.95060062
-0.2150031 -0.26368049 0.83909672
-0.083654851 -0.33931851 0.86611688
-0.25303531 -0.2731061 0.84999073
-0.02946684 -0.28909579 0.87835091
-0.2605252 -0.26400521 0.86007172
-0.2230691 -0.29030931 0.85611272
-0.14986099 -0.2608026 0.87070179
-0.055923581 -0.3259421 0.87408012
-0.2480756 -0.28243351 0.84675789
-0.26630661 -0.2192041 0.86962938
-0.2459733 -0.39307389 0.83279628
-0.036033839 -0.088557623 0.91463423
-0.29117531 -0.25322601 0.89359027
-0.29267171 -0.31786439 0.88439018
-0.041554179 -0.083462387 0.91119063
0.059473131 -0.078864373 1.1047831
-0.038560059 -0.28004339 0.88619047
-0.064679027 -0.2616986 0.86829919
0.0082739294 -0.36963391 0.86940312
-0.1781411 -0.4020637 0.84270549
-0.1956882 -0.39238659 0.83418179
-0.067847699 -0.26210889 0.87517142
-0.1052759 -0.38158119 0.84399748
-0.021243719 -0.2415224 0.92807162
-0.050193701 -0.27178729 0.87900102
-0.041280959 -0.2490886 0.88980359
-0.07504943 -0.2323627 0.92754328
-0.069265038 -0.1034923 0.90021312
-0.02004775 -0.34594101 0.88247907
0.018400639 -0.2534495 0.90027452
-0.1681954 -0.32993761 0.85072798
-0.08786884 -0.2377515 0.96194988
-0.145142 -0.1020051 0.88755059
-0.1537028 -0.25694391 0.86380768
0.13406479 -0.40483299 0.8825593
-0.1018384 -0.3348594 0.86026412
-0.16992059 -0.32795459 0.84829909
-0.040520068 -0.31322119 0.87313652
-0.031835049 -0.286971 0.87662071
0.05132626 -0.087749504 0.9169507
0.1107939 -0.089688413 0.93480837
0.039122269 -0.1744691 0.95082343
0.074973479 -0.075763397 1.2128659
0.050867021 -0.18426 0.93684769
0.039597359 -0.1449607 0.94626558
-0.1214336 -0.088186763 0.89725858
-0.1193583 -0.090560399 0.89621413
-0.1455013 -0.089616977 0.89219892
-0.14320441 -0.08884573 0.89554119
0.018200491 -0.099640951 0.91339672
-0.086709738 -0.160422 1.020465
-0.035133209 -0.087845668 0.90829837
0.025223941 -0.17651241 0.95898461
-0.070886083 -0.1046175 0.90209472
-0.06888546 -0.104716 0.90283048
-0.065831207 -0.094103627 0.90717793
-0.1783825 -0.1494839 0.92754841
-0.1570112 -0.1524149 0.95956278
-0.05066397 -0.091186732 0.90401429
0.0188637 -0.2046673 0.97922909
0.043640349 -0.14656921 0.94522393
-0.045028731 -0.084770247 0.90894622
0.1134754 -0.1684079 0.92654431
0.0094891489 -0.135951 0.97269469
0.043707561 -0.16100509 0.95008928
-0.085994497 -0.103177 0.90355402
-0.046583731 -0.07898362 0.9161458
0.1154165 -0.16692971 0.93319923
-0.068222247 -0.1800632 1.023945
0.0047651678 -0.1046292 0.91785109
0.007388622 -0.1071362 0.92597908
-0.1690561 -0.144926 0.94375688
-0.1916704 -0.088351652 0.88954908
-0.2202522 -0.094179168 0.88122219
-0.17102741 -0.14995439 0.94255811
-0.1549328 -0.09094049 0.89605981
-0.081066273 -0.1057704 0.90463293
-0.1625215 -0.1042307 0.8898139
0.062891707 -0.1295893 0.93586349
-0.1171059 -0.12940639 0.94730258
-0.2227034 -0.1848802 0.88921452
-0.190377 -0.18166959 0.91472971
-0.1886428 -0.096710213 0.88815027
-0.2103717 -0.093244113 0.90161401
-0.1960115 -0.2396653 0.88215411
-0.1914188 -0.28193301 0.85720259
-0.2034197 -0.3649596 0.84034783
-0.1910132 -0.16195039 0.92710602
-0.2104982 -0.27371681 0.84881192
-0.183899 -0.1609889 0.92614943
-0.2220383 -0.30371889 0.85824567
-0.2148886 -0.3825098 0.83502638
-0.2270548 -0.1721206 0.87317139
-0.2421933 -0.41129071 0.85187382
-0.226494 -0.28647739 0.84832478
-0.26462641 -0.14277481 0.9003849
-0.24101929 -0.17700671 0.87175292
-0.1955179 -0.1559165 0.9058851
-0.23893391 -0.26026279 0.84938222
-0.2018005 -0.19125161 0.918293
-0.03224818 -0.28694651 0.87720728
-0.049013998 -0.2360522 0.93036687
-0.1221391 -0.3917762 0.84904522
-0.072256736 -0.3861708 0.85759908
-0.1589992 -0.30144981 0.85869229
-0.2682282 -0.3144843 0.84518921
-0.2658523 -0.3269906 0.84082252
-0.2179317 -0.38569531 0.83829367
-0.2027992 -0.088522941 0.8863771
-0.2887809 -0.3357546 0.85032481
-0.08837828 -0.30579299 0.86978412
-0.30519691 -0.24016359 1.164551
-0.27657199 -0.268931 0.8565194
-0.29704151 -0.2946271 0.9148308
-0.2866489 -0.24039569 1.07017
-0.26207501 -0.16267981 0.87970889
-0.28232849 -0.2385518 1.030332
-0.28113061 -0.2415757 0.94912481
-0.1995527 -0.09023267 0.88693428
-0.26895109 -0.2368868 1.084085
-0.31245339 -0.3903181 0.91219968
-0.23190451 -0.1574896 0.88144422
-0.28440109 -0.1060326 1.021867
-0.27582061 -0.21595789 1.192757
-0.041348159 -0.32412851 0.87421072
-0.30893981 -0.2679508 1.011314
-0.26904061 -0.236084 1.04574
-0.32399401 -0.3980099 1.0139329
-0.27318409 -0.089086592 0.96969688
-0.3160229 -0.38294449 0.94351918
-0.31660131 -0.35800251 1.0021091
-0.29339591 -0.12915459 1.188109
-0.1228118 -0.2975249 0.86373192
-0.25653711 -0.18479951 0.87216371
-0.27871791 -0.2237564 0.89033508
-0.31522939 -0.34215519 1.010715
-0.31123629 -0.32071471 0.94885248
-0.28352019 -0.26310441 0.86739671
0.009708941 -0.405516 0.86756319
-0.34771219 -0.3828432 1.175899
-0.3031818 -0.2734226 0.9768222
-0.051414371 -0.090886623 0.91021907
0.001056194 -0.2375562 0.92163318
0.067996137 -0.29131621 0.88892299
-0.33065611 -0.41540679 0.98262107
0.1155572 -0.32303619 0.89920849
-0.06076977 -0.38072759 0.86263812
-0.21666691 -0.28795421 0.85195792
-0.2488934 -0.2359748 1.103428
-0.29634339 -0.2485417 1.170475
-0.2313721 -0.076771408 0.88896382
0.09932512 -0.13062081 0.92745322
-0.2482421 -0.38829789 0.83206969
-0.34093979 -0.35349101 1.153968
0.067781933 -0.2763373 0.88916677
0.064670213 -0.29786929 0.88317358
-0.25045329 -0.2372611 1.13541
-0.30304319 -0.25077969 0.98703498
-0.30293801 -0.24531379 0.95256072
-0.3533639 -0.41966689 1.140729
-0.32427251 -0.38675869 1.0162539
-0.31231949 -0.34622499 0.94525021
-0.291628 -0.27538949 0.88314438
-0.3200455 -0.31829271 1.050091
-0.29525959 -0.1839755 1.202756
-0.3221069 -0.4152225 0.96901298
-0.3191461 -0.33822161 1.032616
-0.298659 -0.27119631 0.9165051
-0.3034026 -0.097938478 1.152582
-0.32074541 -0.2402274 1.072685
-0.26975229 -0.2294618 0.98686951
-0.28618959 -0.24535 0.88357002
-0.31820709 -0.34254959 1.0382119
0.061915342 -0.24766891 0.90187252
-0.26585719 -0.2414677 0.97344333
-0.295829 -0.2719911 0.89343238
-0.01955807 -0.073831826 1.046344
-0.3206819 -0.39543721 1.00646
-0.30426791 -0.36106649 0.9059639
-0.2089151 -0.3534193 0.84287977
-0.18028501 -0.2365016 0.88719559
-0.2588146 -0.1329547 0.88389158
-0.236596 -0.2389161 1.063271
-0.2201224 -0.2446886 1.077167
-0.34262559 -0.349033 1.163009
-0.2280218 -0.23521531 1.097658
-0.25460529 -0.084434897 0.88778132
-0.27269709 -0.1673626 0.90075701
-0.1935963 -0.076583862 1.266767
-0.1084158 -0.075383812 0.92433822
-0.31242099 -0.37456381 0.92054462
-0.27591261 -0.2469084 1.040881
-0.25667459 -0.1117944 0.88351589
-0.25629571 -0.1178022 0.88569218
-0.2172036 -0.078325316 1.135
-0.1986127 -0.073051073 0.98576683
-0.1582313 -0.079821318 1.14784
-0.1024719 -0.070026398 1.230467
-0.31613949 -0.4023228 0.96470147
-0.2182444 -0.071681619 0.92212528
-0.3143639 -0.2488057 1.075146
-0.1785671 -0.071951471 1.012141
-0.25039169 -0.0755952 1.0495861
-0.25439519 -0.073430598 1.044208
0.0148468 -0.074509472 1.230689
-0.084214509 -0.072387964 1.160836
-0.05974108 -0.078934252 1.0045331
0.082682252 -0.075137667 1.0444731
-0.049872249 -0.23560791 0.93559498
0.04691327 -0.069765568 0.9896307
-0.053517219 -0.2708841 0.87932593
-0.147081 -0.25570649 0.86269373
-0.1247634 -0.2339327 0.9300642
-0.31833699 -0.25154361 1.106099
-0.27207711 -0.13065919 0.91055697
-0.28773659 -0.093401603 1.077052
-0.25983199 -0.2300263 1.057452
-0.28583509 -0.092752524 1.0679899
-0.2436607 -0.2367031 1.011284
-0.2208712 -0.072104253 0.92469209
-0.28905031 -0.2407026 1.067657
-0.31510699 -0.34663111 0.96930218
-0.2862649 -0.2453042 0.88589418
-0.1950898 -0.073521137 0.91463298
-0.01195163 -0.40970191 0.86151677
-0.13655929 -0.084806412 1.164378
-0.1244383 -0.23578221 0.92768908
-0.1785575 -0.075208656 1.005282
-0.2640824 -0.2411502 1.146908
-0.27803731 -0.2388877 0.97779101
-0.34221691 -0.37173051 1.125378
-0.084384561 -0.2313741 0.92315692
-0.2594761 -0.23383281 1.002409
-0.003734946 -0.070529252 1.0853601
-0.00521493 -0.070333049 1.240369
-0.1118934 -0.075607479 1.2520469
-0.25036079 -0.23730031 1.066256
-0.31795841 -0.31238711 1.0464441
-0.2307014 -0.06817174 1.210806
-0.1134055 -0.072931893 1.095656
-0.17446209 -0.068880707 1.014923
-0.060704499 -0.068624198 1.013293
-0.078118153 -0.071531862 1.155226
-0.24229179 -0.076780498 1.235003
-0.080042303 -0.07129389 1.013045
-0.27363309 -0.091193408 0.95347321
-0.2372805 -0.23038919 1.033965
-0.20481279 -0.23702531 1.083089
-0.21307451 -0.24762569 1.070178
-0.093199939 -0.071633518 1.103804
-0.3143594 -0.3884356 0.91631502
-0.2722469 -0.17140649 0.88296717
-0.059693102 -0.23740409 0.9390009
-0.26100999 -0.2340124 1.065107
-0.2129284 -0.41749781 0.83715308
-0.094477147 -0.2376764 0.9235779
-0.3442224 -0.37173411 1.1431251
-0.2207493 -0.2338739 1.03531
-0.1048191 -0.08196336 1.0972821
-0.32240191 -0.32013521 1.066993
-0.1137038 -0.073632538 1.145584
-0.062216431 -0.071877897 1.192364
-0.33705491 -0.36868599 1.139008
-0.05428407 -0.084141463 1.001056
-0.24931499 -0.071892381 1.1871819
-0.31837809 -0.36353639 1.025719
-0.26226389 -0.077450007 0.90818602
-0.28023309 -0.099007338 1.000378
-0.1787172 -0.073004067 1.209972
-0.091073543 -0.072405517 0.94211841
-0.240003 -0.241872 1.112976
-0.24272729 -0.24934261 1.1423711
-0.23261981 -0.070181608 0.98863018
-0.2820721 -0.23441841 1.047989
-0.2368632 -0.072495311 0.91665
-0.30333769 -0.2468216 0.95709622
-0.34794581 -0.41126141 1.1118259
-0.2905331 -0.33696491 0.84193879
-0.1990553 -0.072476797 1.0023611
-0.1809691 -0.075193413 1.146724
-0.33217791 -0.3898569 1.11221
-0.2283534 -0.2378787 1.0222549
-0.000171721 -0.33904299 0.87800932
-0.049933139 -0.23371489 0.94650131
-0.0071564321 -0.075924493 0.93083268
-0.042321712 -0.077453323 0.99405992
0.035791989 -0.23713741 0.92801672
-0.29971111 -0.26430491 0.92906278
-0.31901741 -0.31026179 1.024116
-0.020014459 -0.067677319 1.156455
-0.26543409 -0.26415369 0.85656142
-0.1106509 -0.073010877 1.206683
-0.29995871 -0.26815271 0.93859959
-0.074412793 -0.070308208 1.011431
-0.2300006 -0.073836677 1.0013601
-0.2433041 -0.1949773 1.159623
-0.28878671 -0.090174913 1.061524
-0.2844348 -0.105337 1.0390429
-0.017516971 -0.31921509 0.8791337
-0.26135701 -0.084539771 1.068257
-0.27769509 -0.3200011 0.85630703
-0.28699571 -0.2470132 0.88837641
-0.24710751 -0.27784401 0.8467477
0.1077589 -0.09062469 1.110399
-0.216373 -0.073054843 1.039618
-0.1250388 -0.06770134 1.046701
-0.312664 -0.2459815 1.097872
-0.29141569 -0.1050329 1.106413
0.006212234 -0.072062373 1.139919
-0.261242 -0.25209251 0.94551623
-0.28688169 -0.3923454 0.83892977
-0.1131399 -0.071874887 1.200225
0.02417195 -0.077407777 1.013021
-0.1121494 -0.076147437 0.93611068
-0.31723529 -0.28445849 1.073897
-0.094833247 -0.07001847 0.98180288
-0.03672656 -0.072372019 1.214782
-0.34391451 -0.4165751 1.156736
0.01607519 -0.076693892 1.123412
-0.2556769 -0.074597843 1.061151
-0.046496391 -0.073262163 0.94908518
-0.1299711 -0.27022251 0.86464697
-0.27137381 -0.35594961 0.84563059
-0.2905038 -0.38379771 0.84150523
-0.290959 -0.33058211 0.85779297
-0.3055464 -0.094913431 1.199047
-0.32199779 -0.193404 1.272882
-0.31419581 -0.1414585 1.2678519
-0.309986 -0.1087028 1.263779
-0.1166752 -0.35244271 1.331443
-0.161878 -0.34977561 1.33192
-0.30631459 -0.29963511 1.30483
-0.1734416 -0.36092731 1.3269089
-0.1369891 -0.388024 1.338995
-0.1463936 -0.2376734 1.295755
-0.2495843 -0.30963019 1.3177429
-0.31179741 -0.16972931 1.275188
-0.25644091 -0.31549731 1.318418
-0.25086579 -0.31387621 1.319191
-0.1279394 -0.28886139 1.328171
-0.19219939 -0.37969801 1.325357
-0.3016403 -0.27254459 1.303889
-0.27947801 -0.2433946 0.96295083
-0.33133319 -0.29493099 1.291309
-0.2202193 -0.26938069 1.312446
-0.26043949 -0.1015779 1.274284
-0.2186588 -0.2428747 1.2655261
-0.34049621 -0.28844401 1.2800649
-0.28952441 -0.1903705 1.2826509
-0.1055545 -0.2965745 1.32289
-0.1533733 -0.24008431 1.238343
-0.29132089 -0.33023849 1.310573
-0.30409449 -0.1154103 1.271605
-0.26839679 -0.093841933 0.96072382
-0.28259209 -0.16143329 1.278833
-0.3017253 -0.17943031 1.279436
-0.1144207 -0.2396189 1.279748
-0.28515729 -0.2126735 1.286123
-0.2891849 -0.1597961 1.277427
-0.2880041 -0.23037539 1.2852139
-0.13382161 -0.31871489 1.33113
-0.31206 -0.1733211 1.273683
-0.1455548 -0.26348549 1.326481
-0.28077459 -0.25053051 0.88217908
-0.30264059 -0.310397 0.95078647
-0.3459639 -0.31735179 1.27404
-0.34447849 -0.3095853 1.262247
-0.3050383 -0.42033759 0.85676301
-0.2358052 -0.235705 1.26941
-0.2253256 -0.2750417 1.312325
-0.16635349 -0.38963619 1.327379
-0.1519302 -0.39842781 1.334358
-0.2890799 -0.2118004 1.286745
-0.3047457 -0.42169631 0.85674882
-0.29048029 -0.14503489 1.279848
-0.199111 -0.1059335 1.2905639
-0.1658109 -0.36820221 1.328838
-0.1044346 -0.2241912 1.181869
-0.159924 -0.39774331 1.331811
-0.2046998 -0.23693129 1.243855
-0.1513817 -0.33713329 1.322569
-0.23750371 -0.33464631 1.3216929
-0.0599069 -0.1892705 1.203382
-0.1223588 -0.1753259 1.1841249
-0.30111521 -0.1193336 1.268676
-0.1895356 -0.243275 1.293919
-0.25455979 -0.31470299 1.309036
-0.26251861 -0.1017265 1.2749749
-0.1560742 -0.2442942 1.253997
-0.27227241 -0.18393721 1.27934
-0.23445851 -0.27842081 1.307675
-0.1920868 -0.2438304 1.245095
-0.27929971 -0.1696855 1.275645
-0.15593261 -0.31694779 1.330029
-0.18990681 -0.246971 1.309655
-0.2070739 -0.24212679 1.29763
-0.31089801 -0.1651769 1.271595
-0.29496071 -0.078184597 1.198825
-0.1108691 -0.19432861 1.177108
-0.1036425 -0.21174701 1.180782
-0.1196267 -0.2076734 1.180914
-0.2321797 -0.16202991 1.253031
-0.1487557 -0.26388541 1.3271199
-0.098918259 -0.2240454 1.176749
-0.105911 -0.2332437 1.189459
-0.082061708 -0.2366593 1.217476
-0.1387424 -0.2427392 1.297768
-0.1984015 -0.32708839 1.3225909
-0.29447049 -0.22665571 1.2897969
-0.30890599 -0.1556768 1.270046
-0.035200771 -0.2113601 1.244009
-0.092003793 -0.21407551 1.185285
-0.29189581 -0.1013329 1.274286
-0.093164861 -0.19944219 1.1818759
-0.2283161 -0.2374963 1.248903
-0.3129144 -0.1476212 1.268931
-0.2655355 -0.1376837 1.27388
-0.27371821 -0.1577663 1.277895
-0.1123301 -0.41407591 1.348497
-0.32960311 -0.28865391 1.293299
-0.237656 -0.24024311 1.262526
-0.2721062 -0.18236209 1.282936
-0.1137664 -0.2381389 1.233412
-0.22412799 -0.26551151 1.312077
-0.1537669 -0.3335824 1.32638
-0.29065251 -0.15545671 1.277945
-0.2152438 -0.166409 1.235973
-0.1329076 -0.2414116 1.273743
-0.28150731 -0.139397 1.275209
-0.25736341 -0.30968821 1.311686
-0.28776339 -0.077029534 1.232643
-0.102754 -0.395668 1.347589
-0.1261664 -0.2409493 1.2994879
-0.042454299 -0.22316989 1.2408921
-0.1042502 -0.3418605 1.33823
-0.061123818 -0.24240971 1.2554539
-0.1107272 -0.2409244 1.234077
-0.091668338 -0.34240559 1.337458
-0.2401215 -0.1542303 1.251837
-0.25313029 -0.07611715 1.263134
-0.14769 -0.089846648 1.29374
-0.13303579 -0.1050086 1.296276
-0.1298921 -0.24672329 1.294588
-0.2065507 -0.093720824 1.2822779
-0.34316549 -0.26707491 1.263955
-0.2581839 -0.1322792 1.26152
-0.2165454 -0.1786588 1.232139
-0.3422468 -0.27371141 1.270702
-0.26146159 -0.076054737 1.247209
-0.28416029 -0.075987563 1.212929
-0.27864939 -0.2485285 0.98042792
-0.2075391 -0.1004545 1.2823189
0.0053388481 -0.075795516 1.170487
-0.144372 -0.080855913 1.16971
-0.1228313 -0.35157061 1.331975
-0.1663405 -0.33774209 1.328571
-0.28545019 -0.076446779 1.186734
-0.1822705 -0.1541065 1.216223
-0.236853 -0.075914808 1.127417
-0.057369828 -0.1780303 1.197498
-0.1214376 -0.2412409 1.2077481
-0.1073249 -0.071454413 1.144609
-0.2259353 -0.079254873 0.91220897
-0.25321099 -0.074831329 1.263273
-0.080361247 -0.076673172 1.181735
-0.1123895 -0.077495277 1.138191
-0.1039521 -0.17979351 1.1795501
-0.1124613 -0.2951811 1.327762
-0.1438493 -0.16938721 1.1884
-0.1592682 -0.24137969 1.251915
-0.047059301 -0.21323361 1.2265019
-0.2211386 -0.24356771 1.2701581
-0.27792329 -0.25080219 0.90562981
-0.090405174 -0.2054106 1.186051
-0.09837383 -0.073547103 1.182448
-0.21832059 -0.072708517 1.047883
-0.176805 -0.076609083 1.154207
-0.1856157 -0.3921771 1.337846
-0.1365388 -0.33426771 1.330603
-0.28103501 -0.1486195 1.277819
-0.1453235 -0.24218319 1.301917
-0.0292992 -0.077405058 1.1187429
-0.1002314 -0.38526469 1.362669
-0.1326309 -0.077758841 1.0450161
-0.2801967 -0.079631157 1.195146
-0.240697 -0.2199485 1.257382
-0.2657074 -0.12705059 1.2699161
-0.006172061 -0.1600095 1.263616
0.0052794809 -0.2087331 1.284499
-0.1162845 -0.4223291 1.337721
-0.086656153 -0.3467983 1.3320889
-0.2022761 -0.1023104 1.27863
-0.2303331 -0.2802847 1.305648
-0.088360727 -0.3690623 1.340459
-0.14835919 -0.32083449 1.3301131
-0.2883307 -0.2304671 1.2835799
-0.035941541 -0.27875191 1.336593
-0.01141614 -0.32905531 1.3490241
-0.3363657 -0.28952071 1.279687
-0.3091751 -0.1687019 1.270149
-0.061577559 -0.2423761 1.315089
-0.31319669 -0.3926934 1.313615
-0.32238159 -0.20608769 1.269364
-0.30025011 -0.096999563 1.188107
-0.31045941 -0.1191169 1.2286251
-0.2905049 -0.088773593 1.0767519
-0.34880471 -0.35197979 1.291549
-0.3175489 -0.25301269 1.090252
-0.070939243 -0.2892853 1.328998
-0.30986461 -0.3599706 0.96783179
-0.35441789 -0.39472371 1.299909
-0.2987754 -0.075149827 1.2055269
-0.25653151 -0.22215439 0.95394951
-0.310619 -0.1234843 1.218943
-0.2782861 -0.2383585 1.046893
-0.3530131 -0.33048999 1.235648
-0.3266868 -0.1822059 1.259654
0.001164615 -0.09574271 1.311993
0.0055929418 -0.2104324 1.288499
-0.34189519 -0.28476489 1.275227
-0.31199861 -0.38948789 0.93773311
-0.24874111 -0.2013952 0.95375443
-0.24669079 -0.2001112 0.95126301
-0.30600759 -0.1006304 1.161662
-0.31352431 -0.086872756 1.207003
-0.2282746 -0.1637004 0.98241538
-0.3133491 -0.1873412 1.279844
-0.043092068 -0.33286759 1.3451591
-0.17332371 -0.39470831 1.335001
-0.1195461 -0.2986629 1.32893
-0.2233905 -0.21269681 1.011291
-0.33708811 -0.3181695 1.177873
-0.1929293 -0.247198 1.308887
-0.32685319 -0.32461169 1.088914
-0.22569729 -0.18012071 0.97776723
-0.3333303 -0.2736215 1.191651
0.0052109361 -0.3162567 1.34626
-0.2181644 -0.1958724 1.003804
-0.28952119 -0.1039615 1.028517
-0.27672511 -0.089221723 0.9687295
-0.25174969 -0.08446186 1.2812819
-0.021973969 -0.395053 1.3495851
-0.3146604 -0.1146241 1.231236
-0.14180011 -0.24181721 1.297177
-0.34162521 -0.28125179 1.189386
-0.34071159 -0.4101077 1.109676
-0.1948771 -0.2103167 1.040368
-0.31897271 -0.24975421 1.084391
-0.35034469 -0.42033619 1.121227
-0.32237521 -0.2269242 1.212692
-0.35304829 -0.30331889 1.254683
-0.3359378 -0.31515661 1.1346101
-0.3305923 -0.238749 1.207502
-0.2136434 -0.2055251 0.99666733
-0.31698379 -0.34097821 1.012345
-0.3450523 -0.3221598 1.1756279
-0.2979216 -0.25531209 0.95748389
-0.35711429 -0.41990951 1.145206
-0.1967922 -0.3896212 1.329852
-0.1437678 -0.26457429 1.322263
-0.1129391 -0.41360459 1.358053
-0.2111138 -0.2366474 1.2982219
-0.2378623 -0.22629531 1.1201791
-0.27691299 -0.22013649 1.278797
-0.32888439 -0.30783221 1.137091
-0.3268334 -0.3689923 1.052189
-0.1231655 -0.3483305 1.331261
-0.075653017 -0.34963229 1.348026
-0.3309193 -0.2211419 1.24367
-0.31796479 -0.34233779 1.037032
-0.3066949 -0.2737121 1.300676
-0.1504461 -0.35994089 1.325134
-0.33185261 -0.290622 1.293305
-0.087402999 -0.076949887 1.2153521
-0.1462402 -0.23894741 1.298026
-0.2162766 -0.1089695 1.273829
-0.31842789 -0.086086862 1.2064511
-0.21044309 -0.2304883 1.088796
-0.25324011 -0.24395829 1.056258
-0.21315899 -0.21759801 1.017539
-0.1722538 -0.28744841 1.328285
-0.04952085 -0.065335847 1.010739
-0.35442609 -0.36461049 1.290079
-0.34581691 -0.411495 1.146574
-0.2137159 -0.073789932 0.98599041
-0.32131669 -0.367715 1.051398
-0.33057901 -0.26994649 1.148648
-0.35243481 -0.36443079 1.195626
-0.32792881 -0.2854543 1.161213
-0.27610961 -0.26767099 1.310216
-0.32850969 -0.22835609 1.259753
-0.28709781 -0.35957679 1.317602
-0.2404387 -0.4143413 1.331851
-0.3734217 -0.39638799 1.291396
-0.24618679 -0.1324929 0.93877482
-0.30607459 -0.37553069 0.8921535
-0.30974329 -0.41509539 0.85543448
-0.34998381 -0.4166159 1.124051
-0.31104019 -0.1418774 1.265817
-0.1217771 -0.42664811 1.352916
-0.31593829 -0.25148249 1.105548
-0.2848911 -0.1002925 1.043017
-0.33192989 -0.31662369 1.140028
-0.32464051 -0.39485011 1.020973
-0.3169564 -0.28068531 1.0733629
-0.2803314 -0.1115684 1.034817
-0.2113691 -0.2386961 1.026217
-0.2837815 -0.18909851 1.216585
-0.19090299 -0.2114121 1.127691
-0.24789689 -0.23390549 1.112159
-0.285276 -0.086348116 1.085369
-0.3219212 -0.3202967 1.072666
-0.30869389 -0.24823271 1.077458
-0.28860131 -0.1024576 1.172555
-0.32310241 -0.3253397 1.089859
-0.32614559 -0.36226189 1.074958
-0.31685069 -0.31932431 1.055705
-0.33120999 -0.27975711 1.163416
-0.3211472 -0.24890301 1.088804
-0.2703051 -0.21547399 1.196735
-0.30264249 -0.25121039 0.98665529
-0.31645349 -0.34319121 1.039124
-0.3206459 -0.37087661 1.028865
-0.2221186 -0.2221746 1.149826
-0.18545491 -0.2151348 1.122677
-0.27154371 -0.090999268 0.95375919
-0.2455586 -0.23564769 0.97858667
-0.3140305 -0.3425343 1.012552
-0.2606805 -0.2377436 0.99150741
-0.2620067 -0.2342599 1.1501859
-0.31832391 -0.3982172 1.009048
-0.32853401 -0.41809711 0.98047262
-0.3189123 -0.24250481 1.120914
-0.33077911 -0.26909539 1.146104
-0.29134649 -0.2388681 1.199129
-0.33456641 -0.35723621 1.136553
-0.30055049 -0.27656069 0.97481549
-0.2933332 -0.24691761 0.94755542
-0.3444424 -0.41543481 1.162674
-0.2201625 -0.23054031 1.143337
-0.2393883 -0.18567111 1.168919
-0.2695303 -0.092840239 0.97552538
-0.27128789 -0.2402043 1.101482
-0.31309181 -0.35614741 0.97354388
-0.31442779 -0.3898128 0.94682908
-0.301209 -0.089262709 1.209321
-0.29359639 -0.26542109 0.91982663
-0.25966111 -0.1814613 1.1685981
-0.27287549 -0.1616859 0.91076052
-0.26956809 -0.1318969 0.91364777
-0.3196387 -0.38960421 0.91979969
-0.29067171 -0.33103701 0.86014259
-0.27683541 -0.2276431 0.89313769
-0.27808899 -0.225578 0.89031512
-0.34577119 -0.30187279 1.258597
-0.30776089 -0.2448719 1.019151
-0.18176509 -0.22236539 1.1023149
-0.1777316 -0.22701789 1.097376
-0.30980101 -0.38413471 0.90328169
-0.28602189 -0.2474862 0.89343041
-0.35006979 -0.3757093 1.1938111
-0.29519871 -0.29063579 0.91486228
-0.29806381 -0.25874409 0.90892929
-0.31547689 -0.3420347 1.040967
-0.25481111 -0.2377189 1.087211
-0.3150776 -0.39873949 0.93394649
-0.29016769 -0.1023584 1.075424
-0.2292805 -0.19187219 1.161526
-0.3010045 -0.26709431 0.95242858
-0.29430139 -0.25958449 0.89014119
-0.233171 -0.2355765 1.035323
-0.30154201 -0.24701899 1.1761481
-0.292537 -0.24143399 0.98530149
-0.2335442 -0.2330626 1.097657
0.14507771 -0.35216659 0.89320028
-0.2687822 -0.16779891 0.90392083
-0.1780749 -0.073725261 1.007833
-0.27139261 -0.1055993 0.95963663
-0.30443391 -0.2479201 1.076992
-0.35309851 -0.37435329 1.253648
-0.3419942 -0.38148311 1.131122
-0.31030339 -0.37218431 0.94510502
-0.25847411 -0.1283028 0.88992298
-0.296619 -0.27441049 0.921606
-0.31165689 -0.35048321 0.95060492
-0.27835751 -0.33517319 0.85381532
-0.17256141 -0.2187037 1.086067
-0.331925 -0.31642851 1.1368279
-0.3188794 -0.2496952 1.0848171
-0.35588771 -0.3145389 1.261196
-0.34587711 -0.41878301 1.128312
-0.34678289 -0.39286441 1.187233
-0.3327094 -0.26870009 1.199729
-0.25845319 -0.24305449 0.98035067
-0.2884388 -0.3856568 0.84118742
-0.26873529 -0.20876829 0.87115932
-0.31422219 -0.3731679 0.99127609
-0.2321855 -0.24032401 1.076058
-0.3180587 -0.30275369 1.007458
-0.3306495 -0.25370809 1.27236
-0.3407495 -0.32525069 1.18521
-0.29692391 -0.33909401 0.91810489
-0.28542891 -0.26982459 0.87914377
-0.28562781 -0.40594041 0.83977258
-0.2627351 -0.1671841 0.88372672
-0.26520279 -0.1943661 0.88136721
0.01525826 -0.23897719 0.92614663
-0.26971579 -0.31647441 0.84479213
-0.26082101 -0.3300792 0.8415221
-0.2112907 -0.35571289 0.84263217
-0.211503 -0.39295161 0.84119147
-0.1277431 -0.28412819 0.86857682
-0.29859391 -0.32193449 0.87377411
-0.2558623 -0.2393472 1.076026
0.054798659 -0.2418461 0.91947842
-0.1981667 -0.1885961 1.13829
-0.27293429 -0.2732614 0.86113173
-0.33780211 -0.32717121 1.178854
-0.1212007 -0.073781781 1.066152
-0.04792672 -0.39002901 0.8733052
0.1372377 -0.25015849 0.918329
-0.27718139 -0.2442559 0.96776807
-0.01231802 -0.2429388 0.94398773
0.048557699 -0.2418461 0.9321726
-0.313007 -0.39531529 0.91918868
-0.28689751 -0.24678449 0.89191997
-0.31799221 -0.17079569 1.270188
-0.3294405 -0.40816921 1.09083
-0.23131479 -0.2446795 1.023831
-0.2409928 -0.2425162 0.86210418
-0.29055431 -0.33920711 0.84898847
-0.25072101 -0.1244906 0.88110107
-0.056264881 -0.25724411 0.90397388
-0.31723171 -0.24450929 1.121802
-0.0823384 -0.3004199 0.86813283
-0.31988299 -0.28060681 1.101403
-0.3007004 -0.2463256 1.0000319
-0.27719641 -0.091812171 1.060587
0.497491 -0.27777669 1.026931
-0.29866171 -0.1171211 1.2290879
-0.1670348 -0.1670218 1.088287
0.0153383 -0.2489417 0.93349701
-0.32448769 -0.23284151 1.244218
-0.1866411 -0.097488523 0.8878634
-0.1776011 -0.076014362 0.98365182
-0.25370049 -0.1345274 0.88977909
-0.210196 -0.294193 0.85692859
-0.2489199 -0.1944029 0.87438643
-0.189345 -0.39744821 0.84243888
-0.0463151 -0.2368295 0.93798679
0.036651552 -0.3510766 0.88334
-0.2754496 -0.13452689 1.2114691
-0.28986129 -0.1875833 1.221684
-0.3298887 -0.4204784 0.99611127
-0.3699038 -0.42684409 1.290933
-0.036965489 -0.2347165 0.9142822
-0.24675369 -0.30391991 0.84894902
-0.1902134 -0.081295073 1.2028559
-0.26665229 -0.32669401 0.84270388
-0.1592584 -0.2998884 0.85635698
-0.31364661 -0.2090034 1.271662
0.060752571 -0.1884528 0.94626522
0.1391173 -0.41974801 0.8868435
-0.18538649 -0.17001811 1.122874
-0.28686029 -0.3477957 0.84996408
-0.25152171 -0.2394086 1.068426
0.044593111 -0.1476652 0.94436139
-0.1925405 -0.1660011 1.1202689
-0.01105356 -0.2772519 0.88689059
0.04536587 -0.191664 0.95510042
-0.2896263 -0.087891109 1.050457
-0.26730779 -0.28095409 0.84916282
-0.1230006 -0.088382728 0.89921921
-0.3039524 -0.1561756 1.279893
0.1198125 -0.40894479 0.88602459
-0.30802521 -0.16575439 1.266418
-0.123607 -0.072445549 1.253049
-0.32233 -0.2224036 1.24924
-0.3371262 -0.271788 1.2213219
-0.32506901 -0.34128979 1.108109
-0.3154178 -0.217811 1.280391
-0.24034891 -0.23966271 1.006546
-0.34528169 -0.33635369 1.242082
0.018367231 -0.1528468 0.95564967
-0.18614221 -0.34902051 0.84014922
0.084310107 -0.2854335 0.89714849
0.035995729 -0.19088601 0.95114601
0.057868641 -0.2446111 0.90384507
0.042315312 -0.1610211 0.95083928
-0.1303443 -0.37907481 0.85252142
0.1367487 -0.39550409 0.89085609
-0.30790699 -0.27011079 1.012656
-0.30845779 -0.4224807 0.85637379
0.15471961 -0.390899 0.88967872
-0.31648061 -0.35297361 1.028162
0.062963307 -0.14255489 0.94448489
-0.1185906 -0.1029802 0.90048599
-0.046899799 -0.27402359 0.88278788
0.016672909 -0.4097552 0.87023163
-0.1183812 -0.30397359 0.86647367
-0.043967068 -0.38575971 0.87137163
-0.20837981 -0.3476471 0.84354693
-0.30308411 -0.37165031 0.89977032
-0.2037262 -0.2359456 0.87999892
0.020635249 -0.27559811 0.8913725
-0.33550519 -0.26448041 1.219875
-0.28738829 -0.24611241 1.174234
-0.3084639 -0.2436441 1.106249
-0.3363423 -0.25145191 1.270112
-0.28354171 -0.16972069 0.88995409
-0.2964915 -0.1013413 1.1671211
-0.1225277 -0.39405659 0.84887707
0.72043979 -0.27126959 1.119233
-0.2029094 -0.2379653 1.060859
-0.17495739 -0.30917811 0.84815168
0.070212238 -0.29441851 0.88758773
0.034942571 -0.1799469 0.96670657
-0.331027 -0.37105009 1.114794
-0.081913531 -0.2445811 0.93019831
-0.31933859 -0.35827661 1.042487
-0.2315221 -0.39771101 0.83521348
-0.3195855 -0.35894251 0.99385291
-0.27451259 -0.20320781 1.192717
-0.1465258 -0.28131759 0.86323792
-0.1771533 -0.2432144 0.89883119
-0.27579671 -0.2426583 1.067994
-0.32546881 -0.27809119 1.1494319
-0.21799231 -0.35228199 0.8480047
0.71409643 -0.39359441 1.141555
-0.038801249 -0.065859891 1.128518
-0.21361271 -0.28684619 0.85117829
-0.2553848 -0.380402 0.83667928
-0.18301231 -0.28435531 0.86070681
0.03642964 -0.26123741 0.8943066
-0.04202655 -0.32459769 0.8748194
-0.2470237 -0.1705956 0.94973308
-0.1542 -0.2340465 0.89784729
-0.045284361 -0.34853381 0.87171447
0.049153909 -0.2866897 0.88504308
-0.054207001 -0.3978011 0.865381
-0.075031944 -0.070621192 1.251424
-0.2869457 -0.090143196 1.069581
-0.21403921 -0.074356042 1.08218
-0.2829186 -0.2401765 0.94960558
-0.35358289 -0.3674711 1.250929
-0.29542819 -0.243679 0.9626171
-0.31899121 -0.4180876 0.97635299
-0.31435201 -0.34022599 1.0093549
-0.27753311 -0.239951 1.0352089
-0.31230059 -0.3546313 0.97577041
-0.29037249 -0.30209869 0.90248299
-0.3040342 -0.32354659 0.95376569
-0.3216044 -0.42547491 0.96385348
0.03789613 -0.17295399 0.95289272
0.040528812 -0.1466558 0.95020199
-0.072710574 -0.067059867 1.149116
