# .PCD v0.7 - Point Cloud Data file format
VERSION 0.7
FIELDS x y z normal_x normal_y normal_z curvature
SIZE 4 4 4 4 4 4 4
TYPE F F F F F F F
COUNT 1 1 1 1 1 1 1
WIDTH 582
HEIGHT 1
VIEWPOINT 0 0 0 1 0 0 0
POINTS 582
DATA ascii
-0.030096496 -0.16148327 0.7374292 -0.52539462 0.64956319 0.54957086 0.068583041
-0.017138293 -0.29027268 0.75117922 -0.67459327 0.047410063 0.73666555 0.0013789322
0.016166324 -0.21189129 0.78405589 -0.68219101 -0.041584913 0.72999048 0.0010243849
0.016492771 -0.25399786 0.78470284 -0.67389143 0.034615118 0.73801911 0.0017129306
0.025753578 -0.25728619 0.79271978 -0.65723246 0.037368931 0.75276095 0.0020697536
0.037900906 -0.17316374 0.8084842 -0.46894446 0.49364856 0.73239481 0.079869151
-0.068112619 -0.33239162 0.70907527 -0.81049168 -0.019494619 0.58542573 0.0086080795
0.014890745 -0.15313017 0.57840049 -0.41221622 0.85342336 -0.31897697 0.073421486
-0.0085866284 -0.16256908 0.75722915 -0.52115649 0.65093195 0.55198133 0.06344334
0.052632578 -0.21511401 0.81930006 -0.35050204 -0.08005745 0.93313402 0.048337806
-0.029668966 -0.33608645 0.74849951 -0.65229094 0.059225287 0.75565135 0.0021109595
-0.074545406 -0.38543975 0.70107108 -0.8582111 0.0068367631 0.51325142 0.01674342
-0.090303145 -0.36588675 0.67427057 -0.99797618 -0.010775723 0.062668569 0.056076668
-0.048700608 -0.34485018 0.72881889 -0.71808118 0.019112654 0.69569689 0.0026811422
-0.079840027 -0.44135246 0.70107502 -0.84004676 0.21082641 0.49987373 0.022142543
0.10334034 -0.15066093 0.59481579 0.087751105 0.98772436 -0.12922964 0.02877954
-0.074606881 -0.41429737 0.70044488 -0.85611802 0.008009077 0.51671833 0.022041531
0.013309684 -0.25128677 0.78185403 -0.67732245 0.030290829 0.73506236 0.0015677119
0.0037424425 -0.15602098 0.74245989 -0.25037166 0.93048924 0.2674019 0.04538241
-0.048072726 -0.36318401 0.73267448 -0.72670716 0.022316435 0.68658483 0.0019216691
-0.030790487 -0.43051943 0.74453044 -0.67903268 0.048112083 0.73252976 0.0048216931
-0.023074267 -0.34374955 0.75436097 -0.62781787 0.044948559 0.77706128 0.0021914572
-0.049734637 -0.30074614 0.72686857 -0.65253049 -0.01646647 0.75758356 0.002867582
-0.069605112 -0.35383597 0.7075662 -0.84388387 -0.021991178 0.53607494 0.01810788
-0.06970273 -0.31709734 0.70903516 -0.7973541 -0.038620107 0.60227478 0.0091369646
-0.072075382 -0.29456151 0.70915377 -0.80567622 -0.043556575 0.59075266 0.01651861
-0.001146019 -0.22641838 0.76614255 -0.66499567 -0.023694532 0.74647135 0.00070087769
0.097385429 -0.15954959 0.78819686 0.34156433 0.83375752 0.4337998 0.085488781
-0.035260439 -0.35703495 0.74737144 -0.66763335 0.036018763 0.74361843 0.0025597024
0.014530194 -0.23865628 0.78087294 -0.68062401 0.008536445 0.73258317 0.00092603243
0.049790796 -0.26729456 0.80966711 -0.43840906 0.048313584 0.89747608 0.031727102
0.037330091 -0.33497646 0.80219734 -0.520603 -0.046428721 0.85253561 0.013239322
0.016566299 -0.32329133 0.78494728 -0.63063926 -0.050518669 0.7744301 0.0012059312
-0.0081877634 -0.37554386 0.76563632 -0.58944237 0.012315235 0.80771661 0.00083629263
0.010467757 -0.36512914 0.77604949 -0.60725552 0.0061221719 0.79448295 0.001212156
-0.042190224 -0.43185541 0.73579997 -0.69025779 0.05581627 0.72140747 0.0072469059
0.049834352 -0.15194078 0.58438277 -0.018385641 0.99853605 -0.050870981 0.021653887
-0.031273961 -0.28882065 0.73996305 -0.63401568 0.017683288 0.77311784 0.0019290969
-0.06027472 -0.26452762 0.72300708 -0.63801318 -0.053908098 0.76813614 0.0054161809
-0.052921556 -0.30322954 0.72457755 -0.66189599 -0.020468788 0.74931622 0.0028710384
-0.046473213 -0.19792713 0.73235989 -0.60085773 0.17954773 0.77893043 0.031895649
-0.068363532 -0.3402563 0.70779318 -0.83062696 -0.019632231 0.55648303 0.01176037
-0.07420224 -0.32353482 0.70275766 -0.83989632 -0.035397194 0.54159135 0.013486891
-0.087546401 -0.33261785 0.68311179 -0.96629149 -0.050505962 0.2524479 0.056403857
-0.057221472 -0.23390293 0.72612059 -0.59224445 -0.032972675 0.80508345 0.0079531725
0.1259543 -0.15043902 0.74289995 0.27265108 0.90477467 0.3271763 0.062767036
-0.076793946 -0.16406032 0.69478482 -0.48155013 0.84154212 0.24477831 0.075339466
-0.084770948 -0.39166349 0.66544169 -0.99474347 0.016479148 -0.1010631 0.050584316
-0.077302456 -0.26822609 0.70403928 -0.8936556 -0.082881913 0.4410333 0.028552059
0.025966687 -0.16469829 0.79237843 -0.45761523 0.71329737 0.53084373 0.073487371
-0.039312862 -0.17895663 0.73762715 -0.60552883 0.39314443 0.69193375 0.068287946
-0.082692243 -0.19050145 0.70174086 -0.84864396 0.20526841 0.48751244 0.069644101
0.068094313 -0.29474804 0.82722336 -0.028793653 0.016817229 0.99944395 0.058717258
0.017248416 -0.29243124 0.79028273 -0.65377599 0.00034278125 0.756688 0.0019664906
-0.04419272 -0.31366357 0.73277241 -0.66880608 0.030132743 0.74282604 0.002771595
-0.058339767 -0.44187361 0.72331589 -0.70611417 0.16607095 0.68834817 0.01151277
-0.065384157 -0.33052188 0.71214867 -0.78179842 -0.0096308719 0.62345695 0.0063447491
-0.010644096 -0.42633942 0.76199895 -0.66250914 0.056862336 0.74689239 0.0038659242
-0.03876942 -0.4180823 0.7380324 -0.6853556 -0.0028078081 0.72820312 0.0050982507
0.026676817 -0.36144501 0.79254574 -0.60716712 -0.015548835 0.79442197 0.0010207095
-0.027170248 -0.36281309 0.75315171 -0.6350826 0.021861888 0.77213478 0.0022145906
0.008612643 -0.43945882 0.78420383 -0.62580335 0.15989101 0.76341665 0.0073137847
-0.023586858 -0.42863235 0.75129604 -0.67481983 0.065712333 0.7350511 0.0037682266
-0.03713372 -0.29556179 0.73670602 -0.63509494 0.020693513 0.77215683 0.0019745224
-0.024206918 -0.46746895 0.76228946 -0.64993769 0.23617391 0.72235924 0.0014270433
-0.090324283 -0.16591784 0.68265301 -0.67771196 0.73411566 0.042196676 0.11727483
-0.029550513 -0.1821747 0.74494576 -0.64871639 0.29155004 0.70296913 0.059897549
-0.017664058 -0.21138582 0.75350499 -0.63615412 -0.023654671 0.77119935 0.0013103086
-0.058573432 -0.2632069 0.72291547 -0.63055122 -0.048174154 0.77465117 0.0055104834
-0.076209843 -0.33481216 0.69824654 -0.8722254 -0.035579208 0.48780826 0.019220125
-0.080890752 -0.2739743 0.69904333 -0.91485751 -0.070736803 0.39753231 0.035565585
-0.058233757 -0.45614234 0.73113102 -0.66543519 0.22896995 0.7104708 0.0099141374
-0.081157222 -0.41974962 0.6902653 -0.91388249 0.095509462 0.39458421 0.041733246
-0.078075714 -0.17974904 0.71088302 -0.68390572 0.46599799 0.56135452 0.073174678
-0.082368642 -0.26948571 0.696944 -0.93036968 -0.078494601 0.35812125 0.039481804
0.041885216 -0.16772547 0.80878806 -0.41388929 0.60911685 0.67651486 0.089002758
-0.0063146739 -0.25745013 0.76228899 -0.68521643 0.015224628 0.72818035 0.00088604627
-0.09750504 -0.46146452 0.67266512 -0.97528249 0.21348223 0.057003159 0.092930831
0.2072563 -0.16034491 0.6750946 0.82693779 0.40844974 0.38644901 0.0884232
-0.07838475 -0.18340681 0.70986009 -0.71062696 0.36332628 0.60249764 0.066434577
0.027917551 -0.15348907 0.69264251 -0.029904412 0.99912471 0.029248569 0.00025095767
-0.085892022 -0.43329886 0.68864906 -0.92915738 0.19548869 0.31376851 0.050675273
-0.051990766 -0.2282584 0.72720593 -0.58547109 -0.015395356 0.81054705 0.010262425
-0.02503044 -0.20075117 0.74855268 -0.61825711 0.05380442 0.78413218 0.011799143
0.025810491 -0.21115896 0.79361874 -0.65939552 -0.015637053 0.75163364 0.0027313561
0.00077405415 -0.22182885 0.76950037 -0.67177802 -0.037024129 0.73982668 0.00096252665
0.040663373 -0.16637538 0.80468547 -0.40201104 0.70064771 0.58947426 0.085482754
0.019114494 -0.22189996 0.78568423 -0.68091106 -0.040319208 0.73125547 0.0010433762
0.055657145 -0.33674529 0.81276548 -0.33105516 -0.028714597 0.94317442 0.066375703
0.073747396 -0.39335072 0.81702048 0.046914194 -0.15080416 0.98744982 0.083293743
-0.0088735763 -0.40321907 0.7654494 -0.63152379 0.014034607 0.77522945 0.0027413538
-0.0047045108 -0.39957279 0.76928312 -0.62554568 0.019338023 0.77994788 0.0025434454
0.052474488 -0.44282669 0.81000596 -0.31730354 0.15488696 0.93558997 0.023600249
-0.022366403 -0.32639304 0.75285292 -0.63955528 0.063651599 0.76610541 0.0015661157
-0.013224027 -0.40752521 0.76141798 -0.64223415 0.0018521793 0.76650631 0.0026509261
-0.0057781395 -0.35611129 0.76625007 -0.59866643 0.013638433 0.80088222 0.00085186737
-0.044011649 -0.41172722 0.73441571 -0.69115126 -0.034215074 0.72189975 0.0033088503
-0.03415994 -0.26232687 0.73719698 -0.60118991 -0.011859473 0.7990182 0.0016505613
-0.081403449 -0.23497446 0.7047627 -0.87953526 -0.0037894486 0.47581851 0.034866557
-0.04512601 -0.21685857 0.73041785 -0.57229215 -0.021514988 0.81976748 0.010718989
-0.02721977 -0.21855481 0.74502063 -0.61407119 -0.037464816 0.78836089 0.0044384166
0.022657458 -0.45898077 0.80590421 -0.4851695 0.23271947 0.84288323 0.0094130263
-0.028379017 -0.46293813 0.75620085 -0.65112376 0.22762217 0.72403449 0.002562695
-0.026968984 -0.2231836 0.74459738 -0.619699 -0.025500972 0.7844252 0.0014389305
-0.001036228 -0.20099789 0.76893371 -0.65000057 0.041330788 0.75880897 0.011014348
-0.021105627 -0.2747806 0.74848861 -0.64234871 0.0067647146 0.76638269 0.0023106786
-0.07153447 -0.23508188 0.71756166 -0.75781047 5.7096931e-05 0.6524747 0.03810066
-0.09224648 -0.17493923 0.68471122 -0.86871845 0.4938885 0.037449766 0.12921466
-0.074559741 -0.34803307 0.7015754 -0.87221658 -0.040720936 0.48742184 0.020379933
-0.083064251 -0.42207471 0.69092399 -0.90543586 0.095972389 0.41349146 0.038130429
0.12147757 -0.15081365 0.63777202 0.026922083 0.99884659 -0.039757516 0.0027716989
-0.058497641 -0.38024557 0.72132665 -0.75704271 -0.013879437 0.65321797 0.0014265946
0.088832982 -0.16098821 0.79929417 0.30298516 0.82171053 0.4826923 0.077610791
0.0142706 -0.17805937 0.78882831 -0.61796051 0.30149612 0.72610259 0.056463871
-0.010442993 -0.18213633 0.76314229 -0.63504088 0.21101385 0.74309903 0.045053262
-0.0028699867 -0.27823949 0.76826227 -0.69946975 0.042560626 0.71339375 0.000778633
-0.040247228 -0.30922508 0.7359671 -0.65683991 0.038870264 0.75302744 0.0022126222
-0.061354842 -0.35161415 0.7155385 -0.77741826 -0.0042850534 0.62896937 0.0067630713
0.0022510248 -0.38304177 0.77248287 -0.59790266 0.020162817 0.80131513 0.00095202832
-0.086933665 -0.17342742 0.6953727 -0.72839898 0.61708498 0.2977266 0.11510719
-0.067834198 -0.46383649 0.72896248 -0.69557285 0.28432903 0.65979946 0.0082490761
-0.085556284 -0.17074636 0.69639599 -0.65980452 0.67725646 0.32554829 0.10332211
0.0004358103 -0.44194296 0.56440759 -0.70307463 0.066385545 -0.70801061 0.12963544
0.014847253 -0.15271519 0.63464463 -0.086978815 0.99611872 0.013498253 0.018666038
0.12165871 -0.15041307 0.69780725 0.0036280563 0.99988592 0.014665519 0.0024765483
0.02616857 -0.15213868 0.65676993 -0.040703028 0.99900156 0.018412299 0.00045820771
-0.070791326 -0.2663292 0.71312153 -0.82005203 -0.05482487 0.56965673 0.028838357
0.025707981 -0.15634945 0.75817722 -0.22177011 0.95885986 0.17721659 0.02793931
0.024505896 -0.16443162 0.79090154 -0.45353532 0.72129893 0.52348214 0.079068154
0.084380068 -0.15890871 0.80376989 0.28760687 0.81564236 0.50200582 0.090177178
0.059340965 -0.33696875 0.8140415 -0.26874101 0.013856925 0.96311277 0.071910992
-0.053787224 -0.35612538 0.72428727 -0.73698264 0.016280113 0.67571551 0.0021836394
0.032311961 -0.32638991 0.79893851 -0.58323008 -0.049356669 0.8108061 0.0033280833
-0.0024458768 -0.30997163 0.76752871 -0.66621709 0.020810265 0.74546742 0.0020254261
0.03699303 -0.40575996 0.79903966 -0.49491808 0.05400791 0.86725956 0.0098411907
0.052334856 -0.38167828 0.81043118 -0.42829606 -0.059224475 0.90169549 0.037375014
-0.069531687 -0.29224035 0.71192217 -0.79070354 -0.052888561 0.60991049 0.015770052
-0.051739663 -0.43235084 0.72691458 -0.71256864 0.067394599 0.698358 0.007660497
-0.057942078 -0.38831225 0.72238392 -0.75138444 -0.014625625 0.6597026 0.0014537137
0.020574791 -0.15796344 0.5555886 -0.53025138 0.77496022 -0.34390429 0.076457098
0.03241716 -0.44405568 0.80015874 -0.49255955 0.16184309 0.85509753 0.0082935821
0.0039708829 -0.39478683 0.77515543 -0.60845935 0.026952928 0.79312718 0.0016178607
-0.052627258 -0.35892493 0.72578871 -0.73839378 0.021216309 0.67403597 0.0018224617
0.06215835 -0.17948143 0.82218075 -0.067716293 0.3594909 0.93068832 0.13448964
-0.043659933 -0.22051868 0.73133534 -0.57387251 -0.025920881 0.81853431 0.011041015
-0.07653825 -0.30382106 0.70137322 -0.86730242 -0.031460214 0.49678642 0.016836723
0.064050898 -0.17175949 0.83592469 -0.083254188 0.38784236 0.91795802 0.1582011
-0.08640556 -0.41694275 0.67939264 -0.97351885 0.17767908 0.14384417 0.050109975
-0.085326292 -0.38140976 0.68782699 -0.96261454 -0.036953408 0.26834267 0.03757371
0.079754435 -0.15088254 0.58562368 0.040449645 0.99560922 -0.084415399 0.03102104
0.074503094 -0.30548403 0.82298553 0.14771605 0.056342088 0.98742366 0.079746827
-0.022778312 -0.39769992 0.75532085 -0.6379019 -0.031646222 0.76946712 0.0015374589
-0.058878548 -0.30681118 0.71948153 -0.6840232 -0.033482764 0.7286914 0.002763896
-0.054277323 -0.39459601 0.72635102 -0.7406103 -0.014827386 0.67177117 0.001979307
-0.09434399 -0.45737556 0.6821788 -0.96341181 0.18337898 0.19547333 0.073549315
0.0058713239 -0.26387227 0.77662665 -0.69707751 0.037935868 0.7159915 0.00080020708
-0.020308949 -0.15570273 0.66036463 -0.14097202 0.98833168 -0.057682626 0.030460611
0.051051389 -0.46116784 0.81689578 -0.23682073 0.21251819 0.94802529 0.032587867
-0.074945837 -0.3572242 0.70098394 -0.87407553 -0.032710008 0.48468766 0.023389013
-0.071432419 -0.23071925 0.71842855 -0.73853719 -0.010828353 0.67412585 0.035519905
0.069503695 -0.45847735 0.82094753 -0.0088644717 0.20272709 0.97919518 0.076887846
0.026435679 -0.41426051 0.79277229 -0.55495763 0.09148033 0.82683337 0.0064528743
0.014641518 -0.23424192 0.78064954 -0.67578894 -0.0017441727 0.73709315 0.00092521886
0.07897912 -0.25200191 0.82097083 0.40677851 0.0075942781 0.9134953 0.074619077
0.047909789 -0.43394905 0.80771315 -0.36691293 0.1192474 0.9225806 0.022811579
-0.071792021 -0.31750882 0.70586568 -0.82394248 -0.037998423 0.56539804 0.01396239
-0.083864287 -0.18543985 0.70250434 -0.82732153 0.2671046 0.49416006 0.085895434
-0.079216868 -0.17079063 0.70467472 -0.58148527 0.70801318 0.40073958 0.08018624
0.035249464 -0.23348784 0.80340749 -0.58927995 0.0051219785 0.80791265 0.011970893
-0.055412576 -0.35814732 0.72316945 -0.74278295 0.014719727 0.66937047 0.0021159584
-0.010897937 -0.34596732 0.76245743 -0.60515249 0.015940107 0.79595 0.0013112861
-0.049804844 -0.30739263 0.72687525 -0.66664952 -0.00035983833 0.74537116 0.0031015899
-0.03949976 -0.40906346 0.73952746 -0.67905295 -0.04508679 0.73270339 0.002010301
-0.012588116 -0.42212501 0.7606191 -0.66641641 0.052510623 0.74372828 0.0035758952
-0.044973928 -0.39929259 0.73599237 -0.70262033 -0.025142841 0.71112055 0.0020737585
0.078895152 -0.15467508 0.79273039 0.14228946 0.92818713 0.34383494 0.070615873
-0.017506242 -0.16733485 0.75489128 -0.60781783 0.45619056 0.64995974 0.058494844
-0.037743226 -0.18356828 0.73883265 -0.61159056 0.3163541 0.72517383 0.061203193
0.059293535 -0.37556431 0.81216425 -0.29972503 -0.024308292 0.95371592 0.058801118
-0.030132022 -0.37144384 0.75084859 -0.64097178 0.010961179 0.76748616 0.0020805327
0.0789496 -0.44903189 0.81791103 0.29806855 0.099850073 0.94930768 0.061255731
-0.053721938 -0.43920282 0.72655851 -0.71192014 0.092444457 0.69614923 0.0076411925
-0.071891472 -0.27046427 0.71134794 -0.82709998 -0.062635504 0.55855393 0.028351724
0.025608364 -0.23978092 0.79215139 -0.66713738 0.0022554763 0.74493122 0.0021213286
0.047876731 -0.24395646 0.81152564 -0.41534093 -0.042615235 0.90866709 0.045343138
-0.056311376 -0.17875086 0.72880465 -0.5372569 0.42931584 0.72597718 0.067236938
-0.056673795 -0.25608501 0.72525024 -0.61111611 -0.032780342 0.7908619 0.005033249
-0.0081599308 -0.1546258 0.62640429 -0.23315896 0.96538788 -0.11688937 0.04744485
0.13570285 -0.14997083 0.63123757 0.10270533 0.98809332 -0.11455642 0.014819278
0.035041366 -0.15246736 0.59548509 -0.10071137 0.992149 -0.07414563 0.020222215
-0.086909719 -0.4441933 0.68980592 -0.90269005 0.17247449 0.39421207 0.037459325
-0.074619271 -0.34318763 0.70151961 -0.86332697 -0.030815916 0.50370324 0.014765782
-0.043271281 -0.1579795 0.70905513 -0.28369996 0.91072208 0.30016616 0.043033753
0.068145007 -0.15431476 0.77960962 -0.049517203 0.98298001 0.1769135 0.014209533
-0.001498734 -0.15722053 0.72837162 -0.20206474 0.95673573 0.20934795 0.03301825
-0.060182095 -0.41130576 0.71740502 -0.75962311 0.0032704109 0.65035534 0.0052993996
-0.035929568 -0.42618322 0.74004769 -0.68209571 0.028356226 0.73071289 0.0057207672
-0.037002575 -0.41267896 0.7409609 -0.67271024 -0.034431312 0.73910451 0.0029690373
-0.050213125 -0.39532095 0.73069656 -0.72853428 -0.016634937 0.68480736 0.0023746742
0.070538677 -0.4249877 0.81342995 -0.15972272 0.054615155 0.98564994 0.061681591
-0.0042492752 -0.26928934 0.76570857 -0.69933295 0.040051594 0.71367306 0.0007268819
-0.012463342 -0.1661135 0.75775546 -0.61450833 0.49908924 0.61097413 0.063460104
0.01170797 -0.28926387 0.78490615 -0.68848723 0.0025648081 0.72524399 0.0013636295
0.045472272 -0.15245204 0.65343887 -0.017722897 0.99955785 0.023874752 0.00025752946
-0.068670154 -0.23720284 0.71914989 -0.73131472 0.010887001 0.68195325 0.016023427
-0.061077073 -0.44168222 0.7194587 -0.7144348 0.16280486 0.68049794 0.01190333
0.069633357 -0.37130585 0.81721705 -0.062509596 -0.063070118 0.99604958 0.093267396
-0.016413869 -0.28613913 0.75191742 -0.67967695 0.046263486 0.73205119 0.0015428796
-0.0055740541 -0.18796453 0.76596719 -0.63292891 0.16248557 0.75696725 0.040224079
-0.019629061 -0.19523293 0.75433749 -0.6365943 0.08309944 0.76670867 0.018278511
-0.011093122 -0.15367618 0.60511678 -0.39181495 0.86555821 -0.31191376 0.082998939
-0.052204467 -0.4234938 0.72509265 -0.7150746 0.045016151 0.69759709 0.0073850085
0.052518994 -0.35183096 0.81150728 -0.38769251 -0.023087645 0.92149961 0.052092914
0.017585224 -0.17063591 0.79115027 -0.54125267 0.59440815 0.59474742 0.076762043
0.050408192 -0.4389095 0.80888653 -0.36048958 0.13035414 0.92360979 0.023386991
-0.0010678659 -0.41673172 0.77276129 -0.63945222 0.060328234 0.7664603 0.003705462
0.072490565 -0.40415606 0.81454951 0.034162145 -0.092917241 0.99508762 0.075155206
-0.0058237072 -0.35954741 0.76575387 -0.59750831 0.017561968 0.80167043 0.00086829771
0.011003375 -0.333857 0.77886689 -0.6250037 -0.038298413 0.77968174 0.0010464893
-0.070477553 -0.29080614 0.71174318 -0.79055339 -0.054982405 0.60991991 0.016033173
-0.011911105 -0.27387688 0.7574603 -0.69194227 0.040133607 0.72083646 0.0012382593
-0.032769009 -0.34257081 0.74665993 -0.66601229 0.048852861 0.74433935 0.0026149945
-0.034840718 -0.32984605 0.74277884 -0.67008364 0.058925055 0.73994303 0.0019790835
0.088439249 -0.15163419 0.63161653 -0.0075147389 0.99995881 0.0050957249 0.00020444355
0.14624004 -0.15147623 0.65723127 0.041674633 0.99808019 -0.045815986 0.0031082374
0.034718551 -0.37923554 0.79782897 -0.54543877 -0.037404846 0.83731562 0.0035611023
-0.072939448 -0.38341752 0.703201 -0.85049069 -0.0015932851 0.52598768 0.015448031
0.015597118 -0.34533873 0.78133053 -0.62018859 -0.019408263 0.78421265 0.00092827051
0.045569658 -0.25593677 0.80804741 -0.46494296 -0.0024800817 0.88533717 0.035133556
-0.075619079 -0.25835624 0.70952946 -0.84941328 -0.04758605 0.52557838 0.027696691
-0.072574951 -0.19135329 0.71790355 -0.68445694 0.1965872 0.70204854 0.047129404
-0.065118268 -0.3797273 0.71352935 -0.80994672 -0.0074147037 0.58645666 0.013699072
0.034031797 -0.28642488 0.80290216 -0.57877207 -0.0015064382 0.81548792 0.0032138296
-0.036077805 -0.20719579 0.73852187 -0.60209197 0.023299037 0.7980867 0.01462616
-0.074746951 -0.18345504 0.71401751 -0.67498058 0.32406187 0.66286135 0.059824511
-0.075553395 -0.16931278 0.70550603 -0.50844306 0.76614892 0.3930667 0.065499038
0.049989421 -0.21088912 0.81709015 -0.38765427 -0.065716296 0.9194594 0.047283858
-0.066149779 -0.27928612 0.71659398 -0.76888776 -0.066888049 0.63587552 0.030254671
0.086161509 -0.15280622 0.72522199 -0.03778461 0.99899447 0.024131866 0.00097245089
-0.029973516 -0.40513864 0.74892908 -0.65441746 -0.041200999 0.75501007 0.0013683873
-0.011758522 -0.37992284 0.76340616 -0.59347045 0.00013502536 0.80485582 0.0011995486
-0.069920823 -0.17937975 0.71845281 -0.55822253 0.50593811 0.65758216 0.057920214
0.012101061 -0.19267155 0.78128523 -0.66265219 0.12320821 0.73872304 0.035298903
0.03431185 -0.15194088 0.56370938 -0.29206735 0.92851526 -0.2292513 0.05564817
0.16861871 -0.15399969 0.71370119 0.39680153 0.86595553 0.30441666 0.070613652
-0.0094164656 -0.40491843 0.76493108 -0.63152379 0.014034607 0.77522945 0.0027413538
0.023908619 -0.33016741 0.79018658 -0.62092781 -0.053095825 0.78206748 0.0014381516
-0.078608982 -0.27807102 0.70125228 -0.90383047 -0.05752068 0.42400673 0.035271004
-0.039064996 -0.32655373 0.73784322 -0.67775768 0.054435421 0.73326761 0.0018879313
-0.098926574 -0.46169156 0.67128563 -0.97580332 0.21842568 -0.0099058412 0.096506439
-0.041748527 -0.46531099 0.75027716 -0.65263289 0.23798563 0.71932834 0.0034498123
-0.026640199 -0.15849696 0.67338151 -0.13379009 0.99024212 -0.038998514 0.020739321
0.035990532 -0.153089 0.70532298 -0.027929222 0.99914473 0.030493002 0.00017700509
0.037195459 -0.29845074 0.80463582 -0.54075867 -0.024988284 0.84080654 0.0074072611
0.06977953 -0.35275835 0.81987786 -0.010603241 -0.012375276 0.9998672 0.093053736
-0.060521923 -0.31622419 0.71683878 -0.72278124 -0.0087213609 0.69102192 0.0040019173
-0.046111275 -0.38079828 0.73708838 -0.71737671 -0.0034651172 0.69667685 0.002370911
0.028377302 -0.30960479 0.79693198 -0.59802318 -0.04347134 0.80029905 0.0029972354
-0.026310325 -0.18048824 0.74851578 -0.67192727 0.29525629 0.67921829 0.056975361
-0.005967597 -0.17938669 0.76629657 -0.63542372 0.26255113 0.72615671 0.052160613
0.069829851 -0.15934886 0.81522173 0.14774682 0.81001979 0.56748474 0.11618327
-0.013981143 -0.16478984 0.75594926 -0.60128093 0.51892906 0.60759687 0.06497404
0.068400949 -0.38549331 0.81847417 -0.13107993 -0.13907529 0.98156816 0.071367793
0.086740233 -0.35072151 0.82731164 0.4267686 -0.023636619 0.9040519 0.057631135
-0.069793336 -0.30609685 0.71042114 -0.78698367 -0.052444674 0.61474073 0.012038516
-0.008517147 -0.40441346 0.765558 -0.63152379 0.014034607 0.77522945 0.0027413538
-0.08005552 -0.36611652 0.69510788 -0.90896702 -0.021635735 0.41630614 0.028227381
0.010835886 -0.23698021 0.77736604 -0.67912006 -0.0028896043 0.7340216 0.0008218619
0.083464794 -0.26604709 0.81788391 0.56312776 0.036990292 0.82554156 0.051417165
-0.0038194389 -0.38637957 0.76861286 -0.59971648 0.0095178708 0.80015588 0.0013554445
-0.031398956 -0.40024099 0.74837798 -0.65195805 -0.036965262 0.75735343 0.0013179337
-0.039828431 -0.37241924 0.74329042 -0.67841822 0.0099241408 0.73460889 0.0020805052
0.015628831 -0.32620168 0.78345406 -0.62867272 -0.042016242 0.77653408 0.0010974139
0.021967666 -0.17504378 0.79675686 -0.60051799 0.41297585 0.68471098 0.062860034
0.0044960058 -0.4330661 0.77873528 -0.65953153 0.12958819 0.74042225 0.0051684934
0.0072977273 -0.31688765 0.77633017 -0.654607 -0.014204625 0.75583595 0.0022247904
0.023855364 -0.22943406 0.7902211 -0.67551154 -0.017264847 0.73714733 0.0012064237
-0.00079422846 -0.26319766 0.76893085 -0.69477415 0.030768925 0.71856952 0.00089607877
0.016206913 -0.1527364 0.63605046 -0.083781481 0.99635667 0.015944831 0.019746415
0.034900241 -0.15104683 0.64045954 -0.031105628 0.99945807 0.010770243 0.00054231938
0.046517614 -0.32395312 0.80816895 -0.43347743 -0.084072962 0.89723408 0.034526788
0.019642266 -0.29650742 0.79146624 -0.6502685 -0.0036253866 0.75969571 0.0020992593
-0.043517984 -0.30690771 0.73214263 -0.65434831 0.018632263 0.75596374 0.0027600816
-0.070237316 -0.24589722 0.71773064 -0.75404239 0.022627879 0.65643585 0.015091848
0.028286964 -0.2540549 0.79470021 -0.65087652 0.032387275 0.75849241 0.0024638029
0.039174937 -0.27992797 0.80510777 -0.52127212 0.032903641 0.85275596 0.013723986
-0.060382187 -0.164498 0.70779335 -0.39961034 0.84331357 0.35935193 0.040884241
0.057316255 -0.15316206 0.68816704 -0.0193747 0.99959892 0.020658607 0.00010616487
0.044796951 -0.1531284 0.6846981 -0.019312967 0.99945366 0.026819883 0.00017248682
0.02756601 -0.15336464 0.70163989 -0.030846085 0.99905038 0.030771352 0.00021529642
0.0079854345 -0.15533575 0.7092641 -0.06357643 0.99703217 0.043415781 0.00084209163
-0.056832012 -0.16470775 0.7114054 -0.36943984 0.83938515 0.39868128 0.042465515
0.084197246 -0.15273671 0.74186343 -0.01146482 0.99873143 0.049031567 0.0034243935
0.035800766 -0.35670367 0.7997067 -0.57835579 -0.041259602 0.81474054 0.0022755815
-0.0029808797 -0.29852286 0.76840967 -0.68381292 0.019011034 0.72940969 0.0016261626
0.019844016 -0.41579518 0.78750873 -0.56985086 0.11071189 0.81425595 0.0053557171
-0.022430018 -0.3629477 0.75541115 -0.6254766 0.026865862 0.77978039 0.0021114519
-0.01062284 -0.17652316 0.76285249 -0.63486093 0.26327002 0.72638869 0.047177237
-0.063848957 -0.16083686 0.66718346 -0.42221698 0.89524955 -0.14234149 0.062977992
-0.047493991 -0.42772448 0.73010021 -0.69794226 0.044677753 0.71475899 0.0074397102
0.032498512 -0.40710649 0.7966966 -0.5225352 0.057273604 0.85069191 0.0046400647
0.010220568 -0.27277812 0.78180295 -0.68716168 0.037316054 0.72554553 0.0012238063
0.052491084 -0.15321004 0.71866399 -0.034535497 0.99901831 0.027741579 0.00022610759
0.016351899 -0.28610614 0.78905338 -0.66469008 0.012301032 0.74701798 0.0017624537
0.028594656 -0.33150995 0.79502839 -0.60049444 -0.052827183 0.79788202 0.0024672719
-0.051205579 -0.19050634 0.73119444 -0.57850546 0.27402937 0.76827031 0.049535818
0.043009192 -0.32988581 0.80708051 -0.47877198 -0.037915371 0.87712014 0.019837921
-0.03240443 -0.44603717 0.58756185 -0.71519196 0.041929867 -0.69766915 0.049771369
0.037027378 -0.20745027 0.8043921 -0.58107871 -0.0089440942 0.81379819 0.010241458
0.049937293 -0.33698383 0.80910802 -0.44937176 -0.012847407 0.89325243 0.037232671
0.042543735 -0.30097923 0.80817783 -0.48057005 -0.029760808 0.87645119 0.017898288
-0.06155441 -0.24446653 0.72396934 -0.64755142 -0.014018698 0.76189274 0.010355828
-0.043625962 -0.42610389 0.73339552 -0.69222045 0.032582089 0.72095031 0.0068031917
0.081371531 -0.33206743 0.82025409 0.4366006 -0.020641884 0.89941865 0.085758075
-0.045462612 -0.36811346 0.73742479 -0.71397734 0.017669177 0.69994581 0.0025000004
0.037957992 -0.24913307 0.80390751 -0.56546384 0.01643629 0.82460928 0.011367352
0.024300888 -0.24013713 0.79070705 -0.67077756 0.0045105834 0.7416448 0.0018154846
-0.076582141 -0.19058451 0.71578437 -0.69726825 0.20140718 0.68793321 0.050158169
-0.056994382 -0.43250898 0.72101736 -0.7173363 0.067488477 0.69345069 0.0073905168
0.0075729471 -0.38611457 0.77609003 -0.60234064 0.02334111 0.79789782 0.0010663432
0.011645145 -0.46637255 0.80109227 -0.49984387 0.37250713 0.78191721 0.0074357344
-0.0081616826 -0.19295788 0.76383501 -0.63601208 0.10361118 0.76469171 0.02215812
-0.017294493 -0.22235803 0.75311679 -0.6432761 -0.034732737 0.76484603 0.00076707778
0.033839684 -0.25172698 0.80041587 -0.61146253 0.020929016 0.79099655 0.0077621043
0.061840322 -0.24535696 0.81991124 -0.23320827 -0.04663071 0.97130811 0.061637629
0.0152385 -0.24249817 0.781654 -0.68396908 0.018731765 0.72927052 0.001046696
-0.0072965063 -0.46116325 0.77938008 -0.65204734 0.23852777 0.71967965 0.0038409946
-0.013208903 -0.18628609 0.75941563 -0.62892669 0.19109476 0.75361401 0.041001517
-0.080494568 -0.30014721 0.69590294 -0.89316142 -0.014680037 0.4494966 0.023720901
-0.01087467 -0.15924875 0.74764419 -0.43631247 0.77497292 0.45721823 0.059868187
-0.038010489 -0.21919607 0.73525298 -0.57094759 -0.030657997 0.82041389 0.0046959077
0.075927772 -0.16424766 0.83774656 0.11959878 0.50758332 0.85326159 0.18331291
0.057621799 -0.30294958 0.81536114 -0.22787054 0.027561858 0.97330129 0.058272872
0.065769598 -0.20407946 0.8216669 -0.13596863 0.026297681 0.99036407 0.05787354
-0.023386979 -0.15626755 0.7028507 -0.15295099 0.97931033 0.13250376 0.018935479
-0.078536451 -0.40090597 0.69527799 -0.90471876 0.0041144746 0.42598963 0.030665059
-0.074209146 -0.38422632 0.7011143 -0.85577321 0.0032739625 0.51734072 0.01644692
-0.056554414 -0.37105218 0.72366744 -0.75097102 0.0070925239 0.66029704 0.0016412005
0.03757865 -0.15535323 0.74965411 -0.099021062 0.99061626 0.094202518 0.0047756094
0.12334241 -0.15597329 0.75741142 0.32115901 0.88041764 0.34888622 0.070560083
-0.00073606515 -0.16102916 0.76400995 -0.49082762 0.72838968 0.47805521 0.073072918
0.055702399 -0.15429771 0.78369874 -0.12182207 0.97064131 0.20740013 0.011977754
0.02083417 -0.16197431 0.78308994 -0.34719953 0.88480908 0.31074962 0.05174382
-0.043747548 -0.16747682 0.72840393 -0.48691535 0.66945153 0.56102419 0.07186731
0.057779107 -0.15376551 0.72641557 -0.03624228 0.99894083 0.028353322 0.00025468366
0.039816555 -0.36103231 0.80229133 -0.54762727 -0.044781182 0.83552313 0.0061796838
0.05707613 -0.402345 0.80875111 -0.37068623 -0.05746638 0.92697859 0.039610542
0.07430093 -0.37026694 0.83733046 0.073764183 -0.029590152 0.99683666 0.056835134
0.07137274 -0.29021162 0.8323319 0.020784935 -0.00058259233 0.99978375 0.063905559
-0.010622766 -0.33592743 0.76269042 -0.62040204 0.041541889 0.78318298 0.0018283717
0.055216182 -0.23248918 0.81788939 -0.33637756 -0.06808991 0.93926239 0.058084294
0.05183477 -0.29291138 0.81457961 -0.33158302 0.028531304 0.94299448 0.034740012
0.11671938 -0.1513788 0.66142064 -0.0134113 0.99990785 0.0020988726 0.00026136031
0.055691898 -0.1707408 0.8203941 -0.26484251 0.5359776 0.80161494 0.13122904
0.17065462 -0.15208131 0.64130569 0.21915476 0.95213026 -0.21311767 0.04066835
-0.020600727 -0.34705555 0.75633949 -0.62555903 0.039301176 0.77918637 0.0021786457
-0.017931288 -0.35775879 0.7586574 -0.61336023 0.03245227 0.78913635 0.0019324903
0.089675091 -0.32973474 0.819157 0.56991553 -0.021334445 0.82142621 0.060001586
-0.062826566 -0.3884697 0.71524233 -0.78382498 -0.012638612 0.62085319 0.0096161934
0.065771021 -0.24795647 0.82109421 -0.15581447 -0.031594958 0.98728091 0.077531308
0.021312118 -0.16827458 0.79100013 -0.49017692 0.66680646 0.56133389 0.07772617
-0.093935661 -0.46255669 0.69090664 -0.92076188 0.28023541 0.27141425 0.032352325
-0.02620443 -0.32037047 0.74760479 -0.64252228 0.069653854 0.7630946 0.0012592546
-0.0012079198 -0.44449097 0.77613932 -0.67399377 0.14083508 0.7251882 0.0047438978
0.039233681 -0.22354788 0.80726939 -0.53920877 0.010439007 0.84210742 0.021423833
-0.03448892 -0.36650461 0.74787462 -0.6591596 0.019113183 0.75176013 0.0023421661
-0.038711958 -0.21068029 0.73594064 -0.57985675 -0.0033966256 0.81471133 0.012002518
-0.069113292 -0.30750117 0.71086192 -0.78673911 -0.049189825 0.61532259 0.011568666
0.024451146 -0.45932275 0.8072812 -0.48561022 0.23189247 0.84285748 0.0089268032
-0.05608768 -0.19357896 0.72817516 -0.56643492 0.24844813 0.78576398 0.050027434
-0.077625506 -0.43704256 0.70235527 -0.83542168 0.15056683 0.52858317 0.02173979
0.019441269 -0.44896358 0.79629618 -0.52184069 0.21417095 0.82571971 0.0084689818
0.0036227962 -0.44689932 0.78191948 -0.6608727 0.15294555 0.73474818 0.0051614107
0.047606014 -0.17088875 0.81283724 -0.39466193 0.49823684 0.77201164 0.11370055
-0.077659778 -0.22911894 0.71104425 -0.80511391 0.0056611528 0.59309316 0.027058885
-0.0015997865 -0.23342945 0.76578087 -0.66812921 -0.013091299 0.7439301 0.00083677849
-0.064918049 -0.2327491 0.72198266 -0.67627501 -0.013928512 0.73651761 0.035746317
0.010166248 -0.168671 0.78408372 -0.56901199 0.57109928 0.59166795 0.07523983
0.053401139 -0.22294226 0.81803423 -0.35730299 -0.02540675 0.93364292 0.05552531
0.066694565 -0.15347493 0.73314738 -0.044738427 0.99868011 0.025231183 0.00027128248
0.069582634 -0.32350233 0.81641918 0.033695765 0.0078050154 0.99940169 0.11051265
0.1095945 -0.16015323 0.77544069 0.37496397 0.81574535 0.44041061 0.090202339
0.21210343 -0.4431296 0.65320128 0.69756532 0.6747573 -0.24105017 0.22061779
0.19436105 -0.26465428 0.66911304 0.96225643 -0.0026603304 0.27213141 0.058022156
0.16963086 -0.15298636 0.70643181 0.34061754 0.90506381 0.25463542 0.069203161
0.18123157 -0.17687823 0.69962728 0.66328657 0.27951631 0.69420558 0.062422451
0.17548075 -0.42216688 0.70941734 0.82614815 -0.087409921 0.55663157 0.039911069
0.11188663 -0.22946355 0.77825516 0.74727225 -0.020298166 0.66420799 0.0008227895
0.1974095 -0.29488015 0.68213403 0.92352587 0.045822907 0.38078883 0.022596184
0.078520656 -0.20793407 0.81528831 0.41474396 -0.0044180346 0.90992737 0.064983539
0.11509462 -0.31902757 0.77852511 0.74339134 0.036399379 0.66786557 0.0021751346
0.13014933 -0.15399374 0.74646652 0.28055927 0.90348279 0.32404518 0.068357557
-0.060121015 -0.16082391 0.66190833 -0.38299873 0.90362096 -0.19178399 0.059261639
0.11441438 -0.29769972 0.77724648 0.73503667 0.043551464 0.67662716 0.00061822496
0.073597401 -0.33705473 0.81994826 0.011623201 -0.040983222 0.99909222 0.084381774
0.19723126 -0.43387407 0.68351662 0.85617065 -0.22601916 0.46463659 0.12340769
0.11758568 -0.38327599 0.77790958 0.71258974 -0.0021247694 0.70157784 0.0010571971
0.084884547 -0.37207398 0.81012291 0.46285105 -0.023666767 0.88612002 0.06319657
0.13977689 -0.44561964 0.74889487 0.7543779 -0.064328238 0.65328097 0.0010566143
0.14832436 -0.21059905 0.73580563 0.76468861 -0.0083054779 0.64434648 0.0008117368
0.10556272 -0.26221019 0.7846123 0.76022786 0.0028384665 0.64965034 0.0013956452
0.094955124 -0.24168888 0.79711062 0.68642282 -0.0027764877 0.72719741 0.017536037
0.18420726 -0.23325764 0.69998741 0.76382685 -0.046242982 0.64376265 0.048117083
0.13456793 -0.39203647 0.75920069 0.74268436 -0.0070469384 0.66960448 0.00041561728
0.13712378 -0.35172197 0.75533712 0.74188298 0.01372793 0.67038882 0.00034164425
0.10008156 -0.3240554 0.79453516 0.66776729 0.0056726644 0.74434853 0.022442466
0.16934152 -0.32212958 0.71738601 0.77241099 0.024312479 0.6346575 0.0018772362
0.14352033 -0.16343258 0.74568707 0.70278221 0.48325694 0.52207267 0.10751078
0.075985171 -0.16464567 0.8168211 0.30366579 0.69361269 0.65321386 0.11940612
0.14666456 -0.20766708 0.73757583 0.76773381 -0.0038631719 0.6407572 0.0010589942
0.073814951 -0.27309039 0.82179183 0.1696745 0.020423291 0.98528844 0.075650938
0.11220409 -0.2042537 0.77935052 0.7283265 -0.0023016327 0.68522644 0.0036261845
0.16450609 -0.2518295 0.71820444 0.74740911 -0.0041007777 0.6643514 0.0019525031
0.1055233 -0.28240466 0.78542465 0.75576669 0.029076887 0.65419513 0.0014465688
0.19419163 -0.21605153 0.68992788 0.857032 -0.019021424 0.51491207 0.063310184
0.083683252 -0.31854331 0.81241626 0.51745063 -0.04589935 0.85448116 0.071828373
0.098117948 -0.29386032 0.79388571 0.72653663 0.025195559 0.68666559 0.0075505576
-0.051445283 -0.16060843 0.67319548 -0.27946416 0.95743161 -0.072279625 0.038756352
0.14199555 -0.30710676 0.74803579 0.74871427 0.055323482 0.66058022 0.00036032283
0.0081226397 -0.16134316 0.77186376 -0.40570888 0.82955426 0.38371861 0.057322308
0.070802391 -0.15105285 0.63534206 -0.0056468868 0.99993521 0.0098875361 0.00032841679
0.14701444 -0.17895941 0.74051249 0.76021916 0.29491574 0.57887095 0.052330457
0.07848426 -0.23412891 0.81823671 0.32791817 -0.060196318 0.94278628 0.082376026
0.09452302 -0.19782011 0.79934287 0.64952356 0.10133584 0.75355834 0.018399866
0.17983179 -0.42280328 0.7059195 0.83349884 -0.077575415 0.54704827 0.043145891
0.10964721 -0.16295855 0.78513724 0.47226846 0.6683504 0.57469136 0.093856335
0.13262731 -0.16510148 0.76000142 0.65464288 0.50894719 0.55894136 0.077782787
0.10812576 -0.42261779 0.78708601 0.67086488 0.019501034 0.74132311 0.0053388127
0.1089106 -0.23890574 0.78000557 0.75066304 -0.011215262 0.66059005 0.00069214404
0.13981831 -0.14932461 0.70231903 0.11531025 0.99213922 0.04861458 0.027421532
-0.046062317 -0.15853408 0.69334811 -0.25001195 0.95379287 0.16665286 0.028274603
0.10719406 -0.15060508 0.72567511 -0.006985215 0.99689502 0.078432038 0.0060666497
0.14924064 -0.29100022 0.73658776 0.7600643 0.050178163 0.64790779 0.00053157378
0.11390685 -0.31652915 0.77958721 0.74325413 0.03653495 0.66801083 0.0022874689
0.1162032 -0.29374075 0.77487165 0.73464549 0.044971358 0.67695916 0.00059614517
0.13994563 -0.44647837 0.74857652 0.7543779 -0.064328238 0.65328097 0.0010566143
0.15386163 -0.33965245 0.73839706 0.7619819 0.02668068 0.64704847 0.00081324979
0.10810281 -0.29067302 0.78292751 0.75065666 0.032784503 0.65987867 0.0011391945
0.1187881 -0.1528203 0.74947363 0.31738332 0.88591516 0.33826348 0.058302943
0.09730722 -0.36795786 0.79649478 0.62183762 -0.05613688 0.78113163 0.033489279
0.1768205 -0.18518028 0.70368838 0.70040846 0.22920375 0.67593908 0.046593849
0.085219972 -0.30441698 0.81240934 0.54936659 -0.050129548 0.8340764 0.066042662
0.17771879 -0.34729868 0.7041623 0.80713844 -0.0097004594 0.5902825 0.0010930049
0.13057557 -0.25582761 0.75891393 0.73603445 0.0084527591 0.67689133 0.00054792251
0.13867521 -0.18071464 0.75130385 0.81644207 0.23815104 0.52602887 0.064850353
0.13757534 -0.2154088 0.75097489 0.77006006 -0.016599499 0.63775545 0.0012642592
0.19789957 -0.29222834 0.68140411 0.9282434 0.048380647 0.36881375 0.023076622
0.20144252 -0.27187097 0.66260612 0.99495202 0.05677541 0.082746044 0.06466075
0.21053894 -0.38297552 0.65978855 0.99910873 -0.010498104 -0.040885959 0.06681367
0.20616594 -0.41411591 0.66360909 0.98428899 -0.15083852 0.091777168 0.11546892
0.15024143 -0.40463483 0.74127477 0.75194448 -0.024531709 0.65876991 0.00042341609
0.16162188 -0.39429763 0.72957242 0.77933103 0.0079276469 0.6265623 0.00078185054
0.13911922 -0.44267508 0.75023055 0.75290418 -0.058592718 0.65551674 0.00098334614
0.1149706 -0.34502086 0.77917242 0.73844993 0.01290959 0.67418468 0.0026046145
0.068287998 -0.24543808 0.82193184 -0.097886331 -0.058012977 0.99350536 0.083640881
0.16242923 -0.34348127 0.72746104 0.77626747 0.0059908479 0.63037527 0.0011102648
0.11608336 -0.27369842 0.77276075 0.73588884 0.026927108 0.67656666 0.00055044121
0.072440229 -0.24185997 0.82156277 0.036508344 -0.078120783 0.99627525 0.077903271
0.047018759 -0.15223493 0.59136641 -0.017734157 0.99869871 -0.047816623 0.021491785
0.014578337 -0.15251568 0.59333396 -0.2623249 0.93894607 -0.22263421 0.055667192
0.14492549 -0.15081465 0.64411157 0.078076966 0.99170756 -0.10207884 0.01066616
0.11923791 -0.21433713 0.77210915 0.75050586 -0.048121896 0.65910941 0.00098080339
0.07998322 -0.24894546 0.81657904 0.37480009 0.032739285 0.92652738 0.09547282
0.058300674 -0.1583983 0.80365503 -0.10022997 0.93544298 0.33896974 0.039515145
0.07870315 -0.16266039 0.81211305 0.33993521 0.67166787 0.65825999 0.11671905
0.14926334 -0.4484967 0.73723817 0.75351721 -0.076817654 0.6529249 0.00071276393
0.15848282 -0.42851457 0.73074991 0.75983119 -0.052584611 0.64799035 0.00093175966
0.18903822 -0.18893959 0.6901229 0.78228766 0.15895034 0.60229629 0.029550955
0.064178847 -0.15323262 0.72068077 -0.037673317 0.99895579 0.025847347 0.00030348488
0.073087677 -0.15356159 0.77813113 -0.023855403 0.98800421 0.15257369 0.011471453
0.13060102 -0.23197661 0.75862408 0.7543475 -0.012645476 0.65635359 0.001086086
0.11051114 -0.3201552 0.78323454 0.74722314 0.03697997 0.66354358 0.0025190038
0.16954403 -0.42363092 0.71698612 0.77951449 -0.051367994 0.62427443 0.016548963
0.14200978 -0.28066504 0.74545884 0.75361532 0.026329037 0.65678817 0.0010957301
0.12856887 -0.28326583 0.760975 0.74150604 0.036729112 0.66994017 0.0007189684
0.15823892 -0.2952109 0.72618318 0.76224136 0.050536145 0.64531708 0.00049182907
0.097975254 -0.27961373 0.79426908 0.74897075 0.013024828 0.66247499 0.0024536119
0.11945169 -0.16133651 0.7701689 0.4826901 0.73940843 0.46934584 0.10766286
0.16762115 -0.36398345 0.7199319 0.79016054 -0.003057993 0.61289233 0.0010334986
0.10733292 -0.24664924 0.78142935 0.75947195 -0.0041832239 0.6505267 0.0012958031
0.19054295 -0.15982305 0.6901294 0.62294126 0.6037637 0.49740693 0.08915972
0.20753966 -0.21513326 0.67290741 0.95898277 -0.03188185 0.28166598 0.051935241
0.1684875 -0.27371922 0.71292365 0.76308113 0.017024187 0.64607853 0.0032301967
0.17653729 -0.27614662 0.70343411 0.81025982 0.038021732 0.58483613 0.0080288863
0.03683503 -0.15591189 0.76011086 -0.15922758 0.97787529 0.13567039 0.015688322
0.20731109 -0.34876326 0.66402626 0.9869805 0.052639797 0.15198222 0.05689529
0.20314687 -0.28283444 0.66554493 0.99089038 0.088007331 0.10193578 0.06064003
0.18577728 -0.25773466 0.69054377 0.87600994 -0.018620851 0.48193339 0.05761135
0.19306065 -0.37942109 0.6836893 0.8639909 0.034229327 0.50234258 0.012783394
0.13116017 -0.42137736 0.76178169 0.76613861 -0.031555284 0.64190018 0.00079784024
0.14087649 -0.28980464 0.74720705 0.74911857 0.041191474 0.66115409 0.0010059823
0.13502555 -0.44106644 0.7551415 0.76849467 -0.016913377 0.6396327 0.0024404181
0.095092259 -0.32950258 0.79822618 0.59109426 0.0082861539 0.80655998 0.04226125
0.086862147 -0.43487483 0.80187768 0.51428568 0.028336139 0.85715073 0.038212195
0.18492116 -0.43639779 0.69712627 0.83280236 -0.16389431 0.52875221 0.08464352
0.12233552 -0.2731643 0.76683521 0.72965842 0.032321412 0.68304759 0.00052596116
0.071997881 -0.30938029 0.82172257 0.11850207 0.029855905 0.99250489 0.086306088
0.20141679 -0.31131062 0.67120034 0.95804137 0.064173386 0.27935365 0.037522696
-0.052150249 -0.16173038 0.63787001 -0.50785607 0.77627474 -0.37346995 0.11741909
0.075093985 -0.22216019 0.8184852 0.16833121 -0.032571055 0.98519224 0.075892285
0.11400525 -0.15089251 0.71203148 -0.0018178844 0.99896914 0.04535931 0.004826359
0.20957585 -0.3649222 0.64747018 0.93957388 0.040358145 -0.33995903 0.05049004
0.14336687 -0.25438204 0.74514961 0.75507116 0.009942241 0.65556753 0.0005571341
0.12366372 -0.16977254 0.77278137 0.63007462 0.47874159 0.61140209 0.1086038
0.17718308 -0.3743186 0.70779365 0.80438596 0.018564891 0.59381688 0.00066218904
0.088180557 -0.31240749 0.81005365 0.57429588 -0.046623092 0.8173191 0.055172477
0.20476511 -0.44429898 0.66386151 -0.67844021 -0.72941983 0.087552808 0.22107968
0.084205359 -0.33566087 0.80975926 0.53471977 -0.007293554 0.84499788 0.065115541
0.12162252 -0.17783821 0.77430516 0.68519819 0.31273663 0.65779877 0.096292995
0.17806615 -0.15428661 0.6995405 0.41392314 0.84670401 0.33430511 0.094425872
0.023438983 -0.15338548 0.58694303 -0.23348451 0.95274013 -0.1943482 0.051614434
-0.0052134795 -0.1542334 0.67223239 -0.081830718 0.99659187 0.010414401 0.0053456775
0.10124992 -0.3363629 0.79283041 0.66237682 0.020672059 0.74888563 0.020331295
0.13220146 -0.15043858 0.62221819 0.10873291 0.98573697 -0.12845153 0.017923424
0.1446598 -0.1517947 0.66347396 0.023891371 0.99958801 -0.015903588 0.0011558868
0.2060024 -0.31741083 0.66167313 0.99607819 0.063243099 0.061875429 0.054528486
0.13568753 -0.30401278 0.75594592 0.7422418 0.048946712 0.66834229 0.00060881674
0.19823045 -0.35840473 0.67713642 0.91477823 0.013653127 0.40372556 0.027709754
0.088038892 -0.262411 0.80642819 0.63438773 0.03072156 0.77240431 0.03853583
0.087809242 -0.22167575 0.80550897 0.6057868 0.022728411 0.79530233 0.039210934
0.20403624 -0.17332613 0.67242092 0.87530327 0.27664351 0.39662653 0.073601924
0.18702091 -0.29506367 0.69630831 0.82032889 0.066363767 0.56802851 0.0055466401
0.18393122 -0.20341186 0.69653141 0.73434967 0.04031061 0.67757326 0.0046151313
0.16263773 -0.24131803 0.72030354 0.74905562 -0.0072880597 0.66246706 0.0020679892
0.14554203 -0.44245893 0.74252886 0.75603831 -0.06176728 0.65160632 0.00095002016
0.11461253 -0.41327637 0.78000242 0.71749568 0.0083162822 0.6965133 0.0052802349
0.1528586 -0.21603297 0.73032898 0.75545144 0.0033303776 0.65519625 0.00085611525
0.075287208 -0.23350476 0.81973094 0.12637782 -0.066119395 0.98977613 0.080091625
0.067236476 -0.18428639 0.8249222 0.045242876 0.2036223 0.97800362 0.12771904
0.10342474 -0.16279976 0.79155433 0.41457927 0.69612998 0.58611184 0.10145772
0.114715 -0.15536894 0.76550877 0.32458863 0.87830734 0.35102493 0.067425236
0.20719138 -0.38484874 0.66656226 0.98941958 -0.012762492 0.14451993 0.062044796
0.1797798 -0.24462132 0.70305014 0.74430692 -0.049939778 0.66596788 0.05862366
0.13945185 -0.3714667 0.75164837 0.74841881 0.0098530073 0.66315329 0.00041940625
0.13126528 -0.31370115 0.76248616 0.73999953 0.051154993 0.6706593 0.00052890123
0.093887135 -0.4130564 0.79835939 0.57322294 -0.069639169 0.8164348 0.018824173
0.10799968 -0.45237184 0.79007638 0.69600642 0.089796692 0.71239841 0.0047432105
0.10953014 -0.37936968 0.78712368 0.70025474 -0.0032565708 0.71388566 0.00092099281
0.16425605 -0.15524258 0.71691459 0.38457909 0.87411237 0.29669255 0.060181729
0.13285214 -0.15018469 0.7183702 0.081052668 0.98888761 0.12462653 0.027025681
0.16482919 -0.15066174 0.6791358 0.18203011 0.97808218 0.10109556 0.046335176
0.20989847 -0.2201317 0.66744089 0.98621655 -0.078159653 0.14583562 0.060396802
0.1704407 -0.31968433 0.71612459 0.77613401 0.022866108 0.63015318 0.0020347955
0.13469313 -0.35867032 0.75791371 0.73711729 0.013157304 0.67563677 0.00049776421
0.18949112 -0.25383505 0.6861459 0.8661961 -0.0546843 0.49670306 0.051077645
0.20094268 -0.33396512 0.67279088 0.92618579 0.026666712 0.37612322 0.022347672
0.013531633 -0.15276128 0.62465715 -0.10602903 0.99394512 -0.028825756 0.016561236
0.17720206 -0.31440723 0.70735604 0.78627163 0.016109169 0.61767095 0.0026127833
0.069646284 -0.39575219 0.81614673 -0.080627866 -0.10807563 0.99086773 0.06396132
0.17220214 -0.2432548 0.71251833 0.75338459 -0.048136737 0.65581584 0.011468619
0.019715667 -0.15247598 0.66308802 -0.049021479 0.99860567 0.019589525 0.00058767752
0.073801517 -0.15287001 0.680978 -0.019097792 0.99962306 0.019720932 0.00010047116
0.09773425 -0.19516881 0.79494047 0.67797989 0.16245019 0.7169053 0.025352728
0.065571018 -0.24426825 0.82090497 -0.19600342 -0.058657479 0.97884721 0.066556416
0.13622262 -0.15391497 0.74060559 0.30611476 0.87490094 0.37528917 0.065354586
0.15166138 -0.37320203 0.73736191 0.76728761 0.008820056 0.6412425 0.00077400112
0.20855092 -0.43289244 0.66568106 0.99966925 0.015716031 0.020356711 0.21392353
0.12419064 -0.39036527 0.77074701 0.72888762 0.0024707504 0.68462896 0.00067923398
0.17358315 -0.18334724 0.71054691 0.6942178 0.23954175 0.67873514 0.042232182
0.10452653 -0.15158188 0.66983169 -0.020867549 0.99976939 0.0050843977 0.00024937934
0.20203428 -0.41078424 0.67265826 0.94582462 -0.11502567 0.30361947 0.078294881
0.10545392 -0.30924398 0.7878409 0.73957276 0.036867175 0.67206609 0.0035754023
0.18714285 -0.34233001 0.69098699 0.83574301 -0.012125815 0.54898685 0.0029544972
-0.011567895 -0.15487738 0.66087914 -0.10128707 0.99456912 -0.023943203 0.029222926
0.084091507 -0.15273309 0.69894022 -0.035817787 0.99935764 -0.0012212398 0.00018858432
0.031694133 -0.15327083 0.6958763 -0.027647285 0.99921441 0.028392898 0.00020647851
0.024942707 -0.16103691 0.78446448 -0.28228319 0.91763222 0.27976298 0.033856981
0.10309915 -0.38954875 0.79116976 0.66193938 -0.037362125 0.74862558 0.0021763949
0.19880435 -0.32223433 0.67529726 0.92773688 0.041139506 0.37096077 0.030188739
0.192873 -0.31176093 0.69041151 0.87928039 0.032735609 0.47517842 0.050761167
0.20900063 -0.40035105 0.66000676 0.99675161 -0.076846689 -0.024103265 0.072161123
0.20110773 -0.30795369 0.67427474 0.94195235 0.073883608 0.3275162 0.031683508
0.14815721 -0.35813022 0.74325407 0.76008421 0.0087647652 0.64976555 0.00049979868
0.18112865 -0.32182622 0.70242333 0.80070508 0.0089218691 0.59899235 0.0022981465
0.1413527 -0.20347525 0.74540573 0.78999823 0.021759566 0.61272287 0.0041029616
0.16161849 -0.25307983 0.72146809 0.75270206 -0.0040173149 0.65834916 0.0016458913
0.066990122 -0.15190032 0.6008755 -0.00092226901 0.999686 -0.025039064 0.010388204
0.051878575 -0.15095447 0.61237609 -0.021193933 0.99977535 0.00033073159 0.00046713167
0.083614431 -0.44550571 0.80723512 0.44866019 0.091349058 0.88902158 0.048146553
0.20246591 -0.42528141 0.66547644 0.98671633 -0.16000289 0.028107451 0.18482402
0.071103215 -0.19412312 0.82305813 0.098371863 0.12336423 0.98747367 0.097737983
0.12611181 -0.19341475 0.76555252 0.76806706 0.13591495 0.62577969 0.018459132
