# .PCD v0.7 - Point Cloud Data file format
VERSION 0.7
FIELDS x y z normal_x normal_y normal_z curvature
SIZE 4 4 4 4 4 4 4
TYPE F F F F F F F
COUNT 1 1 1 1 1 1 1
WIDTH 582
HEIGHT 1
VIEWPOINT 0 0 0 1 0 0 0
POINTS 582
DATA ascii
-0.035375424 -0.25229874 0.55590886 -0.47055697 0.069968268 -0.87959117 0.062262181
-0.037775286 -0.37937969 0.55680394 -0.60014915 0.041203361 -0.79882622 0.027918957
-0.081665836 -0.30306855 0.60878354 -0.75142366 0.006842257 -0.65978462 0.013953848
-0.076076314 -0.3456361 0.60685658 -0.74150419 0.051561829 -0.66896409 0.010752754
-0.07829731 -0.37213221 0.60780692 -0.74963504 0.025904456 -0.66134423 0.010248666
-0.072519682 -0.22043358 0.61026013 -0.77759039 -0.039875269 -0.62750554 0.011439209
-0.084297173 -0.17539594 0.60991478 -0.78857392 0.038270559 -0.61374778 0.017598653
-0.08321166 -0.21011546 0.61652797 -0.78961194 -0.053912163 -0.61123359 0.014089676
-0.054919492 -0.1993234 0.58088368 -0.76865757 -0.020267891 -0.63933921 0.013761587
-0.055350088 -0.13895437 0.79296607 -0.51501846 0.61226124 0.59991014 0.093314841
-0.053313438 -0.21457326 0.57691896 -0.77999842 -0.018243954 -0.62551546 0.014473455
-0.087930396 -0.13659467 0.62562895 -0.6029563 0.61547148 -0.50758106 0.084989317
-0.096701026 -0.41582853 0.62486976 -0.70023352 -0.043215103 -0.71260464 0.018148743
-0.092383124 -0.15004651 0.62437254 -0.72362727 0.37599194 -0.57878643 0.053109061
-0.088799194 -0.21247876 0.62946671 -0.76545942 0.0099112475 -0.64340788 0.013471618
-0.10087907 -0.38461795 0.62218171 -0.75828308 0.011988808 -0.6518153 0.014339814
-0.057306174 -0.3524735 0.57854331 -0.73151875 0.045252673 -0.680318 0.01285828
-0.046319652 -0.23039064 0.57879055 -0.74589121 0.016781086 -0.66585642 0.016164873
-0.10046719 -0.3333593 0.63129824 -0.75534683 0.060521882 -0.65252453 0.0096929232
-0.1012425 -0.33649939 0.63039017 -0.74862731 0.053062193 -0.66086423 0.010412766
-0.099502668 -0.18610717 0.6419943 -0.78184694 -0.0096149566 -0.62339622 0.010118714
-0.10584087 -0.40624002 0.63900131 -0.74719781 -0.01006039 -0.66452557 0.017775482
-0.10269364 -0.23294976 0.64699972 -0.75620985 0.11427345 -0.64427334 0.015464207
-0.066252805 -0.19731648 0.59775174 -0.77501184 -0.046744697 -0.63021547 0.010102189
-0.058826029 -0.31004655 0.59015518 -0.75623143 0.033063687 -0.65346825 0.01143197
-0.11832422 -0.3207916 0.65361691 -0.76482189 0.057376776 -0.64168173 0.0086555239
-0.11423815 -0.39589036 0.64247358 -0.74884057 -0.0092258798 -0.66268593 0.013866717
-0.10530943 -0.15258445 0.63862395 -0.70814842 0.38230449 -0.59360689 0.06566947
-0.09865129 -0.19191486 0.64647657 -0.78168219 -0.00032154444 -0.6236769 0.0086405715
-0.068082437 -0.1627008 0.58844799 -0.73786157 0.213641 -0.6402483 0.034313574
-0.11109117 -0.27357349 0.65097034 -0.77760208 0.058487013 -0.62603056 0.015616032
-0.11872194 -0.33385846 0.65133864 -0.77526069 0.038723815 -0.63045335 0.0099735195
-0.1168388 -0.23626873 0.65116525 -0.78362858 0.083654061 -0.61557144 0.019002685
-0.06751243 -0.28199866 0.6048094 -0.76585281 -0.028431917 -0.64238691 0.020525055
-0.12062181 -0.16733514 0.65635222 -0.76144117 0.069996119 -0.64444387 0.028888676
-0.12434866 -0.22724579 0.66381484 -0.77693295 0.057239085 -0.62697601 0.017181685
-0.12425148 -0.23206615 0.66031992 -0.7800355 0.063845567 -0.62246966 0.017306916
-0.077344604 -0.17865728 0.61514193 -0.79440641 0.025165366 -0.60686505 0.013762175
-0.13155651 -0.27086714 0.67988563 -0.85781968 0.018367168 -0.51362246 0.025576623
-0.12452398 -0.13594425 0.66988838 -0.39917114 0.82204628 -0.40608165 0.10282838
-0.092069164 -0.36879519 0.6165446 -0.77402163 0.0030704378 -0.63315171 0.00893021
-0.14386155 -0.38062876 0.67499059 -0.87319177 -0.0080618877 -0.48731011 0.02871545
-0.13902223 -0.30771366 0.6770277 -0.89693505 0.031264041 -0.44105572 0.026820587
-0.14357114 -0.37739035 0.67521405 -0.86626393 -0.011829843 -0.49944654 0.026006529
-0.12460589 -0.16392018 0.66618401 -0.72003973 0.2039867 -0.66327387 0.060169
-0.12654132 -0.17206563 0.67345136 -0.74499792 0.11336095 -0.65736395 0.040465761
-0.14037757 -0.24864675 0.67845136 -0.85189068 0.059875432 -0.52028567 0.025591595
-0.15378894 -0.29956746 0.70306885 -0.97143185 0.06831383 0.22727351 0.089849494
-0.14604716 -0.22474772 0.69129783 -0.93525237 -0.1026113 -0.33878317 0.076553486
-0.1524014 -0.44678739 0.68453121 -0.82855713 0.30227214 -0.47130093 0.028710579
-0.10383009 -0.40711766 0.62923282 -0.74317175 -0.025579032 -0.66861147 0.02064994
-0.151583 -0.32016116 0.69968069 -0.98578489 -0.093829758 0.13937078 0.07685867
-0.026441948 -0.3310959 0.5506137 -0.33488426 0.0034707573 -0.94225281 0.055612959
-0.1368258 -0.1551559 0.69100779 -0.76764101 0.54318845 -0.3401081 0.10602663
-0.14709894 -0.18946837 0.691728 -0.92198181 0.021315021 -0.386646 0.062189791
-0.15446308 -0.18513232 0.69612902 -0.94233549 0.023613345 -0.33383572 0.066283122
-0.11516176 -0.35334152 0.64555395 -0.76644915 0.025318675 -0.64180577 0.010029287
-0.13491523 -0.1372918 0.69312477 -0.48966154 0.85986042 -0.14447047 0.096258037
-0.15470394 -0.23363462 0.71885031 -0.93993074 -0.027373113 0.34026602 0.084257551
-0.11598346 -0.16497029 0.65114254 -0.7337535 0.2064192 -0.64729977 0.054355931
-0.12286171 -0.22956325 0.65997952 -0.76870936 0.061876968 -0.63659817 0.016692439
-0.15427697 -0.14111459 0.71526206 -0.70467281 0.65213764 0.27955791 0.10051069
-0.15761818 -0.17282796 0.71072054 -0.96673226 0.10010444 0.23538864 0.053046077
-0.027239431 -0.15760258 0.55326253 -0.4211539 0.18104455 -0.88873631 0.11265556
-0.11838035 -0.38050798 0.65880954 -0.75282449 0.021749258 -0.65786195 0.012660002
-0.1316433 -0.33215702 0.66394526 -0.76945907 0.039273407 -0.63748747 0.0079847891
-0.12342854 -0.21332498 0.67443097 -0.75981319 0.025704442 -0.64963305 0.012226633
-0.12924969 -0.27567109 0.67197502 -0.81549692 0.036749665 -0.57759356 0.010914288
-0.14632151 -0.35416332 0.67620891 -0.85553646 0.043819282 -0.51588488 0.018259911
-0.14965507 -0.41643289 0.69780773 -0.9889068 0.13543904 0.060988467 0.094055593
-0.15116133 -0.32418111 0.6937955 -0.99121457 -0.05189582 -0.12165742 0.05764813
-0.049237311 -0.26694331 0.58152157 -0.74164486 0.003168796 -0.67078525 0.011238534
-0.1693197 -0.44393519 0.70086569 -0.90383196 0.25499123 -0.34360912 0.046792887
-0.1533159 -0.19665895 0.69518214 -0.93424886 -0.055156589 -0.35233063 0.068226494
-0.089314401 -0.30208862 0.623689 -0.74935901 -0.024575891 -0.66170764 0.011291306
-0.098660313 -0.17312118 0.64113361 -0.75934833 0.11321197 -0.64075994 0.025379775
-0.10965316 -0.34048265 0.64050001 -0.76189029 0.036489211 -0.64667743 0.011987784
-0.11993739 -0.1479052 0.6593588 -0.6119101 0.49982876 -0.61297411 0.094619304
-0.12680215 -0.20858143 0.67743129 -0.79832143 -0.0030456735 -0.60222375 0.018933961
0.083383881 -0.12926924 0.63951659 0.09829814 0.9791398 -0.17782807 0.020211691
0.002341598 -0.43079549 0.54934919 0.46696839 0.037609983 -0.88347381 0.024888918
-0.087099776 -0.13288715 0.74576646 -0.2748892 0.90024096 0.33764213 0.071350425
-0.012630252 -0.14095943 0.55299056 0.41429126 0.48500654 -0.77015024 0.10239359
-0.11909386 -0.38780308 0.64643168 -0.75389653 0.0051577915 -0.65697289 0.01222699
-0.029402779 -0.24828736 0.54763788 -0.34492826 0.060898501 -0.93665141 0.071078934
-0.1587349 -0.16347685 0.71233779 -0.96487737 0.14290065 0.22043395 0.059773326
-0.14978085 -0.32996267 0.69181341 -0.9808175 -0.0014033173 -0.19492343 0.052454203
-0.11102086 -0.14452891 0.64986163 -0.66910326 0.42782384 -0.60767394 0.079682551
-0.14401232 -0.39747375 0.68139941 -0.8873055 0.011798718 -0.46103108 0.032665588
-0.093599886 -0.39817762 0.61413503 -0.77727199 -0.034089912 -0.62824053 0.011782299
-0.11544528 -0.159857 0.65331119 -0.6865834 0.33842257 -0.64348531 0.072773777
-0.15905704 -0.43320253 0.70937455 -0.88666248 0.1040629 0.45055583 0.061158698
-0.099011898 -0.1357446 0.76524091 -0.5434289 0.59460825 0.59255898 0.077851094
-0.15875703 -0.28664881 0.70592457 -0.97247058 0.0036053315 0.23299788 0.085493654
-0.11551017 -0.13332348 0.71045041 -0.21607196 0.95789188 0.18909265 0.041398492
0.030105816 -0.12831561 0.79783845 0.12910827 0.98853076 0.07834442 0.037214912
-0.16034736 -0.21395558 0.70696574 -0.98465121 -0.17101516 -0.034867916 0.089126073
-0.027916677 -0.1273783 0.60681927 -0.073212303 0.99602813 -0.050674442 0.03113641
-0.020810232 -0.13286625 0.77734089 -0.13760899 0.98821217 0.067085907 0.01802212
0.066145219 -0.12585406 0.72539735 0.0056123412 0.99764085 0.068418831 0.010098959
-0.15817131 -0.21330279 0.71074831 -0.98115444 -0.13993628 0.13324292 0.082400732
0.057522468 -0.12877545 0.77517629 0.25286534 0.90774733 0.33474472 0.084007077
0.0061648758 -0.12973803 0.74308467 -0.057256196 0.99785697 0.031670623 0.0014576426
0.059247714 -0.1275125 0.6618188 0.045094911 0.99631757 -0.072923563 0.0064393757
-0.012843614 -0.12874186 0.66437626 -0.032725655 0.99936301 0.014233117 0.0013893575
0.024692737 -0.12846909 0.59732753 0.16789967 0.87936199 -0.44556952 0.087921448
-0.13061348 -0.41965532 0.73309529 -0.76317072 -0.052469183 0.64406323 0.0065663303
-0.15103196 -0.31838295 0.71886367 -0.87450457 -0.07612218 0.47900644 0.033715844
-0.088971794 -0.13311456 0.76822066 -0.48057944 0.69147629 0.5393551 0.083474725
-0.091310114 -0.13463989 0.76713067 -0.49394697 0.67032653 0.5537858 0.081314206
-0.11232246 -0.13368893 0.73550421 -0.31330973 0.83893389 0.44500229 0.054452486
-0.13289753 -0.3892172 0.73418355 -0.74159116 -0.057074592 0.66841984 0.0031708104
0.043777648 -0.12669259 0.62661594 0.11184875 0.98448956 -0.13516669 0.020980641
-0.067847624 -0.13606326 0.78565907 -0.50179732 0.60494053 0.6182608 0.1055228
-0.12816906 -0.30719495 0.74066025 -0.6942246 -0.0016620434 0.71975648 0.0056039742
-0.064858146 -0.23054649 0.79548413 -0.64893478 0.038652081 0.75986159 0.0037787524
-0.1107569 -0.20916767 0.75494105 -0.63085258 -0.019579094 0.77565575 0.002593765
-0.045154128 -0.21196952 0.80664158 -0.6277082 0.027257321 0.77797127 0.0054560415
-0.013475859 -0.12946346 0.59701473 0.0049778037 0.99412698 -0.10810599 0.014545396
0.00016089677 -0.31182176 0.84453845 -0.29208782 0.031046323 0.9558875 0.050839588
-0.14548962 -0.14396238 0.72574592 -0.52264255 0.7540347 0.39783975 0.08661253
-0.0043138261 -0.18934743 0.8422786 -0.41087002 -0.050350711 0.91030252 0.028933644
-0.074813269 -0.16559821 0.78018522 -0.5499711 0.22398898 0.80458736 0.043012004
-0.15727851 -0.2855891 0.70800024 -0.95457768 0.0066062114 0.2978889 0.08144179
-0.13231486 -0.3604416 0.73425251 -0.72321737 -0.016972816 0.69041193 0.001086872
-0.12659702 -0.27944621 0.74164438 -0.6755833 -0.00044285049 0.73728353 0.0029959213
-0.15638675 -0.33919501 0.70944434 -0.96845424 0.0067290626 0.24910055 0.059972461
-0.1497065 -0.20757417 0.72065556 -0.92117083 -0.049819671 0.38595632 0.065258145
-0.11280616 -0.23652381 0.75331491 -0.64934558 0.0013241345 0.76049227 0.0031230147
0.068914086 -0.12632395 0.63917339 0.10496733 0.98484981 -0.13803151 0.015752781
-0.14543067 -0.33010846 0.72116297 -0.87215161 -0.010014232 0.48913315 0.036492072
-0.089738555 -0.15214641 0.76882422 -0.60685468 0.38211235 0.6969344 0.061630074
-0.079713643 -0.15626346 0.77695572 -0.58181405 0.32923806 0.74370342 0.063253902
-0.12279096 -0.34147406 0.74398839 -0.69544804 -0.0080573615 0.71853119 0.0015866194
-0.025393857 -0.29767185 0.82801026 -0.5385493 0.071856007 0.83952445 0.0053642541
0.011160953 -0.13045539 0.80907667 -0.016379055 0.98163944 0.19004163 0.055248871
-0.15971357 -0.16522782 0.7113536 -0.96145874 0.1392132 0.23710068 0.055574983
-0.092940986 -0.13333079 0.72809857 -0.14705184 0.96817541 0.20251466 0.037737172
-0.13156505 -0.29790753 0.73651493 -0.70807838 0.0036051171 0.70612472 0.0064328783
-0.11382373 -0.39480481 0.75274289 -0.69509691 -0.032738358 0.71817023 0.00084574905
-0.11342409 -0.41714215 0.75242454 -0.69527662 -0.028273594 0.7181859 0.0013550241
-0.10785357 -0.33302295 0.75840557 -0.65804833 0.0084416643 0.75292838 0.0024030113
-0.042145971 -0.13363054 0.79725027 -0.33424965 0.89536029 0.29429093 0.065517776
-0.12883443 -0.28042302 0.73909664 -0.68346995 0.0032181186 0.72997147 0.0036629864
-0.12253022 -0.3749966 0.74250609 -0.71102983 -0.019242201 0.7028985 0.0010597823
-0.10538547 -0.20548409 0.75711656 -0.61878276 -0.015949998 0.78540027 0.0021383811
-0.099922344 -0.17991377 0.76280314 -0.59700143 0.051883917 0.80056059 0.0054985103
-0.055463556 -0.2152724 0.79068255 -0.652349 0.019187415 0.75767583 0.0044312226
-0.042708706 -0.21193275 0.81027979 -0.62277615 0.026046827 0.78196639 0.0054326789
-0.099947728 -0.30574277 0.75621909 -0.64254135 0.014356732 0.7661165 0.0023993319
-0.069852144 -0.13137056 0.68344158 -0.026596531 0.99878126 0.041576985 0.0010252642
-0.14745529 -0.30608037 0.71903491 -0.83976144 -0.09133593 0.53521836 0.034772404
-0.14852342 -0.15735714 0.72587299 -0.82155049 0.22695911 0.52301472 0.10358493
-0.14291178 -0.24571323 0.72255987 -0.85358995 -0.012949697 0.52078456 0.054601181
-0.14152122 -0.1647179 0.73330951 -0.69640195 0.17894256 0.69498485 0.056852523
-0.12850693 -0.29261494 0.74067229 -0.68693483 0.01119757 0.72663271 0.0041879918
-0.10489248 -0.15944567 0.75948167 -0.63121319 0.2983087 0.71594816 0.05277488
-0.10317428 -0.17380108 0.76072675 -0.61943078 0.22282167 0.75276554 0.035172988
-0.069110982 -0.33739188 0.79602903 -0.65225565 0.0019434721 0.75799644 0.00161512
-0.063154399 -0.17178558 0.78917766 -0.59163046 0.14967968 0.79219276 0.018642005
-0.042614982 -0.29969692 0.81562185 -0.6225034 0.0041718087 0.78260595 0.0038130693
-0.038017903 -0.13245307 0.77531648 -0.19797437 0.96967453 0.14330895 0.051023755
-0.0094491784 -0.24013121 0.83852297 -0.37321264 0.0524696 0.92626089 0.029058142
0.011735762 -0.13049597 0.81436294 -0.015495945 0.98158032 0.19042042 0.056322563
-0.058721296 -0.26667356 0.80304086 -0.64949065 0.030498443 0.7597577 0.0052520339
-0.14986457 -0.38880807 0.71427244 -0.94528621 0.054440852 0.32166767 0.057933338
-0.096001312 -0.40567246 0.7675485 -0.69301945 -0.021664741 0.72059333 0.0011958785
-0.096772522 -0.28595564 0.76290214 -0.63649446 0.015535875 0.77112478 0.0020529451
-0.099499784 -0.33794782 0.76444453 -0.66290891 0.017016372 0.74850667 0.0014785774
-0.15511136 -0.14724249 0.71706539 -0.79294491 0.54450363 0.27341205 0.11330928
-0.13935873 -0.24967279 0.72888136 -0.75963306 0.0018636886 0.65034926 0.018450508
-0.1246141 -0.3245894 0.74187624 -0.69907987 -0.012527899 0.71493375 0.0020653133
-0.11855656 -0.2818391 0.74809122 -0.65194905 0.0043116184 0.75825053 0.002429235
-0.14167809 -0.21478115 0.72608614 -0.82997549 0.0068767257 0.55775756 0.05360264
-0.086107664 -0.25479847 0.7772761 -0.66818362 -0.0086870734 0.74394566 0.0064106658
-0.08842209 -0.38192007 0.77584571 -0.66119653 -7.3807889e-05 0.75021273 0.0029885746
-0.13199803 -0.24557716 0.73332751 -0.7247678 -0.00076187175 0.68899286 0.010839704
-0.081702426 -0.40388554 0.78208596 -0.65989959 -0.0043057958 0.7513414 0.0041170507
-0.077918664 -0.30100343 0.78362757 -0.68094587 -0.0069066584 0.73230112 0.0026964748
-0.068985425 -0.39964294 0.79575223 -0.64143312 0.014293114 0.76704586 0.0054358691
-0.12186905 -0.40256 0.74410337 -0.707133 -0.040861443 0.70589888 0.0017471353
-0.12487695 -0.30230573 0.74522227 -0.66389155 0.006182367 0.74780321 0.0031408749
-0.11007797 -0.23952016 0.75486219 -0.63617593 -0.0049895612 0.77152789 0.0026055486
-0.045605339 -0.41093579 0.81363678 -0.63062173 0.042941947 0.77490139 0.0054044933
-0.047720462 -0.1516217 0.80316013 -0.59667104 0.38516238 0.70401251 0.065680429
-0.03884507 -0.3326489 0.81772405 -0.62018639 -0.001654473 0.78445274 0.0015900484
-0.0047123884 -0.41545907 0.84226966 -0.2508615 -0.0071789604 0.9679963 0.053490199
-0.059806511 -0.18126561 0.79684031 -0.63108146 0.052686844 0.77392519 0.0046316851
-0.0467977 -0.2331132 0.80636007 -0.63640368 0.045548264 0.77001023 0.0047256057
-0.026780998 -0.18934917 0.82063109 -0.59640884 0.030958788 0.80208355 0.0071243611
0.010717954 -0.36210793 0.84662414 -0.15336184 -0.058245316 0.98645204 0.059183754
-0.060881216 -0.13107732 0.74600112 -0.096709758 0.98795313 0.1208133 0.028823266
0.0089558344 -0.27466983 0.84496641 0.044763442 0.015791556 0.99887282 0.07013806
-0.10394785 -0.19217847 0.7596702 -0.60727304 0.010202366 0.79442775 0.001598186
0.0010201379 -0.31421086 0.84444618 -0.28274295 0.033976138 0.95859379 0.048939928
-0.15399238 -0.13723925 0.71328515 -0.65444022 0.70754397 0.26662615 0.093381293
-0.11989681 -0.32825166 0.74720925 -0.66959167 -0.0027719811 0.7427243 0.0026437966
-0.12748165 -0.31621948 0.74075621 -0.70218849 0.00057970802 0.71199095 0.005168214
-0.014859118 -0.13666271 0.82934654 -0.38303754 0.76616949 0.51601017 0.10000981
-0.054956488 -0.21806638 0.79961687 -0.65433705 0.019869933 0.75594193 0.004847113
-0.092265457 -0.18507163 0.76870435 -0.59806097 0.035359439 0.80067027 0.0045727203
-0.095430069 -0.28232649 0.76429868 -0.63749015 0.017587535 0.77025777 0.0029421321
-0.058038615 -0.38016638 0.79653752 -0.63192999 0.0066546793 0.77499688 0.0039404603
-0.060154315 -0.38011852 0.79410756 -0.63192999 0.0066546793 0.77499688 0.0039404603
-0.062898047 -0.3467136 0.79777467 -0.64487237 -0.0011008717 0.76428944 0.0028274735
-0.060752884 -0.25223845 0.80322784 -0.67338896 0.05397588 0.7373153 0.00535875
-0.085138626 -0.40209749 0.78029269 -0.65241581 -0.017013403 0.75767022 0.0045274035
-0.096517451 -0.37682158 0.76797402 -0.66937292 -0.0025779824 0.74292213 0.0013874299
-0.079606339 -0.24671836 0.77805567 -0.65815014 0.0091660833 0.75283086 0.0066482802
-0.076251529 -0.24723829 0.77920926 -0.65815014 0.0091660833 0.75283086 0.0066482802
-0.096324921 -0.27199355 0.76849693 -0.64117956 -0.0042631873 0.76737899 0.0035008416
-0.15332562 -0.21107356 0.71536839 -0.97999811 -0.12418245 0.15550703 0.074249893
-0.13222045 -0.35661212 0.73446256 -0.72225499 -0.019600291 0.69134909 0.0010447004
-0.080385029 -0.20315567 0.7743035 -0.62471664 0.0015700455 0.78084999 0.0028927196
-0.013344008 -0.26850227 0.82295173 -0.41896635 0.036835771 0.90725434 0.016718062
-0.16100544 -0.21936716 0.7100817 -0.99207884 -0.10262746 0.072436661 0.089216702
-0.14864661 -0.23932709 0.72027439 -0.90820163 -0.046113607 0.41598475 0.075661585
-0.13621518 -0.31217968 0.73118848 -0.78975821 -0.041717935 0.61199808 0.014500076
-0.11816554 -0.38824493 0.74742031 -0.70287478 -0.03182948 0.71060121 0.0012646958
-0.037411552 -0.30666146 0.81855875 -0.60975581 0.0085832113 0.79254282 0.0037568125
-0.062120844 -0.33383656 0.79649603 -0.66055095 0.0022020594 0.75077802 0.0025384808
-0.059739277 -0.32237473 0.79580051 -0.66136712 0.014203035 0.74992788 0.0026189683
0.01335167 -0.30401316 0.84835553 0.089553893 -0.025696589 0.99565041 0.10367147
-0.07599736 -0.17960116 0.78239596 -0.60379583 0.060947597 0.79480565 0.004818337
-0.070539065 -0.24412584 0.77694464 -0.65771365 0.022148225 0.75294238 0.0063968962
-0.12505205 -0.13290572 0.7137391 -0.34128785 0.90421146 0.25675699 0.055189718
-0.10051737 -0.13423325 0.71074456 -0.11932354 0.98721427 0.10568759 0.017416608
-0.10936786 -0.33393684 0.75585026 -0.6613493 0.0042296485 0.75006622 0.002360574
-0.057895627 -0.19397643 0.79949999 -0.6371429 0.04270288 0.76956183 0.0049415482
-0.055630226 -0.15690726 0.79425722 -0.5262813 0.37787896 0.7617318 0.069739267
-0.036905322 -0.19743392 0.81530762 -0.63089353 0.021200176 0.77557969 0.0053385408
-0.014078962 -0.15684785 0.83530051 -0.46605438 0.28545952 0.83744019 0.07537543
-0.083999299 -0.32017928 0.77687466 -0.64977235 0.063304789 0.75748831 0.0023077498
-0.057238527 -0.28699809 0.79583263 -0.68124753 -0.009242666 0.73199493 0.0033122466
-0.084831201 -0.37985361 0.77941775 -0.65388328 -0.010372995 0.75652432 0.0030338517
-0.020994877 -0.37579831 0.83201599 -0.52920514 0.011763854 0.84841233 0.0099585727
-0.04928178 -0.30029157 0.8109535 -0.6385209 0.0010832216 0.76960367 0.0048802304
-0.027991258 -0.34063461 0.825881 -0.59552121 -0.0063969251 0.80331409 0.0021026754
-0.0052855215 -0.35476351 0.8411389 -0.34627286 -0.048282649 0.93689048 0.045453161
-0.087130062 -0.27678618 0.77318949 -0.67239583 -0.0030463566 0.74018544 0.0049884734
-0.12419274 -0.22456093 0.74553257 -0.67499453 -0.0099362992 0.73775589 0.0028764622
-0.078172259 -0.31384355 0.78425467 -0.66322088 0.037659537 0.74747568 0.0027381617
-0.067888439 -0.22369018 0.78431761 -0.65305305 0.028721567 0.75676733 0.0039810324
-0.025436571 -0.12931719 0.68048632 -0.035808709 0.99931979 0.0088114562 0.00045610007
-0.030777179 -0.13007359 0.71182531 -0.042310447 0.9988237 0.023684485 0.00045510338
-0.058685143 -0.14398329 0.78983283 -0.50652015 0.54707378 0.66644412 0.10117444
-0.12672997 -0.26792294 0.74016881 -0.67136782 -0.008388455 0.74107683 0.0032964302
-0.10804745 -0.40762687 0.75657839 -0.69347411 -0.037673675 0.71949589 0.0010247837
-0.13152866 -0.42057535 0.72961932 -0.76270765 -0.053526487 0.64452463 0.0063540242
-0.1458156 -0.15010579 0.72656626 -0.6033895 0.66819352 0.43524539 0.093922004
-0.11421692 -0.36310309 0.75284916 -0.69023412 -0.0079799034 0.72354209 0.00078173145
-0.041430905 -0.12966727 0.61301595 -0.18176332 0.97205758 -0.14854652 0.061146114
-0.099595927 -0.19773285 0.76074195 -0.59536338 0.0040332754 0.80344647 0.0015994071
-0.098295428 -0.13110402 0.68291152 -0.24382879 0.95646012 -0.16041058 0.062518246
-0.11183716 -0.33241457 0.75432909 -0.66154194 0.005776098 0.74988592 0.0023659791
-0.13896026 -0.21762261 0.72814256 -0.79814434 0.11104403 0.59214425 0.043913398
0.0026894996 -0.13097142 0.80206978 -0.08011318 0.98864007 0.12717158 0.036843784
-0.034064252 -0.13637125 0.81951952 -0.45016682 0.67202574 0.58798915 0.09415514
0.00074993056 -0.13061038 0.78598422 -0.093359537 0.99376088 0.061019268 0.0067511355
0.019997928 -0.22965841 0.83992642 0.023656962 -0.05209659 0.99836183 0.058762848
-0.067057543 -0.18394907 0.79060429 -0.63824189 0.039985761 0.7687968 0.0045480779
-0.04926056 -0.14893979 0.7961058 -0.56753969 0.4748317 0.67263186 0.07812617
-0.042817302 -0.22432683 0.81149638 -0.62391174 0.029158458 0.78095073 0.0052859364
-0.032211322 -0.20481388 0.8179003 -0.61219895 0.0057516061 0.79068279 0.0047647487
-0.039555691 -0.356242 0.81249607 -0.63355869 -0.0088752927 0.77364367 0.0027423992
0.0118481 -0.29950395 0.8466469 -0.0014338662 0.05625692 0.99841529 0.11493716
0.018699721 -0.26904109 0.84239405 0.37385154 -0.0072737932 0.92746001 0.051006868
-0.088307112 -0.14285277 0.76895595 -0.52823311 0.57749963 0.62246597 0.080811575
-0.060112495 -0.15838069 0.78776646 -0.55104464 0.36821052 0.74884635 0.072873294
-0.067153715 -0.24832466 0.7891379 -0.68034029 0.055662047 0.73077965 0.0061574965
-0.017970385 -0.14769149 0.81782115 -0.4985005 0.59902382 0.62663198 0.099134468
-0.13213667 -0.14305535 0.73483348 -0.42284104 0.70954657 0.56369239 0.060682114
-0.070178203 -0.13826491 0.78720886 -0.5147711 0.50269622 0.69448346 0.09334781
-0.08868327 -0.39807969 0.77498037 -0.65444279 -0.016688604 0.75592732 0.0039903265
-0.12710582 -0.33595601 0.7387442 -0.71023136 -0.01253215 0.70385677 0.003709517
-0.093970425 -0.32372159 0.76938778 -0.64302468 0.056589156 0.76375186 0.0018661965
-0.1407906 -0.15416491 0.73152888 -0.56835783 0.55708021 0.60550052 0.089482799
-0.14845239 -0.13496509 0.69807947 -0.63874745 0.75888741 -0.12685244 0.11767055
-0.12678427 -0.39858815 0.73964018 -0.71878123 -0.037600987 0.69421881 0.0014973748
-0.03210976 -0.12847254 0.57273436 -0.3949672 0.86393702 -0.31243199 0.086259127
-0.018887527 -0.18983632 0.82328755 -0.52143675 0.042758204 0.85221797 0.015145269
0.010389332 -0.14653029 0.85162598 -0.11151446 0.36759216 0.92327708 0.081380039
0.011496633 -0.36650756 0.84648997 -0.099507935 -0.036126722 0.99438071 0.064110965
-0.055070691 -0.35468581 0.80397624 -0.63537145 -0.0017172975 0.7722047 0.0030203664
-0.06294392 -0.26532844 0.79708374 -0.68156028 0.036204904 0.73086578 0.0044052298
-0.020805536 -0.35092628 0.83161938 -0.53556895 -0.034198746 0.8437987 0.0065337108
-0.059523515 -0.22071506 0.79387003 -0.64840829 0.028360691 0.7607643 0.0038877821
-0.02361948 -0.32735854 0.82738322 -0.58910131 0.004234476 0.80804807 0.002607255
-0.090088636 -0.16740666 0.76972806 -0.64630377 0.20114358 0.73609281 0.034337394
-0.0029513873 -0.40069053 0.8391791 -0.29473785 -0.026429987 0.95521259 0.037229683
-0.13467951 -0.33776742 0.73143798 -0.80002773 -0.002138373 0.59995919 0.016743865
-0.10264339 -0.14374816 0.75989068 -0.56121826 0.53544039 0.63113999 0.078174785
0.048507702 -0.12757157 0.73111141 -0.024249356 0.99902368 0.036929153 0.0019149091
-0.15835564 -0.42114329 0.69851375 -0.99258786 0.096456259 0.07392858 0.10985208
-0.11155421 -0.38834247 0.75511014 -0.69529361 -0.030762933 0.71806705 0.00087278959
0.01606006 -0.19370486 0.84206879 -0.024808964 0.026045904 0.99935281 0.078257218
0.01455973 -0.22423379 0.84253901 -0.21081454 -0.039990377 0.9767077 0.034095198
-0.038087137 -0.18463886 0.8178373 -0.64718872 0.037237111 0.76141983 0.0071144979
-0.025239356 -0.22121577 0.82447737 -0.57186109 -0.034731407 0.81961489 0.0092833685
-0.088059343 -0.4114041 0.7736519 -0.65444189 -0.017411996 0.75591177 0.0048843217
-0.019963264 -0.31205213 0.83067805 -0.52916992 0.055689063 0.84668642 0.0040704748
-0.029605964 -0.38943684 0.82243013 -0.60118175 0.0016518552 0.79911059 0.0046910136
-0.085427053 -0.31042823 0.77543825 -0.65204501 0.031753197 0.75751501 0.0025753269
-0.064216673 -0.25013903 0.79329473 -0.67591262 0.052777782 0.7350896 0.0057240073
-0.058387641 -0.13152024 0.61074042 -0.42460871 0.84241408 -0.33173183 0.092174701
-0.11877876 -0.26098663 0.74609846 -0.65480775 -0.0023691489 0.75579172 0.0031218391
-0.096360341 -0.13256259 0.64778316 -0.45027408 0.84722441 -0.28189349 0.082900688
-0.084796987 -0.13287173 0.73944187 -0.21646002 0.93844986 0.26917821 0.06412673
-0.086826518 -0.1648183 0.77257144 -0.63771087 0.20409589 0.7427448 0.033506375
-9.4591429e-05 -0.42366603 0.84423357 0.090759829 0.015403024 0.99575371 0.051914733
-0.060048178 -0.12959771 0.60422343 -0.48429817 0.78081292 -0.39469796 0.083700053
0.054395236 -0.12836361 0.66512859 0.028233919 0.99856997 -0.045397397 0.0026570642
-0.11329763 -0.15991355 0.75410557 -0.5618794 0.34241015 0.75302517 0.046900842
-0.14903833 -0.39428034 0.71106321 -0.95710069 0.055474784 0.28439569 0.065825641
-0.13590299 -0.29457849 0.7305215 -0.77344924 -0.042265829 0.6324476 0.012198986
-0.13870969 -0.19996223 0.72896522 -0.80748117 -0.054072473 0.58740991 0.034653302
-0.10915222 -0.42576101 0.75442171 -0.69287205 -0.052391361 0.71915478 0.00097595208
-0.1489547 -0.27186081 0.72417194 -0.80353135 0.007717594 0.59521252 0.041437194
-0.038608763 -0.40105128 0.54113626 -0.52412915 -0.061167233 -0.84943932 0.04421901
-0.16414946 -0.44346574 0.69362229 -0.90383196 0.25499123 -0.34360912 0.046792887
-0.16101784 -0.24562353 0.71028638 -0.99205202 0.006284642 0.12567091 0.07945884
-0.13321644 -0.13202259 0.68229753 -0.43426549 0.84110874 -0.32241204 0.075615905
-0.1443933 -0.23515704 0.7158981 -0.93837452 -0.058470935 0.34063828 0.098862223
-0.15566519 -0.42105031 0.69991165 -0.99258786 0.096456259 0.07392858 0.10985208
0.032393504 -0.13093872 0.82965159 0.38905334 0.78346896 0.48457605 0.10210374
-0.08002115 -0.16442767 0.77764809 -0.58214182 0.24182156 0.77629447 0.044993538
0.01420766 -0.24164 0.84322244 -0.060244478 -0.021917984 0.99794298 0.070743553
0.010141156 -0.32881001 0.8505044 -0.16984716 -0.028820386 0.98504889 0.057807762
-0.030125586 -0.21211238 0.81992382 -0.60376066 -0.010531773 0.79709607 0.0056884186
-0.08705803 -0.2625747 0.77471459 -0.67153376 -0.019607907 0.74071449 0.00562301
-0.14613734 -0.16727504 0.73165596 -0.76708376 0.077970549 0.63679117 0.056838822
-0.0044782306 -0.1813798 0.83495981 -0.35965171 0.027204927 0.93268996 0.045815032
-0.010985817 -0.22416703 0.83545476 -0.44801107 -0.026185632 0.89364445 0.024548631
-0.15491162 -0.36111322 0.71149457 -0.964252 -0.085361712 0.25086144 0.051564466
-0.0060537951 -0.32731074 0.84162933 -0.38468224 -0.0085068569 0.92300987 0.03311016
-0.024532195 -0.18512629 0.82284945 -0.57679564 0.023263142 0.81655717 0.0060525318
-0.073668398 -0.12942997 0.631594 -0.33788007 0.91758698 -0.20945446 0.071176529
-0.050327171 -0.21994777 0.80320209 -0.63493431 0.021893017 0.7722559 0.0055975928
-0.15289882 -0.13514064 0.71608031 -0.62059695 0.72524643 0.29812241 0.094149128
-0.081758276 -0.13026467 0.66212946 -0.24317762 0.9599995 -0.13880007 0.051694389
-0.15620965 -0.37317136 0.70934612 -0.97062081 0.018472061 0.23990442 0.054958232
-0.15471338 -0.38507527 0.70586133 -0.97545511 0.034646001 0.2174558 0.058711365
-0.15698606 -0.20580915 0.7067185 -0.98349041 -0.074654683 -0.16484313 0.069124997
-0.03322126 -0.13228677 0.75745267 -0.092960574 0.99271601 0.076637141 0.014975642
0.072609931 -0.13021648 0.76814514 0.3084099 0.87285054 0.37817368 0.074216232
-0.074022271 -0.13217308 0.77561539 -0.45918852 0.73427415 0.49998739 0.097586401
-0.031284414 -0.22612965 0.8216176 -0.58851236 -0.0041277162 0.80847764 0.0060770912
-0.017495554 -0.38409996 0.8318994 -0.51968855 0.01466669 0.85422987 0.011925362
-0.063240744 -0.32620895 0.79354113 -0.66413987 0.016762022 0.74742037 0.002320817
-0.0072141737 -0.22478281 0.8386448 -0.42106158 -0.031779796 0.90647513 0.026527839
0.0098368991 -0.12722439 0.70247447 -0.043355897 0.99899954 0.010966113 0.0009682955
-0.12112113 -0.37608171 0.74096906 -0.71089739 -0.018052777 0.70306408 0.0011914317
-0.15323751 -0.1464189 0.7187143 -0.71765918 0.63025743 0.29621074 0.099742927
-0.048623368 -0.3945601 0.79805517 -0.63269651 0.012728326 0.77429527 0.0034019279
-0.094833963 -0.33939424 0.76799673 -0.6532349 0.028302284 0.75662613 0.0013324256
-0.01459402 -0.14923687 0.82866555 -0.49585074 0.45063841 0.74233222 0.08861874
-0.15169963 -0.29070842 0.71570873 -0.88567811 -0.045853373 0.4620299 0.053452469
-0.14622827 -0.30043033 0.71894085 -0.83748239 -0.096546531 0.53786796 0.035401229
-0.04485178 -0.3808834 0.81258178 -0.62675804 0.0084635522 0.77916801 0.0042980523
-0.1566142 -0.43884084 0.68405527 -0.87904108 0.18998712 -0.43725473 0.025447736
-0.14304407 -0.28729543 0.72449458 -0.81105429 -0.021531012 0.58457452 0.033168025
-0.022573598 -0.22566779 0.8281647 -0.51244295 -0.043506075 0.85761845 0.016024107
-0.11416925 -0.14447866 0.74475867 -0.40374401 0.69066352 0.59997892 0.060080376
-0.13866089 -0.27945897 0.72987932 -0.74148691 -0.018346423 0.67071646 0.0049341228
0.01401221 -0.12850617 0.75076574 -0.053903054 0.99828106 0.023008995 0.0015125676
-0.096297957 -0.13363212 0.69896877 -0.078621469 0.99643332 0.030647229 0.0091993045
-0.15786906 -0.21969414 0.70343256 -0.98232919 -0.14088415 -0.12321145 0.098159775
-0.15692431 -0.34289607 0.70743358 -0.98368859 0.020772034 0.17867607 0.056970723
-0.01612661 -0.12828442 0.69944912 -0.056475751 0.99831754 0.013138345 0.0011245869
-0.13460928 -0.15241349 0.73489982 -0.47861248 0.61605209 0.6256277 0.07468427
0.0045145317 -0.13062668 0.67815489 -0.039264597 0.9990626 -0.018223537 0.0010414775
-0.12624986 -0.28319916 0.74261785 -0.6731869 0.0063765184 0.73944479 0.0029764893
-0.014568592 -0.20976919 0.82840151 -0.45192051 -0.018075664 0.89187509 0.024676999
-0.0011546079 -0.22727321 0.84216392 -0.34728745 -0.031514481 0.93722904 0.030249937
-0.14987363 -0.16736501 0.72782075 -0.81024218 0.08175572 0.58036506 0.054377079
-0.15099736 -0.27187112 0.71900266 -0.83420396 0.045931619 0.54953992 0.051659137
-0.029883772 -0.29900905 0.82388079 -0.57390684 0.045371115 0.81766272 0.0049020359
-0.15480433 -0.33088508 0.70880342 -0.95693851 -0.086997002 0.27694798 0.057930268
-0.14694908 -0.29717797 0.71839106 -0.87089556 -0.043233171 0.4895629 0.051362623
-0.081824273 -0.17100218 0.77635533 -0.60668164 0.10367637 0.78815514 0.010185258
-0.0021756722 -0.26745892 0.836411 -0.1747313 0.037834771 0.98388892 0.044377502
0.0028716964 -0.30320638 0.84434259 -0.30341148 0.09156958 0.94844949 0.063077018
-0.14153311 -0.39118049 0.72331572 -0.83526194 0.0019909162 0.54984856 0.030097116
-0.12716237 -0.23442398 0.73796219 -0.69089228 0.0026425389 0.72295284 0.0023400141
0.071635 -0.12868243 0.77170634 0.39325145 0.82641977 0.40296853 0.074988231
0.060427278 -0.12999877 0.78309858 0.52833813 0.71837014 0.45255196 0.077421159
0.11250274 -0.12893724 0.72023243 0.50011545 0.63713652 0.58646536 0.085125424
0.055047657 -0.20742442 0.79362774 0.76004827 -0.072740056 0.64578295 0.0099808434
0.082321011 -0.42663345 0.77047795 0.76165265 -0.18617377 0.6206646 0.025993329
0.14283465 -0.27524248 0.70216811 0.8728404 0.033012249 0.48688799 0.02192994
0.072205104 -0.1267174 0.76249868 0.21269563 0.92920357 0.30222744 0.064392954
0.11201634 -0.30055541 0.73842078 0.75757182 0.029321611 0.65209293 0.0066857729
0.1330207 -0.14014722 0.70644104 0.74780923 0.3514941 0.56323469 0.070027679
0.14046884 -0.41827467 0.70319057 0.78165156 0.16601615 0.60121495 0.020632902
0.11976857 -0.40400025 0.73138291 0.75094754 -0.039731629 0.65916562 0.0064190496
0.14870468 -0.34360471 0.69696581 0.94922405 -0.071965098 0.30625927 0.043153986
0.093794718 -0.38872167 0.76258153 0.72718918 -0.1126143 0.6771366 0.0069600027
0.043754909 -0.30148652 0.8142668 0.75165313 0.024692383 0.65909624 0.0074010906
0.081189133 -0.43115172 0.76971126 0.76165265 -0.18617377 0.6206646 0.025993329
0.081439316 -0.42257088 0.76901412 0.71437126 -0.11963861 0.68946379 0.017483441
0.080035232 -0.19518675 0.76772773 0.73751736 0.0025953182 0.67532319 0.010077344
0.12205341 -0.16411225 0.72387439 0.73153049 0.19783981 0.65247411 0.022480357
0.13794406 -0.19360366 0.70691031 0.89231539 0.036421545 0.44994071 0.02074434
0.05973148 -0.29940361 0.79671139 0.73765248 -0.0056129447 0.67515731 0.0052029574
0.15164527 -0.37996069 0.68211913 0.95136869 0.18650465 0.2451808 0.051425301
0.052042224 -0.14687546 0.79777783 0.66248029 0.34250715 0.66618973 0.051569253
0.14315556 -0.24499035 0.69348687 0.88146216 0.042721372 0.47031847 0.022906614
0.090544395 -0.18650344 0.75820285 0.76383305 0.061278433 0.64249825 0.005256433
0.024508653 -0.22652209 0.83643287 0.098028891 -0.071391858 0.99261951 0.054180596
0.12084126 -0.32626355 0.72582299 0.79819918 0.04441487 0.6007539 0.005385818
0.063077778 -0.16888116 0.79179877 0.7552281 0.11374152 0.64551795 0.01413154
0.063108504 -0.14700584 0.78835434 0.70572543 0.36879227 0.6049329 0.058349419
0.1457506 -0.19522375 0.6875335 0.95736259 0.0069852509 0.28880462 0.053213377
0.14912915 -0.32906696 0.68658984 0.95338935 -0.061700072 0.29536727 0.045006372
0.083345808 -0.28515786 0.76704538 0.7502898 0.069545284 0.65744102 0.005366913
0.1048205 -0.32825223 0.74784154 0.71290797 0.047873449 0.6996215 0.0047558006
0.049880326 -0.40365911 0.80768126 0.66610658 0.0011752691 0.74585557 0.043966576
0.08062423 -0.15806706 0.76968676 0.78856999 0.23944323 0.56641364 0.046172693
0.039606627 -0.27222338 0.81087989 0.71219981 0.021363137 0.70165163 0.020064792
0.13591363 -0.16779801 0.70772833 0.84339809 0.083886988 0.53070015 0.033415176
0.148886 -0.26043212 0.69019777 0.94750857 0.030154491 0.31830528 0.053836726
0.11550424 -0.2994698 0.73619145 0.76614714 0.028263323 0.64204341 0.0055373898
0.14103511 -0.36101967 0.70588851 0.91026598 0.017831491 0.4136399 0.036165614
0.12440737 -0.40413368 0.72665501 0.75934827 -0.0031790726 0.65067661 0.012317998
0.061384309 -0.13770688 0.78652728 0.62510955 0.54874849 0.55507934 0.075059086
0.085040368 -0.12509929 0.71771944 0.19555001 0.97679669 0.087341361 0.053524125
0.10994406 -0.405397 0.74024278 0.72623461 -0.080740213 0.68268901 0.0059916927
0.04161327 -0.31661972 0.81166172 0.75667536 0.026623692 0.65324861 0.0052221948
0.11482791 -0.2530081 0.7327165 0.75930947 0.019805774 0.6504283 0.0016105664
0.076641515 -0.12589847 0.7334671 0.14614572 0.97941673 0.13922785 0.051427796
0.14890914 -0.36794013 0.68624961 0.9543708 0.096533515 0.28259107 0.059112549
0.0061431364 -0.18925324 0.84472167 -0.21466753 0.019177178 0.97649884 0.073914178
0.15487209 -0.39725137 0.68378574 0.93218899 0.16195302 0.32372043 0.043685835
0.14946736 -0.2966508 0.67896336 0.99804497 0.062034357 -0.0076146708 0.071930856
0.072758295 -0.33993164 0.78077698 0.71884769 0.0090367636 0.69510889 0.0081209969
0.039465323 -0.12782691 0.68679833 -0.010173756 0.99983591 -0.014986174 0.0012578435
0.047155559 -0.43383339 0.8115328 0.64037776 0.028872255 0.76751721 0.065134898
0.038903076 -0.30802315 0.8201946 0.662211 0.0055204947 0.74929714 0.022540495
0.075188935 -0.28594232 0.77937728 0.72811848 0.090892605 0.67939836 0.0051947334
0.13779968 -0.23868243 0.70575929 0.87569296 0.0077516218 0.48280615 0.018145654
0.084773265 -0.18343391 0.76608223 0.75496411 0.024880251 0.655294 0.0082106683
-0.046238787 -0.1274948 0.59743315 -0.33367115 0.90924639 -0.24886611 0.073179796
0.14400551 -0.3187834 0.69381702 0.91397262 -0.034892086 0.40427309 0.027172811
0.0038235406 -0.22406925 0.84318632 -0.31125346 -0.024343081 0.95001507 0.032223504
0.084904373 -0.12541273 0.70916748 0.11049969 0.99327797 0.034477528 0.032316282
0.055640623 -0.18163972 0.79392719 0.76451784 0.043440558 0.6431371 0.0089284023
0.13222164 -0.27710956 0.71651512 0.82501239 0.011079359 0.56500602 0.0090828668
0.10539693 -0.12787288 0.73267907 0.49559861 0.78967321 0.36166051 0.08005102
-0.033404812 -0.1301768 0.6893363 -0.038593255 0.99910444 0.017346963 0.00047047876
0.14631402 -0.19923826 0.68193221 0.98439109 0.070166871 0.16140243 0.070841976
0.14560598 -0.30476925 0.69385695 0.89584744 -0.014980308 0.44410905 0.019622518
0.10107417 -0.30178714 0.7502377 0.74217987 0.032777093 0.66939878 0.0053920113
-0.086183488 -0.1293069 0.65454543 -0.32644364 0.92499101 -0.19448957 0.072778575
0.035140939 -0.28755102 0.8236528 0.61067504 -0.039576653 0.79089177 0.038325429
0.13987878 -0.31141824 0.70398635 0.84952486 -0.029855721 0.526703 0.015608688
0.083482735 -0.25769377 0.76428849 0.72745109 0.023306448 0.68576354 0.0068282671
0.13095038 -0.29991218 0.71387821 0.8233754 -0.034531835 0.56644553 0.01196013
-0.1360905 -0.13895907 0.72552353 -0.4138723 0.825764 0.38317561 0.064282842
0.14640366 -0.33356616 0.67378151 0.99932265 -0.03557175 0.0094266795 0.036102377
0.14759716 -0.35323524 0.69056898 0.95814979 -0.015957355 0.28582209 0.051147103
0.084968671 -0.26734325 0.76826441 0.72100466 0.045737799 0.69141906 0.011136972
0.012844793 -0.26422852 0.84307235 0.26147735 0.026568128 0.96484387 0.051737554
0.013944906 -0.37095433 0.84462303 -0.072059475 -0.0080368966 0.99736798 0.050658591
0.058803439 -0.19810419 0.79303074 0.77170831 -0.0054001906 0.63595372 0.012831578
0.014411483 -0.23879078 0.84309924 -0.1030182 -0.021170542 0.99445415 0.070382692
0.044270813 -0.12770291 0.74079263 0.0001169645 0.99633563 0.085530207 0.010001751
-0.052809656 -0.13605893 0.79340148 -0.45906672 0.72607642 0.5119285 0.093548939
0.15034385 -0.14748453 0.6896643 0.91004139 0.20848863 0.35826963 0.085910618
0.070922889 -0.1267959 0.63661683 0.10496733 0.98484981 -0.13803151 0.015752781
-0.075917229 -0.13255487 0.61730415 -0.51139718 0.73916727 -0.43829736 0.081526957
0.052439097 -0.12792839 0.72532523 -0.019320093 0.99933606 0.030890688 0.0019604119
0.07804282 -0.14527236 0.76849765 0.75020057 0.3676908 0.54954767 0.082347892
0.13529487 -0.14133562 0.70672727 0.77380705 0.31516463 0.54944867 0.074523672
0.015599136 -0.2974973 0.84519482 0.17724431 0.05194252 0.98279518 0.1078494
0.08307296 -0.32646787 0.77713835 0.72407162 -0.015147532 0.68955845 0.0087377019
0.010370315 -0.39998007 0.84532565 -0.21322241 -0.067512296 0.9746682 0.038998261
-0.029127238 -0.12972787 0.69157177 -0.040906649 0.99904966 0.015045138 0.00042515656
-0.084965304 -0.12965816 0.6476894 -0.35484251 0.91583532 -0.1879691 0.074812971
0.079344511 -0.12778266 0.66687137 0.043521423 0.9946261 -0.093940206 0.010557127
0.12424126 -0.18709463 0.71741688 0.83901662 0.016969781 0.543841 0.011550327
-0.015197035 -0.13216633 0.81881261 -0.18501349 0.96286714 0.19661342 0.026192268
0.14415774 -0.19778876 0.68808603 0.95458633 0.054018132 0.29299662 0.050247587
0.15114382 -0.36393815 0.68597543 0.95595223 0.086432971 0.28050786 0.06625551
0.09080831 -0.12707599 0.75141668 0.33364904 0.89662611 0.29110113 0.063198507
0.14818391 -0.13298561 0.6903559 0.77200294 0.4851889 0.41061327 0.13277264
-0.045097925 -0.13191615 0.77765 -0.24915634 0.95047063 0.18581335 0.058763821
0.055483371 -0.12588526 0.69167435 -0.0097302794 0.99981272 -0.016731629 0.0011451232
0.020869756 -0.12806632 0.7954846 0.057684965 0.99591184 0.069512226 0.027187359
0.056608241 -0.34925711 0.80076182 0.77785659 0.014068411 0.62828428 0.0080061704
0.097707123 -0.13065474 0.64545006 0.20321772 0.91037166 -0.36045259 0.055127755
0.1424251 -0.12513417 0.69461918 0.60832006 0.6694985 0.42628464 0.12135138
0.13795409 -0.31566513 0.69883484 0.85883665 -0.030423956 0.51134533 0.021875538
0.14145386 -0.24062172 0.70159298 0.87803984 0.0063338364 0.47854561 0.018765304
0.14553541 -0.25890222 0.69538516 0.87554371 0.039736502 0.48150203 0.022737265
0.033712063 -0.12565349 0.70060277 -0.02247173 0.99972636 -0.0065012742 0.0010968226
0.13200887 -0.126967 0.68393219 0.40218559 0.91271108 0.07214769 0.13697802
0.032713529 -0.12922013 0.59632146 0.19865105 0.87813091 -0.43522829 0.088327676
0.12557203 -0.37296599 0.72786242 0.80565751 0.01199082 0.59226018 0.0071619418
0.069911771 -0.23071221 0.76934969 0.74833095 0.022933427 0.66292894 0.010689505
0.12367638 -0.13867001 0.71688271 0.63408089 0.49208671 0.59648311 0.082378432
0.12819245 -0.15477242 0.71716583 0.72117561 0.21288265 0.6592319 0.039571978
-0.1156574 -0.13134837 0.69654638 -0.18811449 0.97976738 -0.068329357 0.049375229
0.12973943 -0.21702844 0.71629047 0.83021951 0.030359728 0.55660927 0.0067622615
0.065262154 -0.34313077 0.78996217 0.72902769 -0.015554781 0.6843074 0.0077182231
0.14879656 -0.29067656 0.69258869 0.93058383 0.039394211 0.36395299 0.027251709
-0.15778382 -0.13517828 0.71055388 -0.69620013 0.68627274 0.21055897 0.10061826
-0.025270266 -0.22389489 0.52467328 -0.19247177 -0.0096167792 -0.98125541 0.079672195
0.016473601 -0.12708314 0.70276219 -0.036794715 0.99930602 0.0057905 0.0009444427
0.074200839 -0.15916651 0.77664918 0.78622556 0.21255805 0.58023137 0.040873554
0.059850268 -0.29631919 0.80400503 0.73520583 0.020015202 0.67754847 0.006080078
0.061278488 -0.25661254 0.61282182 0.64810318 0.037684686 -0.76061952 0.0047066933
0.025290936 -0.24111962 0.8251074 0.31038633 -0.08318913 0.94696355 0.065412074
0.078525633 -0.20311901 0.76180905 0.73037684 -0.024421046 0.68260759 0.0082041072
0.065885082 -0.35703811 0.60215294 0.68512064 0.0078671686 -0.72838706 0.0024215612
-0.046554007 -0.12946782 0.65570223 -0.019694887 0.99971378 0.013580331 0.00052086945
0.060091622 -0.19265063 0.79419297 0.76478869 -0.0036704084 0.64427072 0.012902649
0.14908807 -0.14991598 0.68737555 0.91592938 0.19009317 0.35346553 0.070184216
0.15431917 -0.38096234 0.67413908 0.97849548 0.17678721 0.10626785 0.050072219
0.061211832 -0.40424478 0.81840235 0.66610658 0.0011752691 0.74585557 0.043966576
0.034174833 -0.35587186 0.82060057 0.56839031 0.066276319 0.82008535 0.059816584
0.039305933 -0.25795537 0.81074142 0.67537606 -0.033527147 0.73671103 0.01751004
0.044472132 -0.15562421 0.79605693 0.62809587 0.3413513 0.69926739 0.064503983
0.031856854 -0.12941393 0.82264769 0.34072381 0.83734959 0.42749608 0.083399057
0.017277945 -0.12976414 0.80906665 0.0191708 0.98511863 0.17080347 0.046206009
0.022247972 -0.18535915 0.57128358 0.6552946 -0.0027969622 -0.75536829 0.0014685938
0.045937281 -0.12616657 0.76035792 0.068505935 0.98151833 0.17868613 0.039522219
0.10497025 -0.16296051 0.73314393 0.70367265 0.25477466 0.66327566 0.032851975
0.040611938 -0.25059932 0.58504081 0.64681226 0.054887109 -0.76067162 0.0029591641
0.14433508 -0.21064001 0.6773597 0.9759391 0.078292705 0.20350224 0.044886164
0.10788659 -0.27398542 0.63963121 0.63279366 -0.011030782 -0.77424186 0.0021124452
0.14600888 -0.17380014 0.67836016 0.99917269 -0.0079617975 0.03988089 0.074179851
0.14278854 -0.19203818 0.6736449 0.98508847 0.090411171 -0.14637771 0.10147974
0.078134343 -0.3009055 0.77074242 0.73813063 0.0031847327 0.67465031 0.0065234806
-0.021322921 -0.13054506 0.74256724 -0.052647583 0.99810076 0.031986453 0.0005233069
-0.0083621452 -0.12998888 0.80823737 -0.17227493 0.96844858 0.18007976 0.025829425
0.0051418664 -0.28150406 0.84438914 -0.141666 0.05607665 0.98832494 0.055318579
0.07952071 -0.12695667 0.65536308 0.062006947 0.98676115 -0.1498584 0.017324366
-0.0062124897 -0.12819459 0.58510542 0.09221293 0.96345741 -0.25148895 0.043862183
0.003607502 -0.18463664 0.55752081 0.40358275 0.052603539 -0.91342974 0.048017744
0.11534526 -0.15319422 0.72606796 0.68241251 0.30656791 0.66357321 0.051443197
0.13893782 -0.35735685 0.66305751 0.99057204 0.016835766 -0.13595401 0.060191207
0.065768212 -0.21993658 0.60716307 0.62342918 0.021573445 -0.78158224 0.0044369996
0.035604078 -0.40891975 0.57808053 0.63503337 -0.018282494 -0.7722683 0.0036608139
0.10947676 -0.23544081 0.63784182 0.61023378 0.0075328648 -0.79218554 0.0028638153
0.13198461 -0.29755548 0.71439236 0.82436526 -0.007149179 0.5660131 0.012520456
0.050122865 -0.37415546 0.58225179 0.67373407 -0.0033127968 -0.73896646 0.0028566108
0.055849753 -0.16293809 0.7964648 0.70357877 0.1737185 0.68905646 0.03034153
0.15273243 -0.31404069 0.67675883 0.99201697 -0.017411893 0.12489655 0.036563694
0.033561919 -0.43412891 0.83010429 0.45621496 0.092477135 0.88505137 0.02027273
0.15149835 -0.2342844 0.68478531 0.96077514 0.05180952 0.27244604 0.024334989
0.046938144 -0.12736821 0.66245705 0.01870136 0.99947119 -0.026600096 0.0024313005
0.044735618 -0.1267413 0.64354706 0.08622884 0.99152863 -0.097136885 0.010993454
0.075099804 -0.1439662 0.61863613 0.54624957 0.54735965 -0.63404161 0.079782024
0.031582151 -0.12797408 0.72872305 -0.03933676 0.99894035 0.023890143 0.0014296841
0.088061191 -0.22650695 0.76396251 0.7110467 0.00059286208 0.70314455 0.006220039
0.096503295 -0.26717299 0.75755584 0.72691315 0.049504559 0.68494278 0.0051736063
0.09396565 -0.18651107 0.75524235 0.75727564 0.058714025 0.65045089 0.0040515219
0.075085029 -0.2399898 0.77310717 0.70572937 0.048797391 0.70679897 0.006743778
0.056284469 -0.12741645 0.67366064 0.012620771 0.99964237 -0.023576926 0.0012900295
0.056102149 -0.13782546 0.60183948 0.57604247 0.47080392 -0.66822046 0.063311838
0.12056245 -0.3685534 0.73512536 0.77935934 0.0030248086 0.62656987 0.0085640233
0.054064985 -0.17995052 0.60434508 0.64372778 0.06138676 -0.76278847 0.0046844687
0.11465883 -0.40752381 0.63487327 0.67309207 0.051744461 -0.7377463 0.012223803
0.14695103 -0.34683999 0.67383868 0.9966554 -0.055132937 0.060320035 0.051889617
0.13459472 -0.37051269 0.69702536 0.90337539 0.10723673 0.41522652 0.046349924
0.087212525 -0.2292472 0.62651181 0.59866136 -0.015769571 -0.80084693 0.0047138561
0.12880792 -0.18318681 0.71605277 0.84330899 0.0057895794 0.53739774 0.012133632
0.095217131 -0.2158066 0.75718749 0.71210301 -0.020274187 0.70178223 0.0051930416
0.13873856 -0.20061818 0.66805887 0.95695043 0.19916306 -0.21113972 0.075271323
0.074240826 -0.21209045 0.77730495 0.73524302 -0.042342436 0.67647976 0.011952169
0.018411299 -0.29776689 0.56440645 0.52048087 0.028431386 -0.85339993 0.0054366556
0.14593238 -0.18463396 0.6861701 0.97193217 0.089821212 0.21743988 0.067715339
0.021729143 -0.39755702 0.56064916 0.52819854 0.012516955 -0.84902865 0.01171962
0.11812413 -0.16926253 0.64195508 0.66287011 0.17462702 -0.72808558 0.012954263
0.15070188 -0.30976161 0.67538351 0.99924934 0.027927665 0.02684973 0.050937891
0.064591356 -0.29205835 0.59902126 0.67370868 0.15388137 -0.72279823 0.0079370318
0.046858791 -0.13344344 0.60136348 0.45144582 0.64619529 -0.61532766 0.082176514
-0.028641706 -0.12717988 0.59870201 -0.14515615 0.97910988 -0.14238518 0.051368449
-0.021395093 -0.4180842 0.54160547 -0.0098040393 -0.06750942 -0.99767047 0.08610931
-0.06503588 -0.13004979 0.7705757 -0.32528019 0.88648731 0.3291401 0.084227763
0.11182431 -0.27347708 0.64404577 0.65445012 -0.035066988 -0.75529158 0.002122933
0.11132659 -0.13081796 0.6549986 0.24965446 0.90120125 -0.35427254 0.039337605
