# .PCD v0.7 - Point Cloud Data file format
VERSION 0.7
FIELDS x y z normal_x normal_y normal_z curvature
SIZE 4 4 4 4 4 4 4
TYPE F F F F F F F
COUNT 1 1 1 1 1 1 1
WIDTH 579
HEIGHT 1
VIEWPOINT 0 0 0 1 0 0 0
POINTS 579
DATA ascii
0.16283759 -0.27231586 0.92430693 0.64266062 0.0085616456 0.76610315 0.001369081
0.16198868 -0.35334376 0.92791551 0.64516515 0.055200662 0.76204652 0.00043180451
0.14970997 -0.50564671 0.93958157 0.6475215 -0.057411566 0.75988144 0.0021469551
0.14125268 -0.41336632 0.94685 0.65902352 0.015729463 0.75195777 0.00043769195
0.12805332 -0.26996681 0.95587099 0.67023575 0.040277291 0.74105459 0.0012305055
0.14516439 -0.27717611 0.9421348 0.67596281 0.01458587 0.73679143 0.0007665818
0.20692386 -0.29803377 0.89111334 0.78844923 0.018533457 0.61482072 0.025229856
0.2197953 -0.35642859 0.87689579 0.87133396 0.067935854 0.48596478 0.030939026
0.056580409 -0.4259291 0.99631637 -0.50763291 -0.0043747248 0.86156231 0.024106232
0.10981172 -0.38095158 0.97644454 0.62817287 0.018865461 0.77784503 0.0027124481
-0.05184992 -0.21839684 0.87321699 -0.44307479 0.86748874 0.22615911 0.031091297
0.12229685 -0.26394975 0.96131068 0.65191311 0.04515041 0.75694829 0.0011288436
0.18653619 -0.45346054 0.91123861 0.65209776 0.015210672 0.75798225 0.00011509001
0.1705053 -0.28245214 0.91772968 0.63503504 0.0040524257 0.77247268 0.0013821961
0.16980058 -0.41778135 0.92513424 0.65323275 0.0055609238 0.7571367 0.00033161903
0.078829668 -0.28049105 1.0011123 0.27235752 0.052363195 0.96077019 0.031565707
-0.01330744 -0.21050707 0.81540781 -0.21218126 0.95425427 -0.21066026 0.039810311
0.21861057 -0.35602582 0.8792901 0.85522062 0.094671384 0.50954384 0.02890143
0.078200519 -0.3265132 1.0008978 0.34796816 -0.036562141 0.93679315 0.026953971
0.12457398 -0.35546932 0.9622075 0.65834665 0.041747503 0.75155628 0.00045210592
0.10229217 -0.25403196 0.97673118 0.5803265 0.26226798 0.77099717 0.015265511
0.010278912 -0.21296866 0.85775274 -0.066373229 0.9975208 0.023382736 0.002025069
0.19657081 -0.24756177 0.89937639 0.68603677 0.14371811 0.71323121 0.016792355
0.22529027 -0.3364591 0.86141622 0.97688764 0.10178205 0.18796553 0.046632364
0.16088499 -0.26603961 0.9255383 0.64376801 0.011782594 0.7651301 0.001157712
0.144036 -0.22162825 0.9389053 0.63352996 0.38116622 0.67331421 0.055362895
0.14299938 -0.45206454 0.94871777 0.67049438 0.013835203 0.74178553 0.00058930187
0.040826246 -0.20907107 0.75654078 -0.35006547 0.86099696 -0.36896941 0.067617886
-0.033649124 -0.21301928 0.81780446 -0.35756129 0.84718496 -0.39297277 0.059178401
0.14982247 -0.2422051 0.93686014 0.67556566 0.1999104 0.70968086 0.036424361
0.16189764 -0.29974368 0.92443019 0.6539166 0.037034214 0.7556597 0.0017934926
0.22207065 -0.49056396 0.88374758 0.95243323 -0.043761671 0.30158886 0.10734177
0.16378085 -0.43570641 0.92997342 0.65235215 0.014506152 0.75777709 0.0002446562
0.15345056 -0.33689696 0.9342798 0.6611405 0.03396054 0.74949318 0.0010669332
0.13203658 -0.45185882 0.95836467 0.67918628 0.032524385 0.7332449 0.00010932331
0.19704738 -0.40794078 0.90101492 0.70600021 -0.0053423019 0.70819145 0.0026537196
0.0929773 -0.21124655 0.79892129 0.022843435 0.99969578 -0.0093065491 0.00079796615
0.082902178 -0.30584568 0.99705273 0.30870008 -0.082773797 0.94755095 0.035208166
0.09598732 -0.43099669 0.98883164 0.36104986 -0.043672826 0.93152326 0.025335357
0.087524094 -0.37816006 0.99641228 0.29850888 -0.075543948 0.95141238 0.047522064
0.10758323 -0.35029417 0.97655576 0.64056271 0.030194122 0.76731205 0.0019710991
0.089161426 -0.36069828 0.99375701 0.38918591 -0.076263726 0.91799676 0.035201259
0.10577614 -0.51518303 0.97552419 0.62944341 -0.23280643 0.7413516 0.0012660633
0.1041048 -0.25258476 0.97444195 0.56317854 0.24713585 0.78851366 0.018370902
0.11671 -0.48446956 0.97425663 0.67211431 -0.034211107 0.73965669 0.0011061825
0.075588964 -0.38883942 1.0014971 0.086902559 0.016760087 0.99607587 0.052801643
0.046102758 -0.21175164 0.93047863 -0.063394144 0.99726045 0.038115259 0.0026599083
0.068910584 -0.21444975 0.98010302 -0.034003142 0.96196407 0.27105141 0.024382727
0.09013018 -0.210841 0.95746839 0.06325601 0.9565624 0.28458208 0.051605523
0.16189027 -0.23538262 0.92676318 0.63640642 0.22848295 0.73673767 0.03407054
0.22555152 -0.44541687 0.86361897 0.95899343 0.041222814 -0.28041434 0.015983269
0.18570338 -0.30801487 0.90788186 0.6161623 0.032337345 0.78695512 0.00059895735
0.080125816 -0.29802397 0.99812514 0.24299753 -0.033673316 0.96944225 0.036550574
0.07739234 -0.24109271 0.99222004 0.31913462 0.40148419 0.85846579 0.026244456
0.19359846 -0.43118641 0.90365195 0.67858285 -0.0049038539 0.73450744 0.00092104246
0.080020949 -0.20967287 0.89452004 0.040861771 0.99677598 0.069051191 0.0013062542
0.024555892 -0.21199191 0.77229089 -0.29440135 0.93397504 -0.20253003 0.048689369
0.044946373 -0.21043552 0.79446334 -0.046305213 0.99891859 -0.0041959193 0.0034265071
0.088245876 -0.28684717 0.99523807 0.42639953 0.040213663 0.90364057 0.033289671
0.16955307 -0.2054296 0.89191639 0.17109758 0.94469929 0.27976561 0.0784126
0.1094913 -0.39401686 0.97658253 0.62048739 0.012644855 0.78411454 0.0029045718
0.14422631 -0.5010609 0.94642842 0.69617373 -0.03303089 0.71711302 0.00060948083
0.093132772 -0.49210691 0.99446821 0.30842859 -0.021061096 0.95101434 0.03228227
0.070217028 -0.26549035 1.0047213 0.041414935 0.16060829 0.98614895 0.053634617
0.11204202 -0.38417059 0.97466624 0.65185547 0.011606165 0.75825435 0.0010299695
0.13871002 -0.2104972 0.85660738 -0.027263246 0.99936545 -0.022920758 0.001033191
0.13180764 -0.21687911 0.95069587 0.48542455 0.41459507 0.76972336 0.047499333
0.18851975 -0.37777409 0.90933567 0.66052085 0.025192466 0.75038487 0.00059399626
0.17484933 -0.45492169 0.92203325 0.65723896 0.019471046 0.75343084 0.00014210341
0.22348183 -0.37009332 0.87053645 0.95570892 0.027237553 0.29305062 0.046324618
0.2296965 -0.51197559 0.8665067 0.97539175 0.025888784 -0.21895342 0.032618824
0.10766422 -0.3368049 0.9760083 0.63337654 0.017129578 0.77365416 0.0022667293
0.17988026 -0.29930156 0.9117499 0.61643034 0.031969991 0.78676021 0.00059301063
0.0094560795 -0.21087623 0.82221401 -0.12812644 0.98841947 -0.081305429 0.012541284
0.1435059 -0.24347875 0.940907 0.63946331 0.1858694 0.74601561 0.03632433
0.14687581 -0.36124802 0.94395614 0.65859973 0.056771968 0.75034881 0.0003303804
0.12441789 -0.2863842 0.96036959 0.66136336 0.039286125 0.74903601 0.0016616415
0.15502402 -0.31435001 0.93277788 0.66550922 0.037280578 0.74545801 0.0010035059
0.09692663 -0.3175247 0.99003226 0.42513508 0.010296132 0.90507138 0.033827927
0.14082825 -0.3717697 0.94962978 0.65996444 0.030579401 0.75067437 0.00063460669
0.094729945 -0.36601916 0.98971999 0.44718865 -0.045936707 0.89325929 0.02511432
0.1829752 -0.42276028 0.91274959 0.6561054 0.0058809626 0.7546463 0.0002765925
0.20015493 -0.21001503 0.8768543 0.44902128 0.85284513 0.26652417 0.078325711
0.17914349 -0.21038617 0.83282763 0.1054747 0.98446041 -0.140402 0.014308355
0.098458372 -0.2100762 0.9630813 0.26931328 0.72245848 0.63680762 0.050143406
0.033038612 -0.21470253 0.97208852 -0.14100911 0.97729015 0.15817867 0.014292885
0.043849543 -0.21173315 0.93432707 -0.11625914 0.9922449 0.043976363 0.0094695427
0.1263666 -0.21181189 0.76054049 0.29857549 0.8247928 -0.48017642 0.065374248
0.13636284 -0.21750356 0.76506203 0.54956764 0.57426989 -0.60678619 0.074131578
0.059249278 -0.21885708 0.98863131 -0.0013015205 0.82614398 0.56345755 0.0772404
0.11589832 -0.2124829 0.77552819 0.065447249 0.98855895 -0.13589618 0.024027927
0.12486693 -0.21248236 0.77561736 0.13264689 0.98617232 -0.099342175 0.01658763
0.21319635 -0.21167949 0.85286826 0.6292181 0.76197463 -0.15322942 0.091784775
0.049827255 -0.21308754 0.73823893 -0.54077739 0.63733578 -0.54896539 0.069251589
0.073437214 -0.21373625 0.71973294 -0.49097425 0.67102087 -0.55558562 0.10205781
0.092508428 -0.21252738 0.76809669 0.093464762 0.99145025 -0.091054 0.012587766
0.076495223 -0.21163759 0.70051974 -0.75947899 0.37021157 -0.53491598 0.078651838
0.048091866 -0.21023016 0.74517447 -0.50309998 0.70258397 -0.50325561 0.065208651
0.057199851 -0.21217324 0.73366648 -0.48763722 0.71282488 -0.50407404 0.080697201
0.076333299 -0.21589848 0.70939094 -0.72335273 0.36970586 -0.58316243 0.074266575
0.075868927 -0.21968073 0.71239519 -0.64457643 0.4930084 -0.5843491 0.089559965
0.21519724 -0.21693186 0.84747738 0.71545351 0.64730376 -0.26291448 0.098269545
0.12921652 -0.21957439 0.74785674 0.36154142 0.62349081 -0.69321501 0.09288609
0.21932475 -0.27316245 0.84278917 0.94100374 -0.097437359 -0.32406488 0.068365678
0.21114835 -0.21266764 0.84063625 0.42437461 0.87653762 -0.22712956 0.065387063
0.20134698 -0.28727788 0.82536614 0.78260165 0.0053098947 -0.62250024 0.010577321
0.083478764 -0.29091978 0.70780504 -0.26394314 0.0033877732 -0.96453232 0.039161928
0.18460581 -0.29752648 0.80955446 0.67756236 0.026682884 -0.73498112 0.00037077162
0.0538451 -0.21201874 0.93663698 -0.061796274 0.99705279 0.045463059 0.002347654
0.1667999 -0.2086966 0.83348024 0.088881247 0.98401481 -0.15432122 0.019627936
0.075958639 -0.21209979 0.70807743 -0.72644109 0.40918076 -0.55213624 0.076875299
0.167757 -0.21131387 0.81362993 0.13203049 0.97328222 -0.18785533 0.022906933
0.16532838 -0.21366963 0.80568928 0.20998973 0.94839919 -0.23757806 0.017258776
0.083783768 -0.22797932 0.69900554 -0.39250886 0.14286679 -0.90858454 0.13870454
0.21809901 -0.33422467 0.84160447 0.93379939 -0.02631166 -0.35682827 0.039297968
-0.028635591 -0.21391732 0.88345581 -0.20655186 0.96018159 0.18811615 0.034130745
0.069805458 -0.21046621 0.74545574 -0.13878343 0.95435435 -0.26447481 0.07796254
0.12354033 -0.323428 0.73931479 0.75530714 0.060158178 -0.6526041 0.0019713335
0.2002205 -0.36303788 0.8233248 0.76119101 0.046937495 -0.64682692 0.0046888916
0.22427399 -0.39906585 0.86930627 0.93572688 -0.038130358 0.35065842 0.043850362
0.19565858 -0.40892732 0.90230536 0.70226371 -0.0088242097 0.71186221 0.0025004905
-0.047321241 -0.21351184 0.82872254 -0.41811919 0.87354332 -0.24919538 0.039892189
0.12001856 -0.21259624 0.75171721 0.37362763 0.70007777 -0.60851747 0.07052277
0.20104147 -0.20998952 0.87464917 0.44902128 0.85284513 0.26652417 0.078325711
0.17522936 -0.20962867 0.8466354 0.095707908 0.99193692 -0.083072662 0.010214547
0.18069769 -0.21069853 0.83720529 0.10594596 0.98970926 -0.096182197 0.012141502
0.15565468 -0.20850286 0.873568 0.0048835943 0.99989647 0.013537992 0.0026505589
0.10689243 -0.21029823 0.82383317 -0.0067397417 0.99994373 -0.0081955679 0.00048016256
0.064615317 -0.21299155 0.73021352 -0.55782306 0.65223545 -0.51324677 0.09237653
0.065709613 -0.21035205 0.81119049 0.015342907 0.99981397 0.011686707 0.00050886552
0.017185321 -0.20920458 0.82959181 -0.058253255 0.99813914 -0.018022036 0.0021123693
0.071508467 -0.21077399 0.81964433 0.0039910432 0.99997449 0.0059198532 0.0005426532
0.052570958 -0.20906298 0.80369872 -0.018472102 0.99980271 0.0073049488 0.0015435962
0.061029211 -0.21196732 0.94766784 -0.055558845 0.99284786 0.10567023 0.0087937443
0.032503754 -0.21309268 0.95764655 -0.17390759 0.97440541 0.14244397 0.011677193
0.0503022 -0.21871108 0.98795187 -0.051484246 0.74205309 0.66836119 0.10460155
-0.010395229 -0.2150761 0.9202441 -0.37577 0.83733577 0.39707139 0.056617625
0.061636094 -0.21070489 0.73824412 -0.41096517 0.79885143 -0.43925396 0.072939605
0.032085836 -0.20588842 0.85885656 -0.042358365 0.99908048 0.0066404087 0.0033054298
0.034793388 -0.21279877 0.9582867 -0.17285225 0.9756996 0.13465644 0.011614233
0.041289911 -0.21760604 0.98645711 -0.13171872 0.90351027 0.4078227 0.10209279
0.065592296 -0.21078278 0.85286635 0.010792349 0.99973977 -0.020099308 0.0016391879
0.046964154 -0.205957 0.86595345 -0.021442087 0.99966288 -0.014641597 0.0029385998
0.063365452 -0.209016 0.89385509 -0.0012760019 0.99845839 0.055490468 0.0027923407
0.03289998 -0.31132108 0.97559178 -0.68449593 -0.0024782375 0.72901255 0.0050304686
0.0067405058 -0.33116275 0.94671065 -0.7393989 -0.015646575 0.67308575 0.00032559744
-0.040916305 -0.41035938 0.89574236 -0.75183719 -0.015426693 0.6591683 0.00052165386
0.024621118 -0.38519105 0.96786898 -0.7106337 0.03868622 0.70249784 0.0014922597
0.15622029 -0.2116764 0.80192214 0.14377522 0.9784717 -0.1480598 0.016047215
0.042353578 -0.4601295 0.98725492 -0.60014158 0.023059882 0.79956132 0.014501374
-0.045886137 -0.21253069 0.86719549 -0.36119732 0.91781425 0.16478296 0.027418775
-0.0759179 -0.49735856 0.83908838 -0.9989689 0.044308174 -0.009894182 0.10568134
0.13541424 -0.21065241 0.84023929 -0.0058547924 0.99975091 -0.021536905 0.0012825662
-0.0041872067 -0.32268286 0.93552035 -0.73977512 -0.020215742 0.67255038 0.00016447852
0.031413078 -0.26557243 0.97353387 -0.72767842 0.0059921467 0.68589228 0.0025956563
0.0087505421 -0.27389389 0.94799739 -0.73201442 0.012670276 0.6811713 0.00043612375
0.0076065445 -0.26510504 0.94540429 -0.7262221 0.033686757 0.6866343 0.00082813221
-0.05269713 -0.40157712 0.88226146 -0.78435403 -0.026179487 0.61976081 0.0037866856
-0.078707799 -0.45360404 0.84663063 -0.99715364 0.054834444 -0.051748838 0.067879342
-0.019283712 -0.48795602 0.92389214 -0.75424606 0.094852403 0.64970452 0.001387505
0.0011957497 -0.45341292 0.94170839 -0.7243644 0.060659777 0.6867435 0.00029963971
0.021619141 -0.28998655 0.96245944 -0.73978376 0.01072445 0.67275918 0.00050579087
-0.076906882 -0.32461509 0.84834498 -0.97977662 0.018593397 -0.1992292 0.045268554
0.075326622 -0.21041162 0.80433482 0.021729151 0.99976391 0.00020193463 0.00080637942
0.049186781 -0.4358792 0.9923383 -0.50766742 -0.006726922 0.86152685 0.026567519
-0.075567052 -0.49585837 0.83954012 -0.9984231 0.054864462 0.011887282 0.10398564
-0.038356204 -0.41059032 0.89877754 -0.74565035 -0.013939317 0.66619158 0.00044851299
0.006119532 -0.36307248 0.945925 -0.7410568 0.018308537 0.67119277 0.00045690947
0.066218816 -0.43626991 0.99845135 -0.27228758 -0.017105544 0.96206385 0.045889914
0.03285623 -0.41714084 0.97672677 -0.69862908 0.0083607165 0.71543521 0.0027306471
0.029642304 -0.20936725 0.80942398 -0.036300097 0.99891454 -0.029190645 0.0044056941
0.060115993 -0.21004966 0.77065659 -0.078849018 0.99374491 -0.079081483 0.017078133
0.1643433 -0.20822242 0.83653957 0.076854199 0.99102288 -0.10939401 0.016921831
0.16049661 -0.2121705 0.80483812 0.13398416 0.97686648 -0.16667365 0.017232781
0.052133799 -0.43164259 0.99396193 -0.49052551 0.00711643 0.87139773 0.024419611
0.052095506 -0.26700062 0.99933451 -0.49543694 -0.0054435953 0.86862689 0.024865184
0.050570536 -0.49105844 0.99561775 -0.44217905 -0.06820792 0.89432955 0.048757877
0.021572463 -0.43176621 0.96410233 -0.73067141 -0.0022340198 0.68272573 0.0012178309
0.034313858 -0.29863897 0.9769513 -0.70676142 -0.039676618 0.70633858 0.0042568059
0.06527257 -0.26824236 1.0039173 -0.072605267 0.13585199 0.98806512 0.059557561
0.063139133 -0.26709494 1.0035099 -0.073786423 0.13041343 0.98871022 0.047648471
0.045957174 -0.38217199 0.98808426 -0.57721919 0.054720089 0.81475377 0.022293599
0.050351437 -0.31881443 0.99258631 -0.53376424 0.090322264 0.84079581 0.031159554
-0.057521507 -0.4356558 0.87561589 -0.81057823 -0.01370596 0.58547002 0.0068727997
-0.010389814 -0.21290731 0.90832597 -0.30376872 0.89650071 0.32250729 0.052640051
0.018149529 -0.21360894 0.77774996 -0.34835267 0.89903706 -0.26529732 0.045167282
0.2006723 -0.213044 0.83717227 0.41578141 0.85709852 -0.30415094 0.058009915
0.036745213 -0.41617894 0.98107237 -0.65022391 0.010194712 0.75967419 0.0046315952
0.040275704 -0.38790572 0.98316091 -0.65680701 0.029110048 0.75349665 0.00451286
-0.077607699 -0.36064011 0.84800273 -0.9837153 0.0025180785 0.17971589 0.073503293
-0.022628326 -0.4825184 0.91984481 -0.7679525 0.11164377 0.63070172 0.0014918646
-0.07106366 -0.29004958 0.8677274 -0.91399664 0.15349163 0.37556675 0.052805357
-0.016465774 -0.27995035 0.92289466 -0.71783382 0.026640631 0.69570458 0.00011377814
0.030299131 -0.40725315 0.97437787 -0.70195127 0.0056489604 0.71220267 0.0027115687
-0.021105416 -0.21896413 0.91474313 -0.57349449 0.64608628 0.50366324 0.039891958
-0.034008343 -0.26988152 0.90319467 -0.71218032 0.013698427 0.70186299 0.00042086025
-0.059693404 -0.22723524 0.87432462 -0.44501713 0.86514479 0.2312668 0.034258526
0.068674676 -0.34230971 1.0031666 0.17537713 -0.059127983 0.98272413 0.028753841
0.033163745 -0.37814459 0.97536314 -0.69081497 0.0436204 0.72171468 0.0026757733
-0.077056751 -0.45141822 0.85414451 -0.99998248 0.0029441833 0.0051291427 0.063957684
0.0012013466 -0.30779639 0.94164717 -0.74043959 -0.0083809383 0.67207062 0.00034691257
-0.017104432 -0.45754281 0.92536575 -0.74755025 0.059333824 0.66154993 0.001811947
-0.066742755 -0.44459152 0.86820132 -0.86563271 0.01717966 0.50038463 0.018993912
0.0026496341 -0.40039879 0.94096297 -0.74239463 0.0027627931 0.66995716 0.00078844599
-0.073609404 -0.39210534 0.85734564 -0.90457559 -0.076818988 0.41933507 0.026070077
-0.061425894 -0.32060766 0.87664217 -0.840891 -0.0025143053 0.54119861 0.013457916
-0.018797942 -0.41004962 0.92205787 -0.72546017 0.023144362 0.68787491 0.00062676182
-0.020549342 -0.2135717 0.85215694 -0.10414898 0.9945358 -0.0071827378 0.0050504734
-0.049780682 -0.45167169 0.8825084 -0.7749964 -0.031656031 0.63117236 0.001139758
0.010833804 -0.35302833 0.94958764 -0.7405746 0.0058660521 0.67194849 0.00044855702
0.063046701 -0.47824019 1.0024842 -0.31008908 -0.024231566 0.95039862 0.026117167
-0.076677188 -0.29672745 0.84980011 -0.96325952 -0.14736521 -0.22453187 0.047564831
0.016765364 -0.3101353 0.95777023 -0.73788643 -0.0054802499 0.67490262 0.00035608094
0.035906103 -0.26585066 0.97832102 -0.7265321 -0.0020327603 0.68712956 0.0026432911
0.020327771 -0.30554423 0.96160579 -0.73345035 -0.0018856205 0.67974043 0.00035338168
0.021517908 -0.37758118 0.96369785 -0.71772814 0.043689761 0.69495153 0.0011819415
0.037001997 -0.37814891 0.97925407 -0.67022812 0.039025061 0.74112839 0.0051177829
0.011331158 -0.43815887 0.95175183 -0.74810964 0.02706773 0.66302288 0.00068930152
0.068983562 -0.40368721 1.0010477 -0.14790834 0.05699072 0.98735762 0.051014204
0.020430727 -0.28102565 0.9612574 -0.74282509 0.012360224 0.66937131 0.00064094446
0.025662817 -0.2638967 0.96681958 -0.75749624 0.0070105684 0.65280187 0.00098353683
0.02109682 -0.387254 0.96372736 -0.73032117 0.021903178 0.68275273 0.001131953
0.015988309 -0.38466352 0.95829588 -0.737813 0.02226706 0.67463791 0.00062933634
-0.038648203 -0.28147236 0.89897335 -0.71126199 0.009075718 0.70286852 0.00047858176
-0.027368136 -0.36516204 0.90845978 -0.72689313 0.025007593 0.68629509 0.00035176141
-0.03794888 -0.46743017 0.89578897 -0.78762531 0.0024104896 0.61614978 0.0015480118
-0.007729732 -0.34154215 0.92931074 -0.74450815 -0.0025290926 0.66760862 0.00070413604
-0.074707083 -0.41305184 0.84772855 -0.97652447 -0.025807371 0.21385522 0.062599391
0.0033215364 -0.42672238 0.94193745 -0.73912609 0.0025279666 0.67356241 0.00076356332
-0.042409413 -0.37934539 0.89434236 -0.73594421 0.012379963 0.67692912 0.00074215193
-0.0074633304 -0.24503885 0.9296093 -0.66128492 0.19962505 0.72308511 0.048521113
-0.053979129 -0.38496196 0.88210732 -0.79108912 0.0031620495 0.61169273 0.0062517426
0.062744483 -0.20897187 0.89351827 -0.0012760019 0.99845839 0.055490468 0.0027923407
0.031617921 -0.21602102 0.96825898 -0.31291771 0.91141319 0.26722348 0.073266491
0.00081969792 -0.21725935 0.93168628 -0.39161566 0.85196179 0.34756044 0.075365439
-0.020756779 -0.21812579 0.91398162 -0.57349449 0.64608628 0.50366324 0.039891958
0.042503279 -0.21584389 0.98017049 -0.051062554 0.97689533 0.20752844 0.025187323
0.031000711 -0.21732982 0.96962339 -0.38326573 0.85744095 0.34336928 0.094308674
-0.00043084251 -0.23426433 0.93842608 -0.65410805 0.34744567 0.67188102 0.084640741
-0.052285168 -0.40188435 0.88294613 -0.78415853 -0.02752981 0.61994964 0.0036025015
0.18890058 -0.21390447 0.8997122 0.55967474 0.59981692 0.57182491 0.048550114
0.19591357 -0.2110526 0.88590872 0.52792591 0.76087153 0.37731782 0.064348616
0.13271415 -0.2113449 0.94367504 0.51448536 0.48577058 0.7066341 0.047233045
0.049043119 -0.21483853 0.97716916 -0.055360235 0.97777122 0.20223407 0.02188121
0.047182642 -0.22035129 0.9861033 -0.15831636 0.62702763 0.76273996 0.13456348
0.078394532 -0.21140382 0.96812862 0.081332415 0.95209593 0.29478532 0.058838695
0.051054668 -0.43542549 0.99330211 -0.50766349 -0.0067232903 0.86152917 0.026570581
0.033696163 -0.42073092 0.97818017 -0.6697436 -0.0020898988 0.74258953 0.0050682472
0.0064805262 -0.36513296 0.94668132 -0.73998338 0.018378492 0.67237401 0.00040796419
0.042408582 -0.45927891 0.98728979 -0.60003483 0.022963546 0.79964423 0.013816939
0.054718722 -0.43864837 0.99482042 -0.48653629 0.049391393 0.87226313 0.028726824
0.051299296 -0.31948814 0.99378717 -0.52620977 0.087658092 0.84582466 0.03211391
0.03838481 -0.37818208 0.98094302 -0.67022812 0.039025061 0.74112839 0.0051177829
0.072088987 -0.30699959 0.99970257 -0.31949204 -0.059751764 0.94570315 0.05645797
0.047125533 -0.38098946 0.98891389 -0.54293269 0.067831159 0.83703232 0.031002626
0.040654998 -0.45444906 0.98529816 -0.65736735 0.026336994 0.75310993 0.0069206245
0.040903766 -0.38792148 0.98370385 -0.62767512 0.041642476 0.77736086 0.01072752
0.03108781 -0.46462876 0.97465456 -0.70619577 0.01768432 0.70779568 0.001449696
0.053336859 -0.30270466 0.99473286 -0.52014804 -0.035570234 0.85333514 0.036811087
0.070572868 -0.51599413 1.0014331 -0.065420359 -0.44764653 0.89181429 0.078155316
0.041378703 -0.4310835 0.98612911 -0.63376319 0.0065323496 0.77349961 0.0067697116
0.033757169 -0.37802336 0.97590762 -0.69117874 0.045104802 0.72127491 0.0025198881
0.015869286 -0.49249518 0.96188682 -0.70347983 0.019496871 0.71044773 0.004151504
0.061572354 -0.31387231 0.99963158 -0.35515258 -0.033417586 0.9342109 0.05489701
0.047412798 -0.51712936 0.98007482 -0.52054673 -0.28253329 0.80573314 0.028408188
0.048505466 -0.48770189 0.99432737 -0.47782227 -0.063538529 0.87615567 0.044837814
0.039222226 -0.48979658 0.98084068 -0.66089368 -0.048291329 0.74892426 0.0060709687
0.031729795 -0.35681453 0.97105557 -0.71537191 0.005036524 0.6987257 0.0013701685
0.014783161 -0.51391822 0.96212518 -0.65520531 0.0019644483 0.75544822 0.0074874838
0.073483445 -0.43731666 0.99917942 -0.061879169 -0.050454918 0.99680758 0.055471528
0.054400384 -0.40491885 0.99543417 -0.48458582 0.037401516 0.87394381 0.02567702
0.023628576 -0.41364121 0.96714205 -0.72636753 -0.0024048234 0.68730223 0.0010791358
0.070079669 -0.21130201 0.82267648 0.016480483 0.99936908 -0.031462397 0.00098624115
0.11117451 -0.21128215 0.76297283 0.1555955 0.94522071 -0.28696322 0.041731119
0.022261966 -0.43277362 0.96489877 -0.73067141 -0.0022340198 0.68272573 0.0012178309
0.051900115 -0.49097359 0.99631566 -0.44217905 -0.06820792 0.89432955 0.048757877
0.0026346345 -0.40377799 0.94063133 -0.7424525 -0.0046556289 0.66988254 0.00063461752
0.012126432 -0.38716802 0.95421702 -0.73886687 0.020357434 0.67354387 0.00065221399
-0.0019542421 -0.47820818 0.94186234 -0.72659987 0.075767167 0.68287045 0.00041126966
0.022061406 -0.38111404 0.9646945 -0.71773303 0.043852147 0.69493622 0.0011364953
0.021362914 -0.38916048 0.96409351 -0.72618896 0.021808326 0.68714917 0.0013144144
0.058734752 -0.36939579 0.99560058 -0.3955791 -0.018049911 0.91825449 0.058092799
0.057562094 -0.49937019 0.99955857 -0.23201299 0.00094805437 0.97271216 0.054317869
0.061034471 -0.30607373 0.99936134 -0.34957093 -0.059294648 0.93503171 0.056947589
0.016275384 -0.38538742 0.95858008 -0.73768961 0.022120135 0.67477757 0.00067287526
-0.01141402 -0.38524252 0.92829341 -0.73852277 0.021500494 0.6738857 0.00044880845
-0.004369576 -0.34705776 0.93316668 -0.74555033 0.0039293608 0.66643775 0.00062590471
0.020667436 -0.45822734 0.96336603 -0.72693598 0.028460359 0.68611521 0.00136971
0.010480612 -0.35272604 0.94921041 -0.7405746 0.0058660521 0.67194849 0.00044855702
-0.037063554 -0.48421726 0.89986759 -0.79855764 0.052931622 0.59958643 0.0012615098
0.027567405 -0.35329086 0.96727717 -0.72512263 0.0039443616 0.68860841 0.00092934771
0.015679728 -0.40515339 0.95761544 -0.73736185 0.0076349773 0.67545485 0.00068252615
-0.0013091004 -0.42013398 0.93685204 -0.73366517 -0.00045742042 0.67951095 0.00094302214
0.18856217 -0.21001588 0.84820962 0.17035145 0.98200738 -0.081498042 0.019868815
0.047870137 -0.21172139 0.93059701 -0.063414946 0.99730104 0.03700288 0.0027151669
0.032703735 -0.31075913 0.9753899 -0.68449593 -0.0024782375 0.72901255 0.0050304686
-0.058405604 -0.47263986 0.87155068 -0.83024579 -0.076034591 0.5521872 0.0054002698
-0.0080161635 -0.34443659 0.92897576 -0.7444039 -0.0024375371 0.66772509 0.00076051889
-0.059977025 -0.37936127 0.87544197 -0.80571777 -0.0070424555 0.5922578 0.00649594
-0.054900706 -0.38616115 0.88100743 -0.80051816 -0.00024044212 0.59930843 0.005733693
-0.058181841 -0.49746162 0.87077713 -0.84612888 -0.020659449 0.53257775 0.0066783968
-0.04249284 -0.21471821 0.87508637 -0.32011721 0.92061925 0.22357343 0.015107652
-0.025640387 -0.35337916 0.90947312 -0.71883875 -0.00050488533 0.69517654 0.00085553509
-0.077716373 -0.52243477 0.82182962 -0.72188431 0.2205922 -0.65591329 0.01463911
-0.050165161 -0.42183688 0.88453037 -0.78382039 -0.028383994 0.62033856 0.0022349199
-0.075089723 -0.47125107 0.84888905 -0.99671859 0.074027464 0.032741044 0.073166616
-0.073077567 -0.22081615 0.85276186 -0.58502573 0.80889803 -0.058556385 0.077672727
-0.07766708 -0.45305604 0.85213292 -0.99983293 0.01063678 -0.014860259 0.064089514
-0.076287031 -0.37230131 0.84149235 -0.99976569 0.0087002795 -0.019820418 0.093623549
-0.075549722 -0.41657746 0.84512061 -0.99795705 -0.029711969 0.056559477 0.07680469
-0.07677599 -0.22691365 0.85688168 -0.62610865 0.77877396 0.038717974 0.085701466
0.063819982 -0.21003228 0.764642 -0.047590788 0.99493545 -0.088535294 0.016217705
-0.06657514 -0.4715431 0.86346185 -0.88950121 -0.065428764 0.45222414 0.041031223
-0.069577634 -0.40583345 0.86043036 -0.88294709 -0.035502404 0.4681282 0.026137507
-0.013835117 -0.49870774 0.932688 -0.73990995 0.069973253 0.66905683 0.00099127134
0.094856918 -0.21058019 0.95742279 0.051545925 0.95501614 0.29204005 0.050113689
-0.02361878 -0.21788679 0.91095304 -0.5490725 0.6588878 0.51418501 0.038136031
-0.016307795 -0.21495932 0.91380423 -0.40346846 0.81391424 0.41803923 0.051419184
-0.0047274632 -0.22195967 0.93112117 -0.55658895 0.5267663 0.64243758 0.080025502
0.0040022382 -0.43290862 0.94346726 -0.73853463 0.013474222 0.67408085 0.00091744924
-0.078571491 -0.43980718 0.8476373 -0.99656165 -0.06600187 -0.050084792 0.058142066
0.12428827 -0.20461337 0.92845529 0.19887662 0.9762997 0.085363597 0.06654042
0.058503658 -0.39346525 0.99703538 -0.39145762 0.07017085 0.91751677 0.035860796
0.0049031675 -0.29270953 0.94498283 -0.73239899 0.012138595 0.68076754 6.0844639e-05
0.0019557211 -0.30904955 0.94245124 -0.74043959 -0.0083809383 0.67207062 0.00034691257
-0.089098983 -0.51891136 0.83596313 -0.65061456 0.34048751 -0.67879969 0.012277691
-0.010710597 -0.24568072 0.92643732 -0.68359321 0.17591161 0.70834696 0.041199002
-0.021004073 -0.34212923 0.91493309 -0.72383833 -0.011943303 0.68986619 0.00075179659
-0.0410721 -0.41119713 0.89553875 -0.75223088 -0.015290455 0.65872216 0.00075027434
0.026542297 -0.21998559 0.96753025 -0.39539027 0.8466984 0.35604542 0.089091763
0.0098406812 -0.50684869 0.95904315 -0.67629617 0.01322274 0.73651117 0.005946598
-0.015310799 -0.2327309 0.92218256 -0.6970703 0.25013995 0.67195463 0.051600054
-0.075666264 -0.2847136 0.85464287 -0.97776294 -0.14142607 -0.15484992 0.02651724
-0.080768496 -0.23942809 0.85116988 -0.93692744 0.2926352 -0.19113256 0.081212871
0.051099807 -0.2659148 0.99856061 -0.51049131 -0.0024611917 0.85987943 0.023531076
0.044179637 -0.22963496 0.99036807 -0.2607682 0.44865814 0.85481334 0.098971121
0.034379553 -0.21204183 0.91534364 -0.10260718 0.99189776 0.074904323 0.014434881
0.031457759 -0.21283989 0.91492265 -0.098263279 0.99214464 0.077416569 0.013988944
-0.056201432 -0.22169206 0.82514352 -0.51744556 0.77040881 -0.37245175 0.055533152
-0.078090727 -0.26868913 0.8396849 -0.93523705 0.0065650786 -0.35396117 0.016748082
-0.07698147 -0.28689075 0.84341681 -0.96419984 -0.14164153 -0.2241791 0.031242143
-0.043936461 -0.21605684 0.87745059 -0.32011721 0.92061925 0.22357343 0.015107652
-0.01758947 -0.43207949 0.77994782 -0.65456432 0.057142552 -0.75384367 0.00095864065
-0.019646354 -0.23420054 0.79185128 -0.51321733 0.41678503 -0.75026554 0.041944027
-0.037943333 -0.21949893 0.80916023 -0.41705093 0.71642154 -0.55929309 0.056208801
-0.039708216 -0.23056778 0.80478168 -0.49711984 0.51249295 -0.70015931 0.027635926
-0.044487718 -0.24047591 0.80771476 -0.61710405 0.27219111 -0.73830521 0.021107603
-0.034288056 -0.2142221 0.81523257 -0.37059346 0.81923437 -0.4376249 0.068803653
-0.051119201 -0.30903023 0.81481147 -0.70340532 -0.028282221 -0.71022606 0.013018602
-0.05981772 -0.52037358 0.80760729 -0.7315647 0.18533054 -0.65609878 0.0098094558
-0.053234044 -0.34582034 0.81461865 -0.72986913 0.014811457 -0.68342644 0.0088226506
-0.054414358 -0.32323325 0.8175872 -0.70406097 -0.0045985924 -0.71012461 0.0093065407
-0.020771757 -0.22748134 0.7934981 -0.50382119 0.47525004 -0.72131926 0.034783281
-0.056288298 -0.30060533 0.81664944 -0.74481583 -0.020444512 -0.66695684 0.020392278
0.0086202761 -0.21311216 0.85695094 -0.062159073 0.99779296 0.023358239 0.0019016167
-0.06268888 -0.45086733 0.81702518 -0.87468839 -0.052430458 -0.48184153 0.021292148
-0.05844181 -0.23170285 0.82216972 -0.67643708 0.45329788 -0.58047736 0.040717941
0.012724354 -0.22109634 0.76271701 -0.54914647 0.60826397 -0.57310826 0.066808216
0.081539832 -0.24402568 0.70623964 -0.1131933 0.091127463 -0.98938519 0.12007195
0.071289174 -0.28042537 0.70768887 -0.39347461 0.033917326 -0.91870958 0.02595821
0.075055026 -0.31050915 0.70945978 -0.29078346 0.098452277 -0.95171005 0.03242531
0.066814512 -0.25628358 0.71065581 -0.49753883 0.026538396 -0.86703563 0.030028308
0.066904686 -0.27188531 0.71119159 -0.45046574 -0.03692019 -0.89202994 0.025769316
0.074521177 -0.3583796 0.70318025 0.11451755 0.18783025 -0.97550267 0.083233356
0.069848284 -0.32567227 0.70786893 -0.3070623 0.087208614 -0.94768536 0.030213904
0.072792031 -0.21265046 0.725613 -0.36511877 0.79887795 -0.4779982 0.10796028
0.058947586 -0.2761451 0.71513313 -0.43928117 0.020518543 -0.89811528 0.026786122
0.065567203 -0.34521249 0.70795107 -0.42841202 0.050559737 -0.90216786 0.032156091
0.076406904 -0.42327002 0.70342988 -0.42353877 0.060305633 -0.90386838 0.0095038973
0.070818096 -0.46107548 0.7019639 -0.39414105 0.0409283 -0.91813815 0.018584354
0.084497884 -0.50481683 0.70251894 0.032879628 -0.12355077 -0.99179339 0.06600745
0.055541806 -0.25925916 0.71773434 -0.52963912 0.046089042 -0.84697002 0.017025413
0.054789662 -0.2392624 0.72366452 -0.64449769 0.30402792 -0.70156235 0.047950968
0.058685251 -0.35793552 0.71209019 -0.52545369 -0.031193674 -0.85025018 0.0091992747
0.064133354 -0.47243294 0.70453519 -0.43870562 0.018466491 -0.89844108 0.01912374
0.060957532 -0.48190188 0.70585769 -0.45497945 -0.01748791 -0.89033026 0.017092312
0.05297539 -0.32363459 0.72021478 -0.5696401 0.046089616 -0.82060093 0.010305585
0.053730436 -0.46836129 0.71049064 -0.48923177 0.033164393 -0.87152308 0.019727476
0.054892529 -0.40636539 0.71813411 -0.53329939 0.063168183 -0.84356481 0.0057409653
0.12643595 -0.21272773 0.76369488 0.22739948 0.90450668 -0.36077285 0.061068527
0.048246659 -0.31644377 0.72436684 -0.61349583 0.034200102 -0.78895706 0.0035313652
0.041706353 -0.24249358 0.73228925 -0.63448489 0.29776263 -0.71327859 0.037413213
0.04390876 -0.2756829 0.7294153 -0.63933587 0.024967125 -0.76852214 0.0030421978
0.039371736 -0.25090921 0.73406959 -0.63985735 0.16248585 -0.75111967 0.010995073
0.048596457 -0.49129552 0.71304816 -0.47940186 -0.019690393 -0.87737453 0.020377696
0.036381908 -0.2349427 0.73714972 -0.62055725 0.3875972 -0.68167228 0.048465449
0.03872554 -0.43604329 0.72658932 -0.60029507 0.073367551 -0.79640633 0.0046758484
0.033058271 -0.25545231 0.7387948 -0.65174973 0.11827859 -0.74915445 0.0056182658
0.067369439 -0.22282025 0.71721762 -0.64175075 0.44565752 -0.62413567 0.081307307
0.051010408 -0.20999938 0.75093293 -0.32496831 0.88077855 -0.34441948 0.074135236
0.033616912 -0.2937136 0.73816621 -0.69308823 0.015428611 -0.72068757 0.0012682978
0.03610269 -0.49731961 0.72509724 -0.6614942 0.030637791 -0.7493242 0.0096264342
0.078752585 -0.43583974 0.70139563 -0.38023582 0.069163524 -0.92229992 0.018685905
0.032641523 -0.37951794 0.73444939 -0.67047942 -0.0033839475 -0.74192035 0.0024838122
0.064635806 -0.32846311 0.70985138 -0.37380925 0.087778158 -0.92334265 0.033539683
0.028733073 -0.31732124 0.74112421 -0.69298291 0.033839289 -0.72015941 0.0010749309
0.026676496 -0.34245378 0.7427178 -0.67014909 0.048275117 -0.74065495 0.00028044806
0.030931177 -0.49180958 0.73248595 -0.69637156 0.048153874 -0.71606416 0.0019623286
0.020768048 -0.21703705 0.75717741 -0.49181566 0.66713959 -0.55950159 0.074659705
0.026119433 -0.32787785 0.74477786 -0.69636923 0.054559771 -0.71560687 0.00083287311
0.028723296 -0.436701 0.73668772 -0.67888331 0.040333502 -0.73313761 0.0015843136
0.056809023 -0.37101898 0.71455765 -0.51940548 -0.060997341 -0.85234815 0.0072051627
0.023247274 -0.37930492 0.74306959 -0.67062193 -0.0036144839 -0.74179053 0.0026233008
0.017362827 -0.22798227 0.75304699 -0.62820643 0.44476083 -0.63839215 0.058606628
0.059890091 -0.4569563 0.70714307 -0.46419978 0.065848976 -0.88327944 0.021797167
0.020885771 -0.38853908 0.74588221 -0.67129683 0.0062587131 -0.74116224 0.0021717937
0.082214586 -0.2114958 0.7853229 0.037044533 0.99928445 -0.0076419422 0.0012410089
0.048252765 -0.27705261 0.72527498 -0.61034375 0.023469286 -0.79178888 0.0055996836
0.016672365 -0.26922545 0.75621396 -0.70738065 -0.0023249513 -0.70682901 0.00067867222
0.17122766 -0.20986573 0.82935381 0.090711869 0.98386192 -0.15423051 0.017968755
-0.052312247 -0.48427951 0.80708551 -0.75905633 0.060085516 -0.64824623 0.013492382
-0.054152567 -0.44866115 0.80934596 -0.75237942 0.032751605 -0.65791523 0.011192707
-0.054806046 -0.42637041 0.81318247 -0.7439723 0.096198328 -0.66124976 0.010676966
-0.067417897 -0.30176821 0.8266744 -0.88757187 -0.093017548 -0.45118061 0.043234009
-0.067845538 -0.27378184 0.82605642 -0.8277505 0.0024254269 -0.56109107 0.02268569
-0.070684433 -0.43628222 0.82534915 -0.9275133 0.02465011 -0.3729766 0.037221048
-0.074762061 -0.49682447 0.83331478 -0.97035182 0.17473722 -0.16698562 0.10771541
-0.073710933 -0.29032388 0.83501577 -0.93326139 -0.092485704 -0.34708744 0.027731221
-0.062044092 -0.46916333 0.81799012 -0.87401938 0.045865104 -0.48372167 0.029549398
-0.070734873 -0.40007949 0.8295598 -0.85319698 0.03610241 -0.520338 0.022044312
-0.077872746 -0.35477704 0.84504336 -0.99611419 0.083527327 -0.027923632 0.070831142
-0.06626045 -0.28162661 0.82472318 -0.81469518 -0.021057116 -0.57950693 0.027184807
-0.073783256 -0.33297411 0.83420032 -0.91924763 -0.0011173952 -0.39367825 0.042835809
-0.017961802 -0.4306286 0.78048056 -0.64403331 0.060506031 -0.76260084 0.0010988297
-0.040459316 -0.36727181 0.80265093 -0.61999881 0.045944992 -0.78325635 0.0030459475
0.019741857 -0.2741482 0.75245655 -0.70835286 -7.5228141e-05 -0.70585847 0.00063657126
-0.01793489 -0.43038115 0.77980405 -0.65313512 0.047624785 -0.75574213 0.00089486368
-0.040137574 -0.36709628 0.80245864 -0.61999881 0.045944992 -0.78325635 0.0030459475
-0.07234823 -0.33184576 0.83334237 -0.91924763 -0.0011173952 -0.39367825 0.042835809
0.010806946 -0.21285532 0.7881934 -0.29259261 0.93553585 -0.19789439 0.036430884
0.12722987 -0.47117352 0.73836738 0.76799607 -0.049992993 -0.63850033 0.0018333206
0.10378125 -0.27433911 0.71933842 0.57471395 -0.026057616 -0.81793946 0.040867183
0.10029668 -0.45102608 0.70534426 0.48490745 0.046476543 -0.8733297 0.052379426
0.12743916 -0.4714134 0.73861235 0.76799607 -0.049992993 -0.63850033 0.0018333206
0.21663006 -0.48261374 0.83522409 0.87543851 -0.066645876 -0.47871268 0.021998176
0.19517803 -0.48493117 0.81420016 0.71510607 -0.0061525088 -0.69898885 0.00046345775
0.20656627 -0.49389434 0.82525939 0.8086223 -0.048071235 -0.58636087 0.011394199
0.21772492 -0.49627802 0.83659834 0.87520367 -0.078939445 -0.47727054 0.027947605
0.20415701 -0.4485651 0.822613 0.77648115 0.026087448 -0.62960023 0.0050208867
0.21353549 -0.44494876 0.83294553 0.85892469 0.046935257 -0.50994664 0.012898833
0.21390878 -0.47257847 0.83259618 0.84737223 -0.026803728 -0.53032243 0.011048018
0.20079584 -0.46979502 0.81904191 0.73707879 0.017159009 -0.67558891 0.0026938105
0.096300468 -0.38548514 0.70467907 0.32771426 0.05428578 -0.94321603 0.10449816
0.17284514 -0.30155227 0.79810137 0.6751076 0.032696713 -0.73699421 0.00037797249
0.1371896 -0.37412947 0.75575262 0.70444703 -0.0077409106 -0.70971423 0.0035866331
0.17775635 -0.34038347 0.80099392 0.71548724 0.081198834 -0.69389105 0.0011329999
0.12807047 -0.48407745 0.74051535 0.76233107 -0.042155843 -0.64581281 0.0019128486
0.16731496 -0.48777547 0.78562015 0.70792568 -0.015705196 -0.70611227 0.0012090614
0.13744368 -0.217608 0.76629633 0.62386405 0.46556401 -0.62772906 0.068136476
0.014155691 -0.21502988 0.94390589 -0.28926691 0.94209754 0.16963719 0.040775973
0.093407132 -0.36793259 0.70470703 0.40694195 0.22073284 -0.88638324 0.056006871
0.045841135 -0.21427846 0.97002405 -0.058080394 0.97858852 0.19746183 0.020000396
0.11222194 -0.24811959 0.73603606 0.6860311 0.23696393 -0.68790215 0.036400732
0.11403491 -0.35124832 0.73185289 0.69100964 0.091452919 -0.71703696 0.0077985832
0.080015764 -0.37215623 0.70148402 0.10237052 0.052824751 -0.99334276 0.087749533
0.10135129 -0.26735389 0.71755087 0.48451781 -0.044364482 -0.8736558 0.057683207
0.16700359 -0.36165929 0.78555435 0.71582139 0.09056244 -0.69238591 0.00076613855
0.09851259 -0.30545259 0.71458763 0.17522885 -0.055091742 -0.98298514 0.040599506
0.16337153 -0.31544363 0.79081225 0.68906534 0.081832685 -0.7200641 0.0013266188
0.082677089 -0.50032938 0.70224535 0.024402857 -0.11026498 -0.99360257 0.061269041
0.17384081 -0.20934653 0.83263725 0.091391772 0.98358583 -0.15558413 0.017780123
0.080549359 -0.43806776 0.70101053 -0.38000876 0.074267671 -0.92199653 0.018148711
-0.032977711 -0.48885623 0.78944159 -0.63211596 0.075691208 -0.77116805 0.00055476441
-0.052658629 -0.51524425 0.80347884 -0.70397002 0.15425241 -0.69327658 0.0081526237
-0.015012859 -0.50142616 0.77420396 -0.62247467 0.073387735 -0.77919155 0.00027861411
-0.038247611 -0.48591301 0.79425126 -0.63053441 0.068610042 -0.77312291 0.00046861867
-0.047538545 -0.5207836 0.79867959 -0.64819986 0.090520531 -0.75607073 0.001391612
-0.087357596 -0.51859426 0.8333264 -0.65061456 0.34048751 -0.67879969 0.012277691
-0.074329115 -0.47811088 0.84865355 -0.99150479 0.065548599 0.11234576 0.083970763
0.15628983 -0.20864941 0.90491974 0.23635308 0.94545847 0.22415508 0.053214509
0.082616054 -0.21113656 0.95036316 -0.024046017 0.99477643 0.099204592 0.0076093436
0.079621948 -0.20950072 0.89382952 0.040586632 0.99667823 0.070606761 0.0014269006
0.16427638 -0.206044 0.89039415 0.11388879 0.97844648 0.17225543 0.04311385
0.059360158 -0.2120351 0.94061148 -0.057228588 0.99570525 0.072773255 0.0033886472
0.17181967 -0.20954739 0.83094436 0.091647089 0.98389614 -0.15345719 0.017139571
0.046740811 -0.20969523 0.80023926 -0.025168182 0.99965584 0.007397288 0.0015864109
0.072823539 -0.21244675 0.72577113 -0.36511877 0.79887795 -0.4779982 0.10796028
0.043291938 -0.21002665 0.74878937 -0.47596088 0.701738 -0.53011793 0.067694888
-0.033233814 -0.21442351 0.81385654 -0.37997645 0.81976002 -0.42849907 0.063983381
-0.0091371424 -0.21044151 0.80974913 -0.26644158 0.93544638 -0.23226912 0.043377124
0.080337286 -0.43411997 0.70134467 -0.40904048 0.088813402 -0.90818399 0.01388745
0.036936592 -0.42471132 0.72836536 -0.63067585 0.051386457 -0.77434331 0.0019014854
0.026588686 -0.44736859 0.73974395 -0.7062521 0.013310883 -0.70783538 0.0006783508
-0.067631848 -0.39390355 0.82767546 -0.83145589 0.029920496 -0.55478454 0.021982366
0.04892667 -0.48848915 0.71329492 -0.48621061 -0.016038768 -0.87369442 0.020297261
0.059704926 -0.45362243 0.70744789 -0.46610409 0.075458623 -0.88150609 0.020629544
-0.053400017 -0.48347938 0.80822146 -0.77587485 0.07419844 -0.62650847 0.015256095
0.054025475 -0.40399638 0.71874487 -0.53219765 0.05254316 -0.84498811 0.0056173257
0.031581856 -0.29238436 0.74007535 -0.70384711 0.0083619766 -0.71030229 0.00079503749
-0.036552861 -0.3805021 0.79914379 -0.65408862 -0.010007733 -0.75635177 0.00049087027
0.064289995 -0.34097803 0.70919961 -0.39364582 0.083213262 -0.91548818 0.033353083
0.040207248 -0.44527689 0.72581249 -0.61396098 0.08979658 -0.78421199 0.0052474458
-0.060734618 -0.46199608 0.8156296 -0.87086105 -0.0015022103 -0.4915269 0.027752673
0.043194916 -0.29590994 0.72897184 -0.65013814 0.0108501 -0.75973856 0.0030039428
-0.047089353 -0.35304019 0.80682188 -0.69403636 0.018456275 -0.71970326 0.0054198764
-0.076458842 -0.37026319 0.84188038 -0.99863118 0.012940842 0.050677974 0.086260088
0.027723789 -0.3889665 0.73932189 -0.67117751 0.013870148 -0.74116701 0.001964824
-0.043240033 -0.40367451 0.80614775 -0.65732515 0.036774959 -0.75270921 0.00088149071
-0.048929326 -0.35663721 0.80920416 -0.71041554 0.016096959 -0.70359838 0.0055737556
0.053254299 -0.21602687 0.98245174 -0.039753273 0.96644086 0.25379434 0.024012195
0.075363666 -0.45724681 0.70113337 -0.37145561 0.034649383 -0.92780399 0.019695299
-0.055399109 -0.37492543 0.81386942 -0.78406739 -0.0099039972 -0.62059671 0.013906208
0.072817683 -0.44768012 0.70161134 -0.38301209 0.061093334 -0.92172086 0.024529831
0.0092726257 -0.21469297 0.93250221 -0.28837597 0.93525809 0.20526008 0.048465054
0.025661997 -0.48489058 0.7390455 -0.71193993 0.042965651 -0.70092475 0.00086123589
0.047557697 -0.27787244 0.72565722 -0.61360162 0.020188108 -0.78935772 0.0054011489
0.041210823 -0.24275696 0.73276031 -0.62866068 0.29973456 -0.71759665 0.037439171
0.033193983 -0.25446206 0.73878235 -0.64905775 0.13999084 -0.74774778 0.0087734964
-0.021442559 -0.22808431 0.79393882 -0.50817257 0.47237036 -0.72015756 0.033486035
0.10257079 -0.21011487 0.82387877 -0.0079231523 0.99996024 -0.0040794844 0.00036119251
0.026732955 -0.20986651 0.7756182 -0.2221092 0.95885801 -0.17680195 0.027157584
0.03162843 -0.25683531 0.7405802 -0.65759158 0.11111175 -0.74513584 0.0055471663
-0.037022207 -0.25898105 0.80150133 -0.61298794 0.10922126 -0.78250653 0.0082189543
0.041219618 -0.27639422 0.73180139 -0.65254945 0.029377345 -0.75717646 0.0017283841
0.033703215 -0.29148653 0.7381267 -0.68961418 0.012624 -0.72406697 0.0013164486
-0.066990346 -0.29824871 0.82647896 -0.86330229 -0.044544972 -0.50271755 0.043962557
-0.038354259 -0.21882707 0.81030434 -0.40026838 0.71394521 -0.5745151 0.054982722
-0.077206098 -0.28726003 0.84437186 -0.96918917 -0.13572522 -0.20555039 0.034563445
-0.046782587 -0.24298942 0.80918455 -0.63219845 0.28851604 -0.71908522 0.019902496
0.042628191 -0.26085651 0.73049802 -0.6338352 0.071909614 -0.77011824 0.0032253051
-0.074376598 -0.25666755 0.83571535 -0.87384051 0.088038065 -0.47817579 0.022551617
0.01434372 -0.25557694 0.7578209 -0.73158669 0.11784375 -0.67148632 0.011747055
0.035784248 -0.21567145 0.74409473 -0.53665525 0.61403149 -0.57876295 0.060814276
0.0012749892 -0.28529188 0.77362508 -0.70186299 -0.012602544 -0.71220046 0.0010616794
-0.065614186 -0.27155071 0.82326776 -0.8299492 0.0064278105 -0.55780196 0.024153693
-0.043154784 -0.24044175 0.80626345 -0.60239387 0.3199991 -0.73124701 0.022980334
0.07416591 -0.22650805 0.70935386 -0.57222813 0.32132575 -0.7545228 0.11867677
-0.042213395 -0.22998016 0.80609888 -0.53484941 0.47196725 -0.70084447 0.02100989
0.036621835 -0.23493132 0.73719597 -0.62055725 0.3875972 -0.68167228 0.048465449
0.020448299 -0.21713035 0.75766259 -0.49029484 0.6788829 -0.546561 0.075773008
-0.076079831 -0.49994227 0.83520997 -0.98756409 0.12934583 -0.08936888 0.10457327
-0.055824161 -0.32068714 0.81864893 -0.70434767 -0.025252968 -0.70940578 0.012141603
0.038747128 -0.24777575 0.73486465 -0.62186825 0.19698887 -0.75794154 0.017161213
0.032973155 -0.37305769 0.73408675 -0.66459864 0.0036854006 -0.74719143 0.0019708429
-0.055170164 -0.45021173 0.81029135 -0.81751198 -0.009188598 -0.57583839 0.011289414
-0.071896702 -0.43037558 0.82898527 -0.94256949 0.043662433 -0.33114392 0.046024736
-0.064417005 -0.44827843 0.81834984 -0.8824054 -0.044286221 -0.46840104 0.020328328
-0.074138768 -0.28591055 0.83579224 -0.90504128 -0.045449752 -0.4228884 0.019881904
-0.061144385 -0.51857066 0.80913067 -0.7315647 0.18533054 -0.65609878 0.0098094558
-0.079625845 -0.50912249 0.83174556 -0.86971349 0.225191 -0.43918961 0.090892933
-0.057195205 -0.47353566 0.81308615 -0.80318576 0.045050446 -0.59402275 0.011572536
-0.078642435 -0.2446775 0.84450281 -0.88986361 0.21260294 -0.40366164 0.047707658
-0.07530614 -0.47389641 0.84068048 -0.98797178 0.1207181 -0.096637838 0.07352414
-0.075080983 -0.46947226 0.84966385 -0.99308902 0.10532017 0.051786836 0.073099583
0.13661435 -0.20980608 0.83202046 -0.0010110647 0.99935228 -0.035972316 0.0018670619
-0.07705874 -0.29818973 0.84604698 -0.96325952 -0.14736521 -0.22453187 0.047564831
-0.07720165 -0.36548826 0.84474277 -0.99837166 0.01357519 0.055405006 0.088318422
-0.056723971 -0.46670285 0.87448275 -0.80684042 -0.049343638 0.58870518 0.0041466663
-0.078309342 -0.50456733 0.83893311 -0.98528028 0.17015547 -0.016427865 0.1124628
-0.053673889 -0.50679696 0.88097626 -0.83583868 -0.0076135932 0.54892236 0.0042936616
-0.078907833 -0.44050592 0.84084946 -0.9872902 -0.062858462 -0.14596891 0.04867376
-0.073089041 -0.39185077 0.85744834 -0.92165512 -0.051565379 0.38456836 0.042721316
0.060039766 -0.21078168 0.82475924 0.019625502 0.99930263 -0.03176637 0.0012608613
-0.02229497 -0.21364206 0.87682426 -0.11810693 0.98140258 0.1513261 0.0291519
-0.08036226 -0.24351853 0.84803885 -0.91684359 0.20624621 -0.34184834 0.052545939
0.080871016 -0.21132968 0.96955609 0.1086789 0.9182716 0.38074431 0.057117663
0.030499291 -0.31071395 0.97322541 -0.69711971 -0.010059796 0.7168842 0.0028516306
-0.054631483 -0.38289934 0.88138682 -0.79398984 0.0076653818 0.6078828 0.0063790092
-0.058566079 -0.37571201 0.87662297 -0.80247432 0.001451935 0.59668493 0.006459055
-0.052201405 -0.39596561 0.88314033 -0.78211272 -0.034455761 0.62218368 0.0038564396
0.0053427098 -0.26555306 0.94310308 -0.7254746 0.039184574 0.68713254 0.00093488116
-0.075404517 -0.22249028 0.85451365 -0.59325469 0.80361474 -0.047458146 0.081792645
-0.077300467 -0.36607265 0.84187192 -0.99938053 0.0026731286 -0.035091024 0.084991939
-0.057784792 -0.43685028 0.87569743 -0.81623662 -0.00050189107 0.57771748 0.0075422195
-0.055488862 -0.49592888 0.87437004 -0.84453607 -0.030578254 0.53462505 0.0058307047
-0.073793769 -0.38348711 0.85785776 -0.91050208 -0.030826589 0.41235378 0.047119703
-0.043247614 -0.50975174 0.89709324 -0.8048023 0.094750673 0.58593154 0.00097304897
-0.066994414 -0.46664208 0.86340803 -0.94313586 0.0017096037 0.33240327 0.055043995
-0.010807031 -0.28173116 0.92807865 -0.72060823 0.023984639 0.69292742 0.0001434252
-0.015980033 -0.27403849 0.92278171 -0.7213248 0.016032668 0.69241136 0.00028563492
-0.032858927 -0.27329841 0.90459001 -0.71109366 0.011828166 0.70299768 0.00041767143
-0.053233404 -0.35468152 0.88463628 -0.7542308 -0.0049221888 0.65659094 0.004148304
-0.041105755 -0.28453627 0.89673567 -0.71226197 0.0058278139 0.70188951 0.00035830186
-0.055406157 -0.36674133 0.88069063 -0.78722852 -0.0059830523 0.61663234 0.0062959022
-0.039421346 -0.28143004 0.89826828 -0.71164441 0.0074201329 0.7025007 0.00035916601
0.070163853 -0.21189187 0.91036153 -0.014246071 0.99923223 0.036498126 0.0024350241
0.1232461 -0.20563492 0.94272989 0.36979783 0.697321 0.61399746 0.096609317
0.042742755 -0.21726486 0.98560911 -0.12657727 0.90411955 0.4081004 0.09603487
0.13234398 -0.21329778 0.77946377 0.14191395 0.98096949 -0.1325116 0.015557075
