# .PCD v0.7 - Point Cloud Data file format
VERSION 0.7
FIELDS x y z
SIZE 4 4 4
TYPE F F F
COUNT 1 1 1
WIDTH 1249
HEIGHT 1
VIEWPOINT 0 0 0 1 0 0 0
POINTS 1249
DATA ascii
0.21126281 -0.21610861 0.86491948
0.1919124 -0.2211542 0.87712389
0.18381231 -0.2208062 0.83655387
0.080774128 -0.2326099 0.70576388
0.07936573 -0.2202377 0.73552042
0.081979431 -0.46392491 0.69901431
0.070133612 -0.3576062 0.7072978
0.070462577 -0.48610991 0.70236939
0.061321821 -0.32140681 0.71994591
0.062950492 -0.42308009 0.71544611
0.058847159 -0.50686252 0.71295869
0.047541831 -0.25307241 0.73445088
0.091068119 -0.45658141 0.69865137
0.082799584 -0.47156051 0.69504869
0.037878659 -0.26566669 0.74071771
0.034680601 -0.3548865 0.74044001
0.037346039 -0.50482202 0.73006618
0.034635071 -0.45012021 0.73434281
0.067403018 -0.32634389 0.71485358
0.069428928 -0.47286871 0.70774519
0.059373539 -0.289976 0.73067081
0.01429385 -0.29904509 0.76827931
0.04829916 -0.33106229 0.72661102
0.049549531 -0.46226969 0.72627228
0.001596957 -0.30336139 0.77095431
-0.004964232 -0.27801329 0.77939671
-0.04073137 -0.4854342 0.80143571
-0.044369161 -0.42016661 0.8068046
-0.026938161 -0.39734361 0.79935157
-0.045570862 -0.2204787 0.81969023
-0.04759331 -0.38994631 0.81502402
-0.024224451 -0.48175779 0.78400528
-0.058144659 -0.31328899 0.82917488
-0.05578969 -0.2398967 0.82306957
-0.080524772 -0.50388157 0.83996731
-0.057319552 -0.2263878 0.82574558
-0.081099063 -0.39931789 0.84744149
-0.02303374 -0.3207795 0.80332702
-0.039176639 -0.42179099 0.80806762
-0.04116172 -0.3684178 0.80672967
0.048546251 -0.3604795 0.72674328
-0.053508312 -0.44664511 0.8154515
-0.01581545 -0.43265769 0.78205562
-0.0195217 -0.25687301 0.79701543
-0.032646179 -0.30507499 0.80109608
-0.01690078 -0.49560049 0.7808603
0.070935667 -0.27988711 0.71137911
-0.055511359 -0.53729558 0.80469853
-0.060574532 -0.2402056 0.82250959
0.087924503 -0.2759136 0.70076978
0.077296942 -0.2260441 0.98433232
-0.02201998 -0.32872179 0.7927171
-0.059070289 -0.5105195 0.82221961
0.1195062 -0.2230279 0.92266822
0.01089625 -0.2122857 0.90640539
0.021141101 -0.4373455 0.7487644
-0.003416806 -0.4751116 0.76424932
-0.0030268731 -0.50353968 0.76484442
0.01095809 -0.48647201 0.75770462
0.13801759 -0.2193372 0.78247142
0.0087151825 -0.38989931 0.76567978
-0.01126301 -0.32173991 0.78467518
0.023476779 -0.27943441 0.75703502
0.00092076883 -0.2264241 0.7784639
0.006446064 -0.2420672 0.77093983
-0.061453339 -0.4156625 0.8311246
-0.001087442 -0.26569551 0.78438342
0.03898577 -0.37678811 0.73200852
0.0076878741 -0.387371 0.76500458
0.01930456 -0.46831641 0.75051898
0.086186677 -0.22262231 0.75962359
0.088754676 -0.5191651 0.69801962
0.06057046 -0.38729629 0.71782893
0.080874301 -0.38327241 0.70068759
-0.019444169 -0.4111056 0.78828257
0.022882819 -0.3105194 0.75252253
0.077778883 -0.2206476 0.73688549
0.02840841 -0.36291289 0.74132222
0.017609039 -0.2227183 0.78908408
0.055499662 -0.22708011 0.97935271
0.016645759 -0.27271259 0.75766152
0.1705368 -0.2202016 0.92153788
0.054301862 -0.24744441 0.72696269
0.031333242 -0.3966586 0.73759472
0.061814699 -0.44926271 0.71288341
0.031908151 -0.3926647 0.74446738
0.096944183 -0.2213344 0.80472523
0.080433913 -0.36170551 0.6986993
-0.061198652 -0.41843721 0.82421792
-0.073663227 -0.2385087 0.84047639
0.088042438 -0.39331901 0.68952739
0.057952311 -0.225107 0.96328652
-0.02155924 -0.36233929 0.78611308
0.084038973 -0.35210469 0.69244212
0.072717316 -0.4525696 0.70168632
-0.066102996 -0.28337219 0.82177508
-0.051333182 -0.2180319 0.8542487
-0.02141366 -0.2160054 0.8171581
-0.077939533 -0.2179025 0.84777027
-0.020041769 -0.2179178 0.89608139
-0.02164319 -0.2186123 0.80399752
-0.040913861 -0.2149996 0.88461512
0.034648351 -0.2138444 0.75544971
-0.0546051 -0.2151203 0.84209132
0.06187541 -0.2182781 0.72440511
-0.034665901 -0.2141075 0.91779518
0.034582231 -0.21724419 0.74700588
0.2327621 -0.49258789 0.86411512
0.0830523 -0.2322209 0.7061016
0.083562873 -0.47235921 0.70439827
0.083688892 -0.47213289 0.7047708
0.084201209 -0.47176999 0.70491189
0.06501548 -0.2149788 0.76051521
0.1150148 -0.2170765 0.76744688
0.13546909 -0.21761461 0.76498097
0.1187516 -0.21613 0.7612524
0.1430113 -0.26550779 0.77256829
0.1458883 -0.3052133 0.78226602
0.16536599 -0.38126329 0.78599238
0.14134499 -0.49494451 0.75931549
0.194681 -0.48938349 0.8167811
0.1223484 -0.49931589 0.74125361
0.1637463 -0.45708901 0.78470713
0.1525929 -0.3495805 0.77263349
0.12561341 -0.34421679 0.75166237
0.080191933 -0.34039229 0.70980191
0.080903679 -0.50898701 0.70312262
0.14302111 -0.209437 0.7934016
0.12900551 -0.2869761 0.75773078
0.1193146 -0.21404991 0.75308752
0.1361589 -0.30852431 0.77267158
0.13819221 -0.22983821 0.77194762
0.082460761 -0.2205992 0.69706982
0.1200347 -0.2110438 0.87684602
-0.039268639 -0.2176474 0.86194992
0.12557299 -0.2121577 0.95501012
0.0033265301 -0.21666139 0.94010037
0.1312803 -0.2145986 0.84513807
0.1385515 -0.21093591 0.94629687
0.039935131 -0.21666659 0.98877913
0.080596887 -0.2174474 0.91571939
0.22869091 -0.35050011 0.86431891
0.1512001 -0.3502681 0.7760095
0.125347 -0.49950549 0.74247068
0.1826499 -0.30536741 0.81315547
0.17875209 -0.2142076 0.83771437
0.19730151 -0.4927451 0.82208008
0.1433001 -0.27318171 0.77203208
0.1633559 -0.46014231 0.78417128
0.16152041 -0.30437911 0.78677779
0.21776 -0.27629629 0.84834892
0.21726079 -0.34464091 0.84994513
0.2176616 -0.37390769 0.84748763
0.23178349 -0.49762821 0.86320388
0.1140624 -0.35672531 0.73302799
0.1978067 -0.3628023 0.82425952
0.184141 -0.4277581 0.80524462
0.05737675 -0.21725909 0.99061882
0.082538679 -0.37753391 0.70013589
0.2011638 -0.29453051 0.83203489
0.16380019 -0.32665551 0.79154599
0.14705481 -0.49649921 0.76527262
0.1188835 -0.40857029 0.74710947
0.1054284 -0.50131959 0.7236011
0.1324077 -0.37458879 0.75363523
0.1490047 -0.4486585 0.76808232
0.1804994 -0.31855771 0.80633873
0.14482141 -0.45836869 0.76351452
0.1521704 -0.47897181 0.77763468
0.1195593 -0.44123581 0.73426229
0.200317 -0.4112671 0.82369339
0.083624259 -0.50670338 0.70087731
0.2224627 -0.26380631 0.85625023
0.2189443 -0.44631121 0.84680903
0.12630761 -0.46404839 0.74289989
0.2188056 -0.3070938 0.84701782
0.17308091 -0.41049999 0.7898981
0.055588271 -0.21511389 0.77220583
0.1198786 -0.2107722 0.88753462
0.15492889 -0.2122473 0.82041109
0.056649681 -0.21014071 0.76516742
0.069948457 -0.2143386 0.74780089
0.1355055 -0.2161206 0.83171451
0.1157734 -0.2084216 0.83025938
0.065033861 -0.21441659 0.72619581
0.077372998 -0.2178462 0.71461511
0.079592437 -0.2176619 0.7042926
0.059315439 -0.2203304 0.95334208
0.041699089 -0.2133505 0.74695319
0.1131657 -0.21610899 0.78364432
0.068302497 -0.2195795 0.71925259
0.1171366 -0.2100368 0.82214922
0.1374242 -0.21424329 0.80555868
0.131947 -0.2176507 0.84465492
0.042290039 -0.21511699 0.73834318
0.162596 -0.2129606 0.83941209
0.096883804 -0.21785159 0.77543128
0.064588487 -0.2174326 0.74591619
0.068361133 -0.2220944 0.83690548
0.053973138 -0.2113388 0.7625488
0.1358683 -0.2165734 0.77149367
-0.00082772638 -0.2241405 0.89236277
0.069965713 -0.21148621 0.73020142
0.1330398 -0.21229281 0.88636851
0.088039681 -0.21575481 0.73769641
0.063687228 -0.2169431 0.71901578
0.070827089 -0.21776479 0.82568121
0.069270812 -0.2136206 0.70499939
0.083884731 -0.2286844 0.71245188
0.213109 -0.2227468 0.85478598
0.029641779 -0.2144877 0.89537358
0.1147684 -0.26030809 0.7405591
0.1272999 -0.2213369 0.74755287
0.12747601 -0.21369641 0.74738729
-0.69804412 -0.54254878 0.98763603
0.1197813 -0.35912481 0.73473281
0.092850231 -0.3694447 0.70750958
0.1150879 -0.35296881 0.73054397
0.090358123 -0.37717661 0.70528322
0.1060497 -0.3282637 0.7224158
0.1627344 -0.30914521 0.7929644
0.2035538 -0.28947699 0.8232075
0.19290499 -0.35437071 0.81674808
0.14819869 -0.44632861 0.75559199
0.095309258 -0.48086539 0.71061122
0.16125651 -0.33909479 0.79161161
0.13718881 -0.36582819 0.75297922
0.1608821 -0.22989529 0.79160041
0.19897839 -0.48076111 0.81428498
0.2047002 -0.404807 0.82450068
0.1900343 -0.47993129 0.80361128
0.1150461 -0.2434738 0.73600769
0.199231 -0.35407579 0.82239741
0.1416364 -0.2069629 0.83574992
-0.066597164 -0.2146049 0.84303433
0.1263974 -0.26433659 0.74576122
0.2296219 -0.45939869 0.85836369
0.2011956 -0.4849425 0.81907368
0.1634859 -0.2267523 0.79285991
-0.033873592 -0.21166921 0.87717837
0.1524639 -0.4111504 0.76783389
0.1664708 -0.31846291 0.79230303
0.15818579 -0.3129482 0.78417188
0.1962658 -0.2220221 0.81622231
0.20441429 -0.29079631 0.82883078
0.2256906 -0.34069541 0.86872989
0.2203629 -0.34371111 0.84870023
0.2042294 -0.36649731 0.82647842
0.2270748 -0.3532249 0.8580842
0.1808614 -0.3716847 0.79852629
0.2240559 -0.32767081 0.85080028
0.22137409 -0.39141369 0.84439379
0.090934783 -0.3982085 0.70714068
0.1112409 -0.49114621 0.72092062
0.1698828 -0.49165139 0.78724039
0.14978769 -0.45129341 0.76200879
0.15860491 -0.34399569 0.77523857
0.13578901 -0.3025077 0.75673282
0.2271066 -0.4063558 0.86378431
0.2192588 -0.48662889 0.84083378
0.20379891 -0.44082871 0.82370538
0.2313408 -0.49282801 0.86355942
0.1306769 -0.33750349 0.75254601
0.2131128 -0.2116615 0.85093629
0.2235148 -0.2082535 0.87174118
0.1284382 -0.4411853 0.74518031
-0.0024233919 -0.2135642 0.93194032
0.081999943 -0.2118881 0.95490789
0.1618318 -0.210895 0.80045658
0.075683758 -0.2138969 0.97261101
0.1417006 -0.20873509 0.85923588
0.19623271 -0.214167 0.89924198
0.12837841 -0.2485365 0.95856482
0.2274667 -0.2852793 0.86441398
0.060663011 -0.48907459 1.006956
0.21625561 -0.44075891 0.88614857
0.01960302 -0.2115525 0.77420682
0.2219702 -0.40101641 0.87328851
0.21272831 -0.39778119 0.88682312
0.2110512 -0.28020921 0.88610578
0.2172567 -0.3588272 0.87923312
0.19988459 -0.26821411 0.89213169
0.2188583 -0.34215271 0.8752377
0.1784592 -0.40258351 0.92589962
0.041833218 -0.21194389 0.74996227
0.21438099 -0.2805317 0.88372862
0.1545375 -0.2268216 0.92911208
0.213515 -0.2477816 0.8883121
0.2171246 -0.39776799 0.88304633
0.14036191 -0.45431691 0.95304161
0.21997809 -0.4435133 0.87176192
0.2290311 -0.3477709 0.86653692
0.187874 -0.49182311 0.91214108
0.2011257 -0.353551 0.89409387
0.1938771 -0.40984339 0.90476298
0.1196572 -0.26470381 0.96477878
0.089552522 -0.49559721 0.99698389
0.1190216 -0.2912595 0.9628033
0.01129759 -0.2160065 0.84210902
0.1939179 -0.48821551 0.90443128
0.1617738 -0.43568429 0.93549699
0.1960738 -0.24721441 0.90023208
0.1596902 -0.47113559 0.93532997
0.1421687 -0.29168439 0.95221603
0.1013578 -0.38843209 0.98469877
0.1292032 -0.45594209 0.96427792
0.1878062 -0.3343274 0.90760088
0.056337439 -0.21423 0.94160849
0.038850959 -0.2121851 0.81261891
0.2302523 -0.47957101 0.86651158
0.18839119 -0.44972739 0.91326451
0.2193152 -0.28680319 0.86967599
0.2051795 -0.37533021 0.89114797
0.078121118 -0.20949569 0.78768998
0.086318962 -0.2142785 0.99437457
0.1487238 -0.50792623 0.94302613
0.1493338 -0.50242221 0.94090861
0.1252517 -0.25136891 0.9609288
0.04040907 -0.2127022 0.98757482
0.1478485 -0.2255539 0.93748492
0.21863081 -0.35212561 0.88129008
0.095715269 -0.36679339 0.98965412
0.1053932 -0.39780509 0.97943479
0.1061469 -0.35180321 0.98206568
0.1817773 -0.213183 0.90865999
0.2145348 -0.32246691 0.88668519
0.107416 -0.3796567 0.98264152
0.1888907 -0.24533591 0.90538323
0.2256563 -0.39329621 0.87405652
0.1005245 -0.2995339 0.98103052
0.1299227 -0.2197929 0.95635402
0.0051744049 -0.2087075 0.80989301
0.1223661 -0.43966201 0.9665972
0.1468005 -0.50267369 0.94370651
0.107713 -0.44926879 0.9825573
0.192532 -0.3788994 0.90546101
0.2263393 -0.4891445 0.87226039
0.2179627 -0.23042069 0.87777883
0.1148993 -0.43795231 0.97767472
0.124682 -0.35297281 0.96579969
0.1224088 -0.3825874 0.96269888
0.1136649 -0.48501641 0.97830069
0.076335162 -0.32975209 1.0048831
0.20604061 -0.35407469 0.89141828
0.21989509 -0.41851589 0.87395591
0.1140297 -0.3205395 0.97173429
0.2255332 -0.43468061 0.87477309
0.084108382 -0.30692261 0.99883378
0.1124689 -0.36625519 0.97278821
0.1231544 -0.40640771 0.9678396
0.16294231 -0.40095589 0.93421239
0.1107777 -0.34347859 0.97111231
0.2151217 -0.36810789 0.88493419
0.19826511 -0.38359821 0.90007317
0.075259961 -0.32138291 1.00431
0.043833971 -0.2086162 0.7681421
0.2249476 -0.28227219 0.86763507
0.1459699 -0.38385391 0.94407111
0.1978438 -0.30478469 0.89847201
0.2053052 -0.41096011 0.89380091
0.225273 -0.3594656 0.87345481
0.1998257 -0.47960371 0.90059757
0.20638099 -0.28855371 0.89158231
-0.038613219 -0.2133849 0.81698018
0.16360679 -0.2086114 0.89564568
0.1402564 -0.21222121 0.94580352
0.22681031 -0.38248211 0.86408472
0.13562401 -0.48376921 0.95622468
0.060693171 -0.2102394 0.73830342
0.17156079 -0.45965999 0.92692852
0.2266499 -0.5177843 0.86968058
0.089730494 -0.37138101 0.99366093
0.2037434 -0.2392575 0.89464772
0.1408135 -0.50306523 0.95132649
0.1877415 -0.3424778 0.90855068
0.089206308 -0.46492171 0.99902868
0.1853762 -0.2820254 0.90856028
0.14114431 -0.30056831 0.94997913
0.229919 -0.46195239 0.86805087
0.053254031 -0.485073 1.005852
0.0092572849 -0.34248579 0.9432435
0.055851139 -0.44401479 0.99218857
0.073372006 -0.43835971 0.99842417
-0.075553641 -0.39106441 0.85742122
0.01748389 -0.3087171 0.96336508
-0.01490621 -0.28731391 0.9265433
0.04362841 -0.386222 0.9908728
-0.029832181 -0.37149319 0.90921319
0.020873491 -0.46987259 0.96018958
-0.0034459101 -0.35031411 0.92936641
-0.037667781 -0.4227567 0.89434528
0.020999709 -0.32022059 0.95522332
0.048232831 -0.42282131 0.99207711
0.020007219 -0.4986175 0.9636547
0.051880691 -0.34934169 0.9975397
0.062556744 -0.39913219 0.99869061
0.001734035 -0.4646486 0.94137931
0.020623639 -0.38704151 0.97046298
-0.056151051 -0.4032729 0.88577622
0.033614181 -0.42695779 0.9734866
0.039150301 -0.46389329 0.98900139
0.01107539 -0.44661549 0.94858968
-0.01500873 -0.38390979 0.93165261
0.050189279 -0.47589111 0.99292499
0.0383517 -0.38765281 0.97688788
-0.070827127 -0.39754161 0.85534012
-0.0092697367 -0.24951839 0.92683369
0.1648622 -0.21264119 0.80623722
0.05260865 -0.21276049 0.93185508
-0.066342123 -0.2345966 0.86143529
0.068992771 -0.2110191 0.82339817
0.071095534 -0.21172389 0.76582688
-0.018563131 -0.21783669 0.91405809
0.1270875 -0.2102226 0.76303399
0.091843717 -0.2141773 0.9578765
0.062958643 -0.35651591 1.002634
-0.056353811 -0.38877681 0.88164008
-0.080713034 -0.37355831 0.8427543
0.064176083 -0.2078163 0.75266182
0.040303841 -0.2122048 0.79020458
0.03426256 -0.31506521 0.97316748
0.01227112 -0.21308529 0.7794472
0.05655469 -0.2148136 0.89881319
-0.081997767 -0.23063821 0.83984911
0.029451881 -0.21784911 0.97040403
-0.071201243 -0.29509479 0.8346861
0.38371781 -0.5163995 1.346042
-0.001422861 -0.2114 0.92308128
-0.021174319 -0.2145174 0.86075258
-0.074458599 -0.29223371 0.83504248
0.064785898 -0.2584857 0.70983428
0.069419943 -0.2263995 0.70392978
0.05335531 -0.32077581 0.71719682
0.04537769 -0.27915809 0.73292202
0.042902339 -0.2963191 0.72796488
0.030368689 -0.29305139 0.73542643
0.0300887 -0.36318681 0.73142493
0.05196378 -0.30454731 0.71965271
0.042606849 -0.30858111 0.72760677
0.040042989 -0.2889435 0.73032218
0.02099466 -0.37727901 0.73925859
0.0513134 -0.2410738 0.72120029
0.1703736 -0.21019091 0.83018392
0.18273351 -0.2106259 0.87478077
0.048280708 -0.27755201 0.72515702
0.198043 -0.21358749 0.83458853
0.06165522 -0.2702767 0.70642811
0.069204614 -0.3269158 0.70646101
0.078530878 -0.4367083 0.70077652
0.079310521 -0.4990508 0.70158142
0.05856562 -0.45641291 0.70749331
0.047400121 -0.4903039 0.712946
0.062091239 -0.47083029 0.7036584
0.070366457 -0.4464989 0.69928843
0.068860471 -0.46049261 0.69843131
0.067377217 -0.4991042 0.69292557
0.077968247 -0.38175601 0.6954084
0.04448827 -0.50782728 0.71088588
0.07749439 -0.2650052 0.69835979
0.064151943 -0.25776839 0.70931071
0.051352091 -0.24044541 0.72073662
-0.03542931 -0.4088991 0.79045248
-0.060964089 -0.44971919 0.81584162
-0.065736823 -0.29785389 0.82387322
-0.076592319 -0.3612898 0.84712261
-0.01109218 -0.2638714 0.77929437
0.032306451 -0.25525451 0.73956078
0.017941801 -0.2252624 0.75363648
-0.01311486 -0.2468721 0.77969348
0.017144499 -0.2070857 0.84192532
-0.03127617 -0.216106 0.85325831
0.054586589 -0.38755709 0.99874222
-0.06005558 -0.4421221 0.81444973
0.191358 -0.2082476 0.86036891
0.041389711 -0.2147119 0.93304878
0.1145925 -0.2112419 0.76021248
-0.089656599 -0.5139454 0.8328613
-0.054257918 -0.50401878 0.87768751
0.02561897 -0.2201018 0.76965678
-0.078977123 -0.51599503 0.8183502
-0.054945521 -0.42636701 0.80938542
-0.072057731 -0.2095474 0.84641612
0.027669691 -0.2092655 0.93030357
0.15769009 -0.2049731 0.80720508
-0.017833751 -0.2093154 0.92197382
0.03283162 -0.30621591 0.97639889
-0.051463541 -0.41649809 0.88299429
0.01613708 -0.2119447 0.77922457
0.043921228 -0.21304759 0.79003447
-0.02072731 -0.21511319 0.87386078
-0.073231027 -0.39349651 0.85439807
0.049529839 -0.26722911 0.99552971
-0.057883039 -0.3816615 0.88091552
-0.076098837 -0.41488039 0.84495121
-0.0060244072 -0.3416957 0.93245822
-0.057473142 -0.49412471 0.87195033
-0.0067883981 -0.2159877 0.9329716
-0.0384182 -0.2080185 0.88172019
-0.059311029 -0.43483171 0.87334073
0.0070620682 -0.23771711 0.92953211
-0.02854595 -0.2111295 0.89025557
0.00131313 -0.3069137 0.94193989
0.0064445068 -0.34784961 0.9491387
0.067823917 -0.2076312 0.7537325
0.01580777 -0.37628129 0.74122632
0.1129235 -0.2059993 0.87339872
0.05618912 -0.20277169 0.86994702
0.0253607 -0.2137395 0.96832979
0.05498188 -0.31701279 0.99838752
-0.059382841 -0.37607241 0.87391919
-0.023438821 -0.2295157 0.91168219
-0.073440097 -0.40356299 0.85955697
-0.069480218 -0.2912665 0.86419302
-0.074915089 -0.46623209 0.84842569
0.0395693 -0.44460979 0.72741318
0.01233562 -0.2100178 0.949094
-0.0577727 -0.35596371 0.87767422
-0.05566515 -0.39721239 0.87689149
-0.022871399 -0.40304929 0.91946548
-0.020143971 -0.47752541 0.92610443
0.12545051 -0.20456821 0.94331729
-0.033747818 -0.47345981 0.90751761
0.032628119 -0.3756426 0.97640568
0.017328519 -0.37545061 0.96317327
-0.002841644 -0.42451271 0.94066459
-0.043152031 -0.23737849 0.89310223
-0.042199612 -0.28593841 0.89547181
0.018573491 -0.30658439 0.95831919
-0.081945732 -0.32467651 0.84554893
-0.068764627 -0.46805611 0.86278772
0.078197978 -0.2091081 0.96854103
-0.02000794 -0.34186381 0.9147405
0.03940478 -0.2300307 0.98459452
-0.04091496 -0.4071807 0.89834571
-0.06132881 -0.32164481 0.87264282
-0.022335321 -0.36132851 0.9116419
-0.077273659 -0.43265709 0.85390341
-0.068560809 -0.38217399 0.85956019
0.024504529 -0.28906801 0.96584392
0.02801187 -0.41015849 0.97399759
0.057758369 -0.34967229 0.99876761
-0.04234083 -0.28076231 0.89762592
0.0039727581 -0.2672075 0.94135213
0.061199501 -0.27797291 1.0031821
0.0061510131 -0.29271489 0.94302642
0.01180433 -0.48619619 0.95996511
-0.01562283 -0.2341996 0.9214412
-0.046839658 -0.31297129 0.89467502
-0.03539566 -0.51431572 0.91193843
-0.01496694 -0.4925977 0.93009502
-0.077933989 -0.34970409 0.85738111
-0.03900269 -0.23742209 0.90162063
-0.035466179 -0.22315089 0.90152162
-0.068431199 -0.32633069 0.86806571
-0.031191209 -0.28407621 0.9085778
-0.072660953 -0.28521681 0.85606039
-0.027082611 -0.3846747 0.90036118
0.14581721 -0.2132508 0.93606663
0.07960581 -0.21620829 0.91121548
0.06916827 -0.3780711 1.007527
0.1501696 -0.50389212 0.93824989
0.1951247 -0.20995811 0.8947897
0.1428033 -0.20727339 0.94099897
0.2129278 -0.27971849 0.88438779
0.1255016 -0.4385049 0.96299338
0.1612673 -0.4694289 0.93074119
0.21535259 -0.4953669 0.88133281
0.1563542 -0.2257165 0.92638397
0.1625348 -0.27232969 0.92395377
0.16188081 -0.35335469 0.92778891
0.1484973 -0.50554508 0.93813407
0.14016061 -0.4134028 0.94558322
0.1274628 -0.27000341 0.95521349
0.14431749 -0.27718991 0.94123018
0.20461109 -0.29810721 0.88943452
0.2179994 -0.3565771 0.87585169
0.05665848 -0.42592919 0.99619049
0.1097863 -0.38095289 0.97641438
-0.053619891 -0.2140193 0.87425607
0.1223315 -0.2639479 0.96135253
0.1827784 -0.4536975 0.90680248
0.1717134 -0.28242981 0.91912508
0.16307729 -0.4179326 0.91734248
0.078532532 -0.28052241 1.000165
-0.01216516 -0.21504749 0.81647468
0.21365979 -0.35643521 0.8764118
0.077613071 -0.3264662 0.99943209
0.1233588 -0.35552111 0.96082312
0.1024116 -0.25400001 0.97687399
0.0098493062 -0.20878249 0.85796207
0.1955438 -0.2477237 0.89838332
0.2288847 -0.33608031 0.86211002
0.1602591 -0.26605931 0.92481118
0.1444608 -0.2214369 0.9393329
0.1427 -0.45206371 0.94838208
0.041676071 -0.21098091 0.75746328
-0.034657851 -0.20996919 0.81681567
0.1490497 -0.2423811 0.93607008
0.1607497 -0.29980949 0.92314851
0.2178369 -0.49067509 0.88225722
0.1647903 -0.4357076 0.93116617
0.153465 -0.33689669 0.93429542
0.1324034 -0.4518483 0.9587611
0.1948083 -0.4079017 0.89869487
0.092971638 -0.21170659 0.79892617
0.082516268 -0.3057743 0.99602163
0.09453167 -0.4308455 0.98514712
0.087094463 -0.37805849 0.99492002
0.1061786 -0.35035771 0.97489119
0.088690817 -0.36061889 0.99272758
0.1057577 -0.51517773 0.97550207
0.1046129 -0.25243771 0.97507662
0.1162126 -0.48444381 0.973719
0.075644471 -0.38882989 1.002038
0.04595254 -0.2093039 0.93051898
0.068788387 -0.20895161 0.98124897
0.090118222 -0.208314 0.95763332
0.1620106 -0.2353466 0.92690247
0.2298463 -0.44512069 0.86213392
0.1854544 -0.3080276 0.90756482
0.080350578 -0.29803079 0.99889588
0.079165436 -0.23883019 0.99805522
0.1942921 -0.43118751 0.9043774
0.080135979 -0.20735089 0.89471972
0.02372939 -0.2076322 0.771698
0.044897199 -0.2076612 0.79439777
0.0886572 -0.2868118 0.99604088
0.1697901 -0.20368069 0.89234853
0.1085169 -0.39402929 0.97544152
0.142673 -0.50101471 0.94485682
0.092083164 -0.49205589 0.99141687
0.070208378 -0.26573911 1.003513
0.1105776 -0.38420391 0.97297728
0.1386648 -0.2133183 0.85665601
0.1318891 -0.216818 0.95084298
0.1877069 -0.37780091 0.90844792
0.17474359 -0.45492989 0.92191058
0.2254691 -0.37001839 0.8711952
0.2306044 -0.51191872 0.86634761
0.106629 -0.33685309 0.97482967
0.17978691 -0.2993089 0.91162997
0.0093241353 -0.2095222 0.82213563
0.1434222 -0.2434976 0.94081521
0.14696421 -0.36123851 0.94405979
0.1231962 -0.28641999 0.95891148
0.1545019 -0.31438261 0.93219858
0.094896451 -0.31764221 0.98606259
0.1419832 -0.37169981 0.95096749
0.094274953 -0.3659918 0.98887259
0.1843964 -0.4227531 0.91431582
0.2007637 -0.20855071 0.87732631
0.1791704 -0.20985129 0.83278179
0.098595344 -0.2096031 0.96342081
0.032841131 -0.21152011 0.97246093
0.043754879 -0.2100171 0.9343757
0.12699419 -0.2068022 0.75828731
0.1376663 -0.21267331 0.76374477
0.059097201 -0.2128941 0.98974252
0.1160665 -0.20726719 0.77523541
0.1251018 -0.2089116 0.77545023
0.2141199 -0.2054233 0.85214478
0.045809399 -0.20689321 0.73422098
0.067320041 -0.2087802 0.71383119
0.092667192 -0.2102375 0.76794147
0.080165647 -0.2129797 0.70265502
0.045531619 -0.20433749 0.74233961
0.056003071 -0.20997471 0.73248881
0.068215922 -0.2059339 0.70088512
0.076555133 -0.2208921 0.71358961
0.21714871 -0.2144462 0.84646428
0.13018741 -0.2098635 0.74174851
0.2197303 -0.2732015 0.84264261
0.21231879 -0.2056662 0.83973479
0.20165899 -0.28728041 0.82511562
0.082103103 -0.2911045 0.70280361
0.1858454 -0.29746401 0.80825001
0.053568561 -0.2025972 0.93682659
0.1670135 -0.203741 0.83298892
0.069510803 -0.20907681 0.70345181
0.168744 -0.2051848 0.81235731
0.1666941 -0.20672341 0.80401927
0.083418578 -0.2279266 0.69861579
0.22230171 -0.33432841 0.83985829
-0.028652901 -0.2138318 0.88346708
0.069434382 -0.2068933 0.74467552
0.122015 -0.32355651 0.74059582
0.2024294 -0.36295199 0.82150799
0.2262421 -0.399122 0.87039638
0.1956971 -0.40892801 0.9023453
-0.047463778 -0.21303099 0.82860547
0.1206388 -0.2089738 0.74965417
0.2028179 -0.2054674 0.87588608
0.1753944 -0.2064355 0.84648383
0.1810867 -0.2056113 0.83701181
0.1556538 -0.20896751 0.87357438
0.1068918 -0.2073313 0.8238104
0.065543607 -0.21400499 0.73097008
0.065731741 -0.20930409 0.81119281
0.016821399 -0.2057139 0.82946289
0.07148204 -0.2071179 0.81970888
0.052558679 -0.2099463 0.80369508
0.060938049 -0.20922109 0.94778728
0.03194157 -0.2087715 0.95799708
0.050156169 -0.2133082 0.98899251
-0.01406118 -0.2095069 0.92408812
0.059489731 -0.2053538 0.73597461
0.032022301 -0.20404311 0.85886627
0.034240872 -0.2074776 0.95871478
0.04070555 -0.2065392 0.98854291
0.065611452 -0.2092438 0.8528375
0.04700214 -0.20913 0.86606812
0.063347317 -0.2062545 0.89403158
0.031716011 -0.31131619 0.97679949
0.004600001 -0.3312197 0.94865048
-0.04129247 -0.41037601 0.89607108
0.02418031 -0.38517249 0.9682976
0.15669081 -0.20921069 0.8015182
0.041062109 -0.46007979 0.98890358
-0.04701278 -0.20882469 0.86782998
-0.079135001 -0.49704781 0.83885419
0.1354517 -0.2019902 0.84043223
-0.0067245201 -0.32277331 0.93779391
0.03373497 -0.26580989 0.97132921
0.0085122082 -0.27387929 0.94821852
0.0060678329 -0.26500949 0.94685042
-0.05102985 -0.40152279 0.88089317
-0.079356663 -0.45356879 0.84658962
-0.0171702 -0.48818889 0.92213202
-0.001487001 -0.45321119 0.94429791
0.01957917 -0.28993011 0.96437567
-0.081013478 -0.32445791 0.84750068
0.075412557 -0.2065596 0.80424458
0.047805429 -0.43587691 0.99440259
-0.075879022 -0.49584261 0.83955002
-0.039105281 -0.41061759 0.89940751
0.0054119141 -0.3630459 0.94658041
0.064817719 -0.43641159 1.004023
0.029044259 -0.41709861 0.9805606
0.02935325 -0.20493411 0.80928701
0.06007928 -0.2042751 0.77047157
0.16411351 -0.2121626 0.8368181
0.1611886 -0.20805781 0.80408871
0.05052533 -0.43158001 0.99648321
0.05252403 -0.2670331 0.99857211
0.050307911 -0.4910925 0.99612051
0.02060207 -0.43176451 0.96499503
0.03451759 -0.29863119 0.97675002
0.064315379 -0.26805341 1.006964
0.062549442 -0.26691949 1.0053869
0.04568157 -0.38214761 0.98845881
0.04926265 -0.3187035 0.99419922
-0.057593741 -0.43565679 0.87566823
-0.0096062711 -0.21598729 0.90748239
0.015721111 -0.2034993 0.77675402
0.2011403 -0.2098538 0.83689398
0.036631651 -0.4161773 0.98120028
0.040501062 -0.38792261 0.98289418
-0.07842081 -0.36062369 0.84817618
-0.022269029 -0.48255911 0.91954821
-0.06804771 -0.29067871 0.86641711
-0.015941501 -0.27999771 0.9223752
0.030365931 -0.40725261 0.97431201
-0.02150581 -0.218587 0.91508442
-0.03365754 -0.2698954 0.90284687
-0.059473619 -0.22771139 0.87419349
0.069326192 -0.34247309 1.0063159
0.032635231 -0.37811711 0.97590488
-0.080455728 -0.4513914 0.85428852
-0.000217027 -0.30782771 0.94293088
-0.01498485 -0.45765781 0.92344278
-0.065571629 -0.44460979 0.86754972
0.00044226649 -0.400442 0.94299322
-0.075455368 -0.39229211 0.85826212
-0.059920032 -0.32064039 0.87578338
-0.019277239 -0.4100562 0.92251271
-0.02039388 -0.2156098 0.85218477
-0.047805119 -0.4515475 0.88088793
0.01043495 -0.3530201 0.94995952
0.062855519 -0.4782584 1.003052
-0.081768513 -0.29750249 0.84854871
0.01557013 -0.31014001 0.95889372
0.03545725 -0.26580581 0.97875762
0.020392429 -0.3055445 0.96154529
0.02167733 -0.37759361 0.96354169
0.037649371 -0.3781853 0.97856319
0.01136216 -0.43815991 0.95172453
0.068176612 -0.40340829 1.0054801
0.0216671 -0.28103209 0.96013272
0.025770601 -0.26390281 0.96672583
0.019117169 -0.3871991 0.96563458
0.01557181 -0.384642 0.95868218
-0.037495092 -0.2814911 0.89791209
-0.028302319 -0.36509061 0.90932202
-0.039066631 -0.467397 0.89666319
-0.01019584 -0.3415097 0.93157512
-0.079056673 -0.41337901 0.84895372
0.001423212 -0.42675519 0.94370753
-0.042811651 -0.3793363 0.89469773
-0.0072269868 -0.2450887 0.92936099
-0.051780909 -0.38499579 0.88031697
0.062716551 -0.20471799 0.89379013
0.031414319 -0.2149789 0.96844262
0.00088769692 -0.21743751 0.93164009
-0.020979621 -0.21791589 0.91417158
0.04200973 -0.2057424 0.98144841
0.031030281 -0.2173956 0.96959662
-0.001141689 -0.2339996 0.93912452
-0.049846482 -0.40178129 0.88093632
0.1929857 -0.20943549 0.90435952
0.41568109 -0.49906939 1.131518
0.4181855 -0.50814122 1.128657
0.1985269 -0.20726 0.88830918
0.135079 -0.20938291 0.94704849
0.048923079 -0.2110147 0.97775072
0.047637708 -0.22197931 0.98391712
0.078332573 -0.2077994 0.96873122
0.051685959 -0.4354043 0.99227887
0.033973929 -0.4207305 0.97788399
0.0083042597 -0.36519819 0.94498038
0.042172462 -0.45927021 0.98759168
0.055631291 -0.4386937 0.99333978
0.050786771 -0.31941429 0.9945994
0.040408839 -0.37834111 0.97861671
0.07266508 -0.30690029 0.99805802
0.047541659 -0.38105091 0.98829567
0.04101437 -0.45446149 0.98490518
0.04267418 -0.38805419 0.98160827
0.031068459 -0.46462861 0.97467339
0.053122569 -0.30271491 0.99512738
0.070393443 -0.51721972 1.003705
0.043299101 -0.43110311 0.98391891
0.03446864 -0.378061 0.97517872
0.016071239 -0.49249831 0.96167892
0.062113859 -0.3138321 0.99826157
0.047022201 -0.51722229 0.9805491
0.053018149 -0.48739019 0.98718202
0.038114671 -0.48986381 0.98205823
0.033937689 -0.35684931 0.96892691
0.016586149 -0.51402962 0.9600836
0.073509388 -0.43730709 0.99892849
0.055422831 -0.40502971 0.99336457
0.024812169 -0.4136312 0.9660331
0.070093878 -0.2092223 0.82261312
0.1110525 -0.2125677 0.76329768
0.02356342 -0.43277591 0.96370149
0.05253141 -0.4908917 0.99510717
0.0071656322 -0.4036139 0.93645579
0.01396253 -0.38724551 0.9525314
-0.0011625889 -0.4783121 0.94110149
0.02062395 -0.381019 0.96610248
0.02170581 -0.38916999 0.96376318
0.059181381 -0.36939621 0.99461448
0.057254542 -0.49937961 1.000834
0.061196938 -0.3060483 0.99894261
0.0191883 -0.38552311 0.9558565
-0.01259266 -0.38518891 0.92937112
-0.002035368 -0.34709951 0.93102342
0.2291563 -0.50876641 1.091817
0.021178249 -0.45822659 0.96286142
0.0099154664 -0.35271439 0.94973731
-0.03436888 -0.484487 0.89790148
0.02840638 -0.35329029 0.96650112
0.017261829 -0.40513551 0.95612282
-9.6653588e-05 -0.42011079 0.93568248
0.1890914 -0.2055402 0.84788179
0.047712881 -0.20944519 0.93062401
0.0348593 -0.31076801 0.97319108
-0.053313479 -0.47207531 0.86807418
-0.0070106369 -0.34445709 0.92804241
-0.057517529 -0.37932989 0.87364697
-0.055737492 -0.38615999 0.88167429
-0.057263739 -0.4974027 0.87020242
-0.042058159 -0.2173114 0.87463439
-0.026448511 -0.35338551 0.91025561
-0.07962539 -0.52185738 0.82011312
-0.04804134 -0.4217602 0.88280278
-0.071656696 -0.47155109 0.84883308
-0.07589411 -0.2149042 0.85193712
-0.081448443 -0.45291379 0.85217381
-0.078399569 -0.37234339 0.84173298
-0.075020827 -0.4165549 0.84508812
-0.077282459 -0.2261889 0.85680538
0.063820541 -0.20746119 0.76444769
-0.065495431 -0.47147071 0.86294037
-0.068899393 -0.40580219 0.86005253
-0.01281233 -0.49879041 0.93178678
0.094796427 -0.21152151 0.95725238
-0.024315501 -0.2171278 0.91161311
-0.016325951 -0.2149172 0.91382301
-0.0076230438 -0.2147608 0.93300718
0.0057540918 -0.43291581 0.94186801
-0.077773683 -0.43974921 0.84765142
0.1232195 -0.21130539 0.92782992
0.057878461 -0.39334479 0.99852818
0.00746402 -0.29276621 0.94255853
0.0027588131 -0.30903181 0.94172442
-0.091079131 -0.51765609 0.83363831
-0.01077892 -0.2456668 0.92650908
-0.02018979 -0.34210339 0.9141748
-0.043019451 -0.4112832 0.89724052
0.02516458 -0.2143009 0.96847832
0.0054906481 -0.50636232 0.9639529
-0.01515196 -0.2327742 0.9220196
-0.072228357 -0.28413251 0.85530072
-0.080481559 -0.23949841 0.85121608
0.051415741 -0.26594451 0.99802959
0.045335669 -0.2311631 0.98729908
0.034775849 -0.2161731 0.91534668
0.03164278 -0.215223 0.91491288
-0.060106531 -0.2148955 0.82194543
-0.075932987 -0.26867631 0.84072047
-0.079309262 -0.2872031 0.84267682
-0.04424547 -0.21426859 0.87776238
-0.01781805 -0.43204549 0.77967608
-0.0222317 -0.2328226 0.78818989
-0.03924077 -0.21763191 0.80751902
-0.040054642 -0.2303022 0.80431873
-0.04299175 -0.2410458 0.80945498
-0.035405312 -0.21135689 0.81404293
-0.05300511 -0.30905741 0.81272513
-0.062453929 -0.51963872 0.80525857
-0.053073868 -0.34582651 0.81477177
-0.05551926 -0.32324079 0.8164255
-0.02117949 -0.2271678 0.792934
-0.054916989 -0.30062649 0.81789368
0.0087455567 -0.2144413 0.85690999
-0.062950224 -0.45087209 0.816863
-0.058282599 -0.23179729 0.82232249
0.0069340002 -0.21202929 0.75866771
0.083842792 -0.2431125 0.70039988
0.069774128 -0.28032681 0.70431769
0.070809893 -0.310368 0.70128483
0.065175436 -0.2562139 0.70801991
0.066788562 -0.27189371 0.71098328
0.074345566 -0.35862559 0.70441091
0.069672473 -0.32562721 0.70739788
0.071560264 -0.2089384 0.724123
0.0577824 -0.2761015 0.71298081
0.065572307 -0.34521261 0.70796102
0.078945123 -0.42352161 0.71154982
0.069352821 -0.46095189 0.69839662
0.084537253 -0.50493199 0.70178711
0.05532781 -0.25923011 0.71741372
0.05369664 -0.2388166 0.72255361
0.058431141 -0.35794219 0.71170181
0.06387271 -0.4724302 0.70402628
0.0600711 -0.48191831 0.70412213
0.05144009 -0.32356849 0.71832752
0.053812329 -0.4683646 0.71063453
0.05324433 -0.40619501 0.71567029
0.12692881 -0.2082797 0.76325232
0.048395552 -0.3164435 0.72454637
0.040567659 -0.2419904 0.73108631
0.039895151 -0.27555391 0.72512943
0.037962161 -0.25062019 0.73252678
0.048833881 -0.49129429 0.71345669
0.03713201 -0.2353638 0.73793799
0.03454702 -0.43543679 0.72145301
0.03310962 -0.2554611 0.73885018
0.063946143 -0.2207361 0.71404809
0.050993908 -0.2099396 0.75091088
0.034426391 -0.2937192 0.73902237
0.034268498 -0.49707481 0.72312027
0.077528968 -0.43576479 0.69861788
0.033304479 -0.3795242 0.73512572
0.062862203 -0.32795411 0.70571399
0.027745839 -0.3172949 0.74008453
0.02774377 -0.3425478 0.74397928
0.030282199 -0.49176589 0.73179609
0.01705749 -0.2123379 0.75309479
0.0249265 -0.327779 0.7435357
0.03032944 -0.43676591 0.73842901
0.052761368 -0.3713724 0.70834422
0.02417795 -0.3793112 0.74401462
0.01499383 -0.2267698 0.75085229
0.059942391 -0.45696601 0.70724171
0.01923893 -0.3885237 0.74411511
0.082226723 -0.21054129 0.78528208
0.047391009 -0.2770282 0.72429299
0.015919579 -0.2692343 0.75546682
0.17126019 -0.20898069 0.82924551
-0.055114821 -0.48397061 0.80463219
-0.053587031 -0.44868469 0.80983198
-0.056135058 -0.42619461 0.81199169
-0.064280972 -0.30132931 0.82810253
-0.066116929 -0.2737413 0.82736611
-0.068045557 -0.43630561 0.8264876
-0.07452289 -0.49687269 0.83335572
-0.074962147 -0.29048109 0.8344788
-0.061758511 -0.46916959 0.81815171
-0.069957368 -0.4001272 0.82997471
-0.074273892 -0.35519901 0.84509349
-0.06513866 -0.28158331 0.82558173
-0.070603937 -0.33286649 0.83548349
-0.01897487 -0.43047059 0.77925622
-0.04211399 -0.3671613 0.80056232
0.0182206 -0.27415401 0.75093418
-0.01880765 -0.4302327 0.77874029
-0.042067591 -0.36684829 0.79987121
-0.071384333 -0.33184141 0.83382338
0.0104582 -0.2116282 0.78797078
0.1281911 -0.47124499 0.73750842
0.1042683 -0.2744503 0.71863967
0.097682983 -0.45118779 0.70994288
0.1280456 -0.47145849 0.73807043
0.21679489 -0.48262799 0.83513278
0.1949534 -0.48493329 0.81441152
0.20754869 -0.49390611 0.8245641
0.219584 -0.49649301 0.83558029
0.2050034 -0.44852671 0.82191551
0.212788 -0.44501629 0.83337688
0.21322709 -0.47259209 0.83301789
0.1989574 -0.46986961 0.82072753
0.095072992 -0.38549799 0.70763469
0.1737674 -0.30153629 0.79708081
0.1386376 -0.37420791 0.75427228
0.17959911 -0.34020141 0.79927158
0.1300942 -0.48424301 0.7387324
0.1696915 -0.48782131 0.78322911
0.1391525 -0.2150111 0.76457638
0.01411203 -0.2148423 0.9439224
0.09257488 -0.3685109 0.70680457
0.045813572 -0.21358199 0.97010732
0.1135187 -0.2476639 0.73469597
0.1153641 -0.3511703 0.73046851
0.079666167 -0.3722975 0.70300078
0.1007095 -0.26720029 0.71864492
0.1685842 -0.3614814 0.78406972
0.098095961 -0.30529761 0.71618658
0.164425 -0.31529409 0.78968382
0.082744107 -0.50054342 0.70067722
0.1737338 -0.2113506 0.83284771
0.079814479 -0.43801349 0.69936079
-0.034817301 -0.48865101 0.78728139
-0.051535249 -0.5155248 0.80459219
-0.016070111 -0.50129569 0.77288967
-0.039075091 -0.48581749 0.79327643
-0.049017701 -0.52044678 0.79704708
-0.083759166 -0.52297509 0.83818722
-0.069734313 -0.47863591 0.8483187
0.1567976 -0.20455889 0.90548837
0.082625747 -0.21167751 0.95034409
0.079554044 -0.2108715 0.89371163
0.1643306 -0.2055064 0.89047939
0.059384421 -0.21339279 0.94055247
0.1717456 -0.2109548 0.83110452
0.04674257 -0.21240871 0.80025297
0.07016024 -0.2065165 0.72295368
0.041115731 -0.2045593 0.74595809
-0.035448499 -0.2089781 0.81171829
-0.0071029579 -0.2172392 0.81154132
0.078978762 -0.433983 0.69840229
0.037622891 -0.42478669 0.72926527
0.02224209 -0.4474107 0.73514318
-0.071747437 -0.39386511 0.82500201
0.049079321 -0.48848391 0.71355391
0.059231799 -0.45353651 0.70656008
-0.053583141 -0.48345599 0.80807137
0.052465118 -0.40388599 0.71638131
0.030033199 -0.2923764 0.73846507
-0.03700323 -0.3805185 0.79860348
0.063008823 -0.34086031 0.70665228
0.038860381 -0.445086 0.7241537
-0.06367629 -0.46196681 0.81366777
0.043674041 -0.2959154 0.72948289
-0.04650408 -0.3530567 0.80742443
-0.079220682 -0.3703182 0.84219497
0.02787026 -0.3889662 0.73946989
-0.045945719 -0.40359539 0.80310959
-0.04863558 -0.35665631 0.8095004
0.05328247 -0.21713939 0.98223269
0.073520921 -0.45698169 0.69665122
-0.05548365 -0.3749299 0.8138026
0.07230752 -0.4476217 0.70040017
0.0095299594 -0.21576101 0.93242759
0.025600569 -0.48488611 0.73898357
0.04830537 -0.277888 0.72649908
0.04181454 -0.2430249 0.7333737
0.032109208 -0.25425789 0.7376076
-0.024097299 -0.22605141 0.79012769
0.1026069 -0.2075388 0.82378769
0.027489791 -0.2127628 0.77616251
0.03337016 -0.25704861 0.74235922
-0.036112189 -0.2591067 0.80264181
0.039852601 -0.2763575 0.73033869
0.032303691 -0.2914739 0.73664612
-0.065230832 -0.29809251 0.82745057
-0.03934186 -0.2174059 0.80905509
-0.079557173 -0.28762931 0.8438139
-0.047132131 -0.242853 0.80875778
0.042577632 -0.26085269 0.73044127
-0.077255867 -0.25646639 0.83382291
0.01186778 -0.25520191 0.75564587
0.031187961 -0.2098206 0.73819518
-0.002496361 -0.28529799 0.76998848
-0.061977491 -0.2714963 0.82616413
-0.043547619 -0.2402683 0.80579352
0.071176127 -0.2250926 0.70659697
-0.038763002 -0.2330651 0.80964392
0.035990998 -0.2345755 0.73651528
0.016793059 -0.21226379 0.75375777
-0.072949477 -0.50049442 0.83561498
-0.05619105 -0.32070541 0.81825691
0.037609641 -0.24743541 0.73354071
0.032870539 -0.3730545 0.73397648
-0.052918009 -0.45022291 0.81191182
-0.075789467 -0.43015209 0.82713801
-0.063681073 -0.44824529 0.81873381
-0.074888617 -0.28595179 0.83538669
-0.061824411 -0.51838112 0.80852479
-0.081801549 -0.51428378 0.83601731
-0.05600518 -0.47358599 0.81391132
-0.085087933 -0.24374039 0.84103811
-0.080352277 -0.4732537 0.84017289
-0.072818778 -0.46965849 0.84955293
0.1366065 -0.2088341 0.83202052
-0.0817331 -0.29890129 0.8448981
-0.07499893 -0.3655251 0.8445611
-0.056859281 -0.4667114 0.87458569
-0.081826799 -0.50361812 0.8384735
-0.053800032 -0.50679803 0.88105643
-0.08218547 -0.44067559 0.84023762
-0.074102752 -0.3919445 0.85796791
0.060271379 -0.2061623 0.82458448
-0.022407571 -0.21238799 0.87688851
-0.08366593 -0.2430032 0.84701341
0.080836773 -0.2085395 0.9700492
0.02889223 -0.31075719 0.97485602
-0.056182049 -0.3828755 0.88264972
-0.05877975 -0.37570611 0.87678969
-0.052242771 -0.3959673 0.8831743
0.003670444 -0.26543331 0.94467813
-0.080368213 -0.2133387 0.85287768
-0.080802612 -0.3660548 0.84172142
-0.057963438 -0.43685019 0.87582529
-0.05691414 -0.49592659 0.87529022
-0.075351574 -0.38353789 0.85860032
-0.042729609 -0.50981891 0.89673263
-0.070401631 -0.46681741 0.86528093
-0.01102 -0.28171459 0.92828542
-0.01545633 -0.27406731 0.92225868
-0.033686191 -0.27326241 0.90540648
-0.051603161 -0.35467231 0.88323379
-0.042151999 -0.28453261 0.89769101
-0.057373859 -0.36671811 0.88225669
-0.037350088 -0.281454 0.89636707
0.070154794 -0.21096051 0.91042233
0.1236818 -0.20432711 0.94335842
0.042742111 -0.2152586 0.98601872
0.132597 -0.2091551 0.77919757
0.086751282 -0.2109302 0.91102773
0.0458696 -0.20887069 0.98541749
0.12979101 -0.2081787 0.95063299
0.036216099 -0.2144479 0.95634001
0.06553892 -0.2069273 0.75974959
0.1141028 -0.2048306 0.81947732
0.074963063 -0.210463 0.96585441
0.04510441 -0.2180461 0.98301071
0.1388821 -0.20700461 0.93312418
0.094112203 -0.20816679 0.98489767
0.02928883 -0.30558401 0.97144473
0.032363579 -0.4216834 0.97538233
0.049614951 -0.43319491 0.99601859
0.045364872 -0.3813768 0.98672688
0.1327475 -0.21030711 0.94339007
0.1207257 -0.2128927 0.95299941
0.064983293 -0.20990381 0.98099339
-0.022164291 -0.480203 0.92417753
0.065686271 -0.20670611 0.79601443
0.077255987 -0.2099504 0.80328143
0.021791561 -0.2098109 0.86358762
0.02957161 -0.413019 0.97423917
0.030138539 -0.2083872 0.80031067
0.01868074 -0.2113131 0.91383892
0.1861423 -0.21271031 0.89801568
0.2288667 -0.40272489 0.85633898
-0.029718621 -0.21244361 0.86064678
0.01086037 -0.2181908 0.84337491
-0.054809611 -0.21317279 0.83747178
0.22775289 -0.33283079 0.8613832
0.1621926 -0.28227669 0.9240371
-0.079435199 -0.2161478 0.84221917
0.016544551 -0.2107466 0.93671602
0.1953764 -0.23405761 0.89401561
0.22730599 -0.4760769 0.86688352
0.00056590402 -0.20710731 0.79753548
0.023029661 -0.21083219 0.87142932
0.1186509 -0.20416979 0.76136571
0.1351307 -0.2078483 0.85926169
0.1262262 -0.2090396 0.95133752
0.21198329 -0.20598429 0.86280233
0.069817588 -0.2075552 0.97159213
0.1588001 -0.2083016 0.92435127
0.1352804 -0.45249751 0.95100647
0.1599426 -0.2077983 0.80695331
0.13716459 -0.20536309 0.9309414
0.2165419 -0.2117833 0.8406657
0.1369774 -0.3312943 0.74536002
0.17974509 -0.33738899 0.79973912
0.1673684 -0.37142599 0.78293401
0.1601007 -0.30172789 0.78165519
0.1053799 -0.2097539 0.76315862
0.1369489 -0.2138408 0.76896191
0.1113861 -0.2118364 0.87426579
0.1303295 -0.20927081 0.84228498
0.2206769 -0.43446809 0.83919197
0.15035149 -0.2973868 0.77866322
0.19326299 -0.29267299 0.81923687
0.1967507 -0.26103649 0.82219869
0.20557439 -0.3272436 0.83492953
0.1589102 -0.45326719 0.77970672
0.2226693 -0.25712359 0.85750312
0.1762801 -0.30593199 0.80135691
0.1259461 -0.2059464 0.91620839
0.193592 -0.20756041 0.83592612
0.1954651 -0.48673999 0.81461418
0.2223364 -0.4253968 0.8535288
0.2149909 -0.3398605 0.84400767
0.2202197 -0.3239736 0.86050493
0.1335168 -0.2796458 0.75538331
0.08022932 -0.44193009 0.70432001
0.082262397 -0.46775749 0.70036173
0.1116914 -0.3524856 0.73338109
0.104784 -0.49496439 0.72439319
0.16370609 -0.32093799 0.79133803
0.1441395 -0.49409929 0.76729321
0.1436886 -0.45420799 0.76454031
0.1323753 -0.353055 0.74836791
0.097228877 -0.26847121 0.72161269
-0.04053193 -0.21323951 0.88133669
0.1062068 -0.2486147 0.74085587
0.19366489 -0.2232424 0.81991798
0.21780699 -0.48191389 0.83562797
0.1610277 -0.2286178 0.78957021
0.1191937 -0.2151175 0.73833352
0.14481319 -0.2220135 0.77153212
0.14057951 -0.2621446 0.77470982
0.15617821 -0.26154521 0.77925313
0.1962598 -0.23078009 0.82121348
0.2230389 -0.28166139 0.84820479
0.1983459 -0.26093161 0.82855999
0.1397195 -0.2681863 0.77509922
0.222884 -0.2597594 0.85579371
0.1776242 -0.26801959 0.80461192
0.157142 -0.2134226 0.78429842
0.2181839 -0.48184669 0.83570182
0.2174179 -0.4827688 0.83633769
0.2296883 -0.47494271 0.86795181
0.1771881 -0.26846051 0.80527222
