# .PCD v0.7 - Point Cloud Data file format
VERSION 0.7
FIELDS x y z normal_x normal_y normal_z curvature
SIZE 4 4 4 4 4 4 4
TYPE F F F F F F F
COUNT 1 1 1 1 1 1 1
WIDTH 585
HEIGHT 1
VIEWPOINT 0 0 0 1 0 0 0
POINTS 585
DATA ascii
-0.01522294 -0.34534311 0.54778773 0.34119302 -0.038009029 -0.93922448 0.027842548
0.017918739 -0.1292295 0.57866889 0.018952321 0.99516863 -0.09633407 0.015676897
-0.017141491 -0.36260888 0.54564643 -0.650195 0.035298254 -0.7589469 0.074510455
-0.020054443 -0.14887354 0.54660159 0.089269564 0.46293283 -0.88188666 0.15979068
-0.021861784 -0.18456231 0.54725063 -0.050198879 -0.096332371 -0.99408257 0.14771877
-0.021275153 -0.25830743 0.54660124 0.037838541 0.20684776 -0.97764122 0.091095157
-0.020268891 -0.2771531 0.54406649 -0.17472219 -0.036214404 -0.98395157 0.12235374
-0.023920909 -0.34986901 0.54927182 0.14576857 -0.057749417 -0.9876318 0.064061202
-0.02630776 -0.36835429 0.54678857 -0.6373952 0.031012807 -0.76991266 0.056855682
-0.025185714 -0.28976592 0.54995286 -0.47154257 -0.077862851 -0.87839907 0.08660987
-0.026183659 -0.39525411 0.54583758 -0.51456773 -0.051865552 -0.85587966 0.061541419
-0.028862111 -0.14599319 0.55436933 -0.88814485 0.212616 -0.4074226 0.15291384
-0.028837845 -0.2946288 0.55564809 -0.52027982 -0.13880663 -0.84263963 0.090203121
-0.030602399 -0.29818919 0.5563007 -0.60351539 -0.25495076 -0.75549281 0.060939018
-0.030197199 -0.39426899 0.55128688 -0.5548172 -0.074163467 -0.82866013 0.053668022
-0.033401307 -0.13260101 0.56756091 -0.15407607 0.85349947 -0.49779427 0.083895944
-0.0300746 -0.1915613 0.5608207 -0.63381189 -0.34872851 -0.69041365 0.040332451
-0.029077649 -0.1456103 0.5624727 -0.066547051 0.84693712 -0.52751207 0.09416388
-0.044681557 -0.29939878 0.56682897 -0.37050024 -0.68085945 -0.63179111 0.017351419
-0.043435793 -0.29316625 0.56873822 -0.39115986 -0.64556205 -0.65592957 0.023868101
-0.045511842 -0.4144704 0.5643006 -0.53000873 -0.44100869 -0.72429419 0.042030133
-0.045100991 -0.20462359 0.5789507 -0.51246858 -0.34672314 -0.78559476 0.059851408
-0.018459046 -0.36045143 0.54589128 -0.59804356 -0.05087233 -0.79984742 0.061218686
-0.054224089 -0.20966896 0.5822826 -0.45314378 -0.24785633 -0.8562873 0.11362869
-0.049021225 -0.1647528 0.58281761 -0.868792 -0.044246864 -0.49319634 0.054449446
-0.023813341 -0.15280913 0.54989785 -0.081370436 0.35874951 -0.92988044 0.15841822
-0.056208454 -0.17787521 0.58682168 -0.75952667 0.03981372 -0.64925659 0.045079466
-0.031740431 -0.2513141 0.55818051 -0.73718745 -0.30496144 -0.60295379 0.053431451
-0.033937119 -0.38004488 0.55905718 -0.6152631 0.11088043 -0.78048503 0.068754271
-0.076341152 -0.34602451 0.60683668 -0.71732217 0.029537298 -0.69611526 0.037650846
-0.079475217 -0.3744224 0.60756892 -0.72056919 -0.054986093 -0.69119936 0.041214667
-0.077501766 -0.1743377 0.61208123 -0.67754441 -0.16382593 -0.71700394 0.031624209
-0.047273256 -0.19839537 0.58102071 -0.7168929 -0.052284554 -0.69522011 0.068595372
-0.056454599 -0.13837953 0.79460835 -0.2395367 0.85660619 0.45699877 0.070894025
-0.04895306 -0.2142259 0.57997751 -0.703623 0.035958767 -0.70966303 0.074266866
-0.087222382 -0.13625123 0.62565196 -0.4924984 0.69569832 -0.52292359 0.072892018
-0.096603461 -0.41574952 0.62489164 -0.65901673 -0.21293318 -0.72135729 0.011824884
-0.088090338 -0.15043035 0.62687665 -0.68866605 0.37215161 -0.62228787 0.080466338
-0.088661551 -0.2112266 0.63054001 -0.80989581 0.16406994 -0.56316042 0.034980413
-0.095986433 -0.38401601 0.62676859 -0.71793067 -0.053555958 -0.69405138 0.015187097
-0.05500501 -0.3518244 0.58207482 -0.70422488 -0.050940923 -0.70814705 0.029833484
-0.097196132 -0.33241755 0.63445103 -0.75370157 0.042389527 -0.6558485 0.057173088
-0.096774884 -0.33621937 0.63131118 -0.86708087 0.13283338 -0.48013127 0.04055611
-0.096614137 -0.18745647 0.64006573 -0.7306726 0.099581264 -0.6754266 0.038781006
-0.05875802 -0.31043351 0.58938152 -0.087914102 -0.87625563 -0.47375852 0.0010158006
-0.1161552 -0.33450481 0.65335959 -0.68209332 -0.085461535 -0.72625422 0.024419012
-0.11357762 -0.16988413 0.65811729 -0.74104875 -0.059192598 -0.66883701 0.042316556
-0.11910346 -0.22698221 0.66405326 -0.82390183 0.094879918 -0.55873382 0.056337345
-0.11776597 -0.23297781 0.664015 -0.8008638 0.13184588 -0.58415222 0.04803307
-0.1244839 -0.1368258 0.67047077 -0.59131765 0.29503822 -0.75053042 0.056066349
-0.140113 -0.38011089 0.67431837 -0.71016824 0.1096372 -0.69544286 0.018052662
-0.1235171 -0.17236669 0.67404741 -0.70404565 -0.4498449 -0.54950827 0.056489024
-0.1045419 -0.40782458 0.62922442 -0.74206424 -0.024914103 -0.66986567 0.017930029
-0.1517068 -0.32010669 0.69965267 -0.97775024 0.16490449 -0.12965724 0.059875466
-0.1093479 -0.35743639 0.64779782 -0.7458576 0.14624675 -0.64985257 0.031189399
-0.11560139 -0.1646582 0.65322912 -0.73960423 -0.075996295 -0.66873765 0.044634379
-0.11921275 -0.22926112 0.66368896 -0.82390183 0.094879918 -0.55873382 0.056337345
-0.15304463 -0.14132316 0.71538562 -0.70709914 0.28277624 0.64811134 0.099038795
-0.1229427 -0.21309081 0.67428398 -0.74972141 -0.089726128 -0.65564257 0.065619111
-0.1436598 -0.353899 0.6783489 -0.89723444 0.076368727 -0.43490034 0.039013803
-0.14878513 -0.418657 0.69719654 0.3060689 -0.95191371 -0.013494718 0.071986631
-0.15022765 -0.32277644 0.69510156 -0.95401931 0.23465151 -0.18650961 0.063159198
-0.094545484 -0.1735801 0.64041901 -0.78560376 -0.06811367 -0.61496925 0.031145079
0.082970113 -0.1307912 0.63994747 0.14976721 0.98052639 -0.12703468 0.020269001
-0.086984053 -0.13446027 0.74580568 0.014026817 0.99599302 0.088323541 0.040422983
-0.026377089 -0.2473257 0.55296963 -0.23228323 0.080420278 -0.96931779 0.11943221
-0.1606169 -0.1642959 0.71118492 -0.82238466 0.1076324 0.55865788 0.036283642
-0.144601 -0.3285397 0.69411743 -0.92835367 0.017380161 -0.37129155 0.040660918
-0.1095342 -0.14520609 0.65070838 -0.56751674 0.30693814 -0.76401162 0.080400795
-0.090407804 -0.3987866 0.61562961 -0.75181764 0.03574292 -0.65840161 0.021435522
-0.11163883 -0.16095573 0.65480345 -0.74081868 -0.16197422 -0.65188342 0.047922533
-0.16082154 -0.28760624 0.70660561 -0.91051418 -0.27844167 0.30567008 0.020081464
0.029766472 -0.13016023 0.79803717 -0.002769263 0.99954754 0.029947765 0.011357944
-0.16144095 -0.21371692 0.7076056 -0.92374486 -0.27933818 0.26204118 0.13226233
-0.028418437 -0.12734888 0.60640544 0.021765888 0.99764812 0.064995579 0.014135312
-0.020686137 -0.13399553 0.77725267 0.014868394 0.993002 -0.11715784 0.011264325
0.065963387 -0.12554942 0.7252686 -0.056778859 0.9983809 -0.0034251313 0.015522609
-0.15864308 -0.21344808 0.71141648 -0.89831465 -0.25972447 0.35436413 0.11474109
0.057935935 -0.12552664 0.77562302 0.74232465 0.56967038 0.35274601 0.14912604
0.0076060751 -0.13344106 0.74287796 -0.13015582 0.98890823 0.071554556 0.036492385
0.058432776 -0.12899837 0.66271108 0.0084298197 0.99890584 0.046000987 0.011783226
-0.01293341 -0.12869985 0.66438735 -0.031002704 0.99949002 0.0076533635 0.0045017381
0.024482051 -0.13182209 0.59780192 -0.053358901 0.99669075 -0.061321676 0.0255988
-0.13061348 -0.41965532 0.73309529 -0.76897573 -0.014144896 0.63912135 0.010777728
-0.091473885 -0.13188414 0.77237725 -0.64373201 0.28751886 0.70918405 0.092386313
-0.095233515 -0.13356473 0.77125579 -0.72784191 0.39203748 0.56263024 0.10240667
-0.11227842 -0.13251498 0.73529643 -0.19321579 0.92905164 0.31548488 0.067954905
-0.13283567 -0.38923627 0.73410219 -0.69238639 0.038434912 0.72050244 0.0188978
-0.067962766 -0.13598198 0.78568649 -0.46677205 0.53407943 0.70489931 0.096725747
-0.12670089 -0.30702829 0.7393378 -0.67616409 -0.0099163996 0.73668438 0.01211016
-0.067103647 -0.2297954 0.79653418 -0.74495518 0.20908968 0.63350087 0.025795113
-0.1099555 -0.2088567 0.75273758 -0.39352387 -0.025239669 0.9189679 0.0091863759
-0.046855226 -0.21260607 0.80839771 -0.63157576 0.024874145 0.77491504 0.019366022
-0.00081459008 -0.31180093 0.84583491 -0.46686184 0.21607447 0.85752654 0.045297246
-0.0043439451 -0.18935511 0.84239608 -0.47086361 -0.35051727 0.80958331 0.063550323
-0.074259654 -0.16653006 0.7798869 -0.66359222 0.02217407 0.74776578 0.012059471
-0.15665358 -0.28525096 0.70750183 -0.91051418 -0.27844167 0.30567008 0.020081464
-0.13141367 -0.36017272 0.73417783 -0.34632245 -0.010055383 0.93806165 0.0098506827
-0.12674171 -0.27941477 0.74238324 -0.54407567 0.037201121 0.83821112 0.010895289
-0.1573934 -0.33937433 0.70944512 -0.96320766 0.12609476 -0.23734179 0.064447597
-0.1481362 -0.2072894 0.71900302 -0.78922242 0.029323231 0.61340708 0.04699624
-0.11295307 -0.23663352 0.75331473 -0.69221163 0.076465897 0.71763223 0.01442802
0.068161488 -0.12635744 0.63882732 0.047052786 0.99685919 -0.063701019 0.02331043
-0.078114823 -0.1565077 0.77515548 -0.54376721 0.032633584 0.83860135 0.020292724
-0.024957944 -0.29759789 0.82746768 -0.57957524 -0.053473983 0.81316233 0.013577139
0.011177591 -0.13050954 0.80907255 -0.078950569 0.99634469 0.03262008 0.010623324
-0.16097899 -0.16505064 0.71241462 -0.82238466 0.1076324 0.55865788 0.036283642
-0.092522584 -0.13247156 0.73012286 0.049667906 0.99418783 -0.095517948 0.013873341
-0.13523994 -0.29787341 0.73853582 -0.68278801 0.0015071658 0.73061496 0.016303422
-0.1116032 -0.39448586 0.75082254 -0.67864549 0.072304383 0.73089826 0.022303104
-0.1138988 -0.4171091 0.75315303 -0.73453271 0.047840424 0.67688483 0.0098751243
-0.10718375 -0.3332454 0.75766045 -0.70470643 -0.28173727 0.65116274 0.023943374
-0.042675629 -0.12965921 0.79874581 -0.20945311 0.93338722 0.29140636 0.071051948
-0.12820408 -0.280509 0.73836434 -0.54407567 0.037201121 0.83821112 0.010895289
-0.1209306 -0.37521479 0.74093962 -0.67167264 -0.0088192485 0.74079561 0.01728119
-0.10556644 -0.20545985 0.75766516 -0.56375182 -0.012851231 0.82584423 0.015381285
-0.05502709 -0.2157578 0.79044998 -0.66566741 0.013936673 0.74611837 0.039030325
-0.043379221 -0.21174783 0.81082428 -0.67013556 0.012893647 0.74212676 0.017728427
-0.069552138 -0.1335943 0.68310559 0.48925012 0.83673859 -0.24597329 0.012203995
-0.14947963 -0.30570495 0.72071069 -0.79630446 -0.023337236 0.60444564 0.028586205
-0.1496093 -0.1573821 0.72638744 -0.67014575 0.17309362 0.72176397 0.024753187
-0.14254199 -0.24486823 0.72287065 -0.69723201 0.10847937 0.70859003 0.022264387
-0.14167625 -0.16459277 0.73358548 -0.65404153 0.17762546 0.73530865 0.019211177
-0.12894621 -0.29214862 0.74128371 -0.72055548 0.08076001 0.68867821 0.0096334014
-0.10561401 -0.15925893 0.75890851 -0.5426144 0.082629174 0.83590794 0.012958252
-0.10363246 -0.17349701 0.76118082 -0.58200729 0.0013813797 0.81318241 0.0083293039
-0.069280155 -0.33744672 0.79443622 -0.55198967 0.12293401 0.82473916 0.015930487
-0.041884832 -0.29927465 0.81552911 -0.62266028 0.065146141 0.77977574 0.012051326
-0.0094656395 -0.24005274 0.83856297 -0.4871113 -0.09496329 0.86816156 0.03270426
0.011858211 -0.13109815 0.81451768 -0.063165851 0.99689454 0.047024116 0.0097846212
-0.058606796 -0.26653215 0.8029927 -0.70696598 -0.10092888 0.70000893 0.015583621
-0.096017495 -0.28598994 0.76318252 -0.75056452 -0.043098703 0.65939021 0.019834794
-0.09940467 -0.33793661 0.76430839 -0.64127517 0.0266825 0.7668469 0.016044416
-0.1556851 -0.14713088 0.7175402 -0.70519584 0.16682144 0.68910766 0.057243135
-0.1387935 -0.2497109 0.72839421 -0.68671054 0.034869093 0.72609419 0.020236095
-0.11985689 -0.32359761 0.73865598 -0.70094454 -0.084774494 0.70815969 0.017995147
-0.1174261 -0.28204289 0.74663949 -0.58611298 0.026719753 0.8097887 0.012120076
-0.14069742 -0.21437027 0.72511947 -0.72625458 -0.079820171 0.68277603 0.013625572
-0.086254865 -0.25470769 0.77760619 -0.64128709 0.19439578 0.74226761 0.033702891
-0.088333666 -0.38184172 0.77567786 -0.69140071 0.06626296 0.71942639 0.01690934
-0.13143872 -0.24527316 0.73247713 -0.7220282 0.026409818 0.69135934 0.014435803
-0.080455273 -0.40365356 0.78113711 -0.64852506 0.069794901 0.75798678 0.012685487
-0.068373337 -0.39962229 0.79516917 -0.62825662 0.10717524 0.77058876 0.014870931
-0.1208412 -0.40267161 0.74306458 -0.71083581 0.014547902 0.70320749 0.017034665
-0.12469919 -0.30208904 0.74493259 -0.54414845 0.018768547 0.83877897 0.01194332
-0.11007797 -0.23952016 0.75486219 -0.52208829 -0.48419824 0.70212245 0.0033296675
-0.045605339 -0.41093579 0.81363678 0.4599151 -0.60111445 0.65355909 0.0020920068
-0.049379271 -0.15230539 0.80418658 -0.54761577 0.55185694 0.62894422 0.1036217
-0.0046973894 -0.41445863 0.84113246 0.43084744 0.4509159 0.78169382 0.0017439574
-0.060919307 -0.18112402 0.79809624 -0.68475461 0.015040744 0.72861844 0.0082686329
-0.044450719 -0.2331353 0.8056677 -0.65828401 0.12420709 0.74245185 0.019473743
-0.026601853 -0.18925688 0.8193298 -0.46309537 0.013340929 0.88620806 0.0086388215
0.012842628 -0.36039269 0.8440699 0.093463235 0.32432637 0.94131666 0.059340898
0.0090453029 -0.27490601 0.84335989 -0.092610106 0.086879879 0.9919048 0.023691444
-0.10362404 -0.19205102 0.75924861 -0.61160326 -0.053888205 0.78932726 0.011733976
0.0021390649 -0.31440961 0.8411026 -0.46692041 0.21689726 0.85728699 0.045247879
-0.15366833 -0.13763818 0.71421254 -0.66770351 0.32609692 0.66920316 0.11817866
-0.11793549 -0.32596573 0.74599391 -0.69080114 -0.076883003 0.71894562 0.022070855
-0.1313937 -0.31672671 0.74422938 -0.69939619 -0.068045251 0.71148771 0.017896611
-0.01595878 -0.13381529 0.83108765 -0.22784789 0.87884158 0.41919303 0.078683168
-0.050057173 -0.21856003 0.79417473 -0.67131507 0.028513951 0.74062335 0.043999802
-0.095403917 -0.28186753 0.76254719 -0.66515332 -0.21137024 0.7161659 0.026335193
-0.05501182 -0.37789729 0.79404408 0.5101499 -0.33631855 0.79160404 0.019453669
-0.061263468 -0.37932771 0.79183048 -0.63688278 0.027584605 0.77046698 0.021840924
-0.064055532 -0.34658331 0.79946887 -0.60271013 0.072767101 0.79463542 0.011970134
-0.063077867 -0.25264001 0.80432129 -0.69777268 0.051058125 0.71449727 0.021498751
-0.08828529 -0.40273631 0.78259188 -0.64931691 0.069524184 0.75733334 0.013147772
-0.080754504 -0.24584682 0.7807681 -0.70022118 0.068885155 0.71059489 0.029843509
-0.074402347 -0.24870816 0.77526969 -0.68277615 0.084881902 0.72568023 0.029420843
-0.15351845 -0.21064939 0.71519744 -0.89820135 -0.25971258 0.35466012 0.11474954
-0.13191003 -0.35712552 0.73261851 -0.35442168 -0.056893323 0.9333533 0.014726115
-0.080384873 -0.20315561 0.77430362 -0.64739829 0.063173681 0.75952917 0.014452061
-0.16054626 -0.21955124 0.70988488 -0.90465188 0.023084706 0.42552567 0.1032774
-0.14574073 -0.23816055 0.7188136 -0.68936414 0.000105068 0.72441506 0.011578766
-0.116796 -0.38841 0.74610502 -0.67064446 0.074131541 0.73806542 0.020322729
-0.036657296 -0.30659941 0.81764871 -0.55476224 0.0015010746 0.83200753 0.012463544
-0.06330476 -0.33242801 0.79617894 -0.61250478 0.041183803 0.78939331 0.019902442
-0.056351241 -0.32341042 0.79219562 -0.64156914 0.0046893898 0.76705092 0.017865486
0.014010925 -0.30366418 0.8462218 -0.23583715 0.065175794 0.96960449 0.032079011
-0.073720619 -0.1796869 0.77984631 -0.66052788 0.061285585 0.74829602 0.013091518
-0.071281627 -0.24244779 0.77771819 -0.72099489 0.071143687 0.68927854 0.032163721
-0.1251737 -0.1361236 0.71335721 -0.12007683 0.97155213 0.20412731 0.1037494
-0.10076235 -0.1363795 0.71030623 0.06594146 0.98857927 -0.13550964 0.017535791
-0.10928084 -0.333947 0.7558344 -0.70436454 -0.27292168 0.65527427 0.023595339
-0.057743225 -0.19398804 0.79928732 -0.70454895 -0.10646375 0.70162404 0.012985561
-0.036510564 -0.19739729 0.81504393 -0.54646152 0.035761658 0.83672029 0.012030506
-0.083658136 -0.32013479 0.77655298 -0.65385395 -0.0045829373 0.75660682 0.0056343176
-0.057252061 -0.28698 0.79579598 -0.74313599 -0.05776868 0.66664213 0.0055001802
-0.084077187 -0.37949005 0.7783798 -0.61407614 0.087824456 0.78434521 0.016154468
-0.019257374 -0.37503123 0.82937431 -0.51367116 -0.09825889 0.85234213 0.015557943
-0.048422135 -0.30409449 0.81277263 -0.66530603 -0.012916624 0.74645895 0.016123857
-0.027649673 -0.3406634 0.82524735 -0.61670828 -0.06676545 0.78435534 0.0063634799
-0.0059729628 -0.35444614 0.84233147 -0.4616178 0.016123887 0.88693231 0.021960655
-0.079203539 -0.3139905 0.78510672 -0.53747505 0.13245726 0.83281183 0.020037904
-0.030776128 -0.12980673 0.7119832 -0.032025106 0.9972629 0.066642538 0.0065944185
-0.1266045 -0.26792431 0.74004233 -0.61808217 0.037517417 0.7852177 0.0059660492
-0.1070927 -0.407592 0.75543219 -0.72229475 0.0044180076 0.69157124 0.02138165
-0.13152866 -0.42057535 0.72961932 -0.74963874 -0.024900354 0.66137868 0.012547889
-0.14470425 -0.15023825 0.72631586 -0.57237124 0.26909417 0.7745834 0.071518369
-0.040716056 -0.12937479 0.61350071 -0.020736273 0.99602991 0.086570248 0.011428626
-0.09915439 -0.1975615 0.75954449 -0.61333281 -0.039476592 0.78883749 0.012857632
-0.11265478 -0.33278641 0.7549324 -0.69652081 -0.34610155 0.62854785 0.02034949
-0.137538 -0.21716461 0.72708583 -0.72250181 -0.094857603 0.68483073 0.01364818
-0.033536587 -0.13635054 0.81987613 -0.45075291 0.79371285 0.40846255 0.060882993
0.00028883744 -0.131843 0.78742087 -0.039937172 0.99659795 -0.072094277 0.010864232
0.020782685 -0.22951172 0.84046638 0.23419261 0.0025255587 0.97218692 0.060478944
-0.065205403 -0.1841152 0.78848583 -0.67085499 0.047112357 0.74009067 0.0096748881
-0.051523369 -0.14950256 0.79670709 -0.32167301 0.75356698 0.57329148 0.070506334
-0.044257231 -0.22474329 0.81397671 -0.64882219 0.093752794 0.75514245 0.022479435
-0.031883158 -0.2047572 0.81737572 -0.55508608 0.066836983 0.82910335 0.013247634
-0.039621931 -0.35640579 0.81261063 -0.61623269 0.02110319 0.78728133 0.0054239426
0.013399452 -0.30033219 0.84432274 -0.37366071 0.04382506 0.92652953 0.04003527
0.019231455 -0.26973602 0.84471065 0.056429293 0.078780167 0.99529362 0.017242314
-0.08612293 -0.1428673 0.76563311 -0.76443774 0.25360438 0.5927223 0.077923357
-0.1344305 -0.14272159 0.7383666 -0.50290728 0.42168647 0.75449628 0.052865699
-0.070099674 -0.13894944 0.78643829 -0.50161672 0.19732262 0.84228522 0.084414497
-0.12638479 -0.3359651 0.7380262 -0.68045932 -0.037790429 0.73181075 0.017215718
-0.13944499 -0.15463629 0.7296595 -0.59418756 0.36861777 0.71488607 0.056376681
-0.1259899 -0.39856169 0.73860037 -0.71228671 0.021240728 0.70156723 0.016015969
-0.031924579 -0.12748648 0.57199818 -0.049985517 0.95047379 -0.30675894 0.054857578
-0.017833125 -0.18926397 0.821311 -0.61743176 -0.045611542 0.78530085 0.028122768
0.011678296 -0.36655921 0.8468771 0.013009286 0.19561781 0.98059392 0.090320081
-0.055379219 -0.35467419 0.80439258 -0.63144314 -0.051451277 0.77371335 0.014349774
-0.062460586 -0.26543435 0.79663163 -0.73708403 -0.042406414 0.67446929 0.029445114
-0.060298111 -0.219676 0.79465318 -0.6568929 0.055416334 0.75194472 0.041344747
-0.087884352 -0.16728473 0.76655638 -0.56165403 0.085099727 0.82298398 0.011458988
0.048748769 -0.1327541 0.73132187 -0.019470718 0.9998104 0.0002102726 0.017425381
-0.15880069 -0.42027336 0.699314 0.3060689 -0.95191371 -0.013494718 0.071986631
-0.11154111 -0.38817772 0.75487459 -0.67799842 0.072402999 0.73148882 0.021866959
0.01479312 -0.19357359 0.83876568 0.23647295 0.26383853 0.93513083 0.064765058
0.015696298 -0.22324443 0.84528315 0.031294644 0.047014583 0.99840385 0.068921335
-0.037296016 -0.18413387 0.81538403 -0.53642517 0.049216989 0.84251159 0.0078288577
-0.024861466 -0.22022499 0.824386 -0.56132913 0.15270391 0.81338251 0.0086136274
-0.017574579 -0.31190941 0.82806933 -0.59564781 0.0043290416 0.80323404 0.0083876224
-0.027466429 -0.3889896 0.81966847 -0.52909273 -0.092999518 0.84345245 0.014875274
-0.085739978 -0.31080413 0.77617985 -0.66439807 0.076980047 0.74340379 0.006310707
-0.063092232 -0.24977714 0.79309964 -0.6830759 0.066886477 0.72727817 0.022675237
-0.097035989 -0.1311945 0.64696127 -0.40896726 0.86655575 -0.28605399 0.076853931
-0.084607124 -0.13350928 0.73956746 0.021065632 0.99830914 0.054177374 0.028385175
-0.086494073 -0.16697866 0.77132595 -0.54958105 0.081132643 0.83149153 0.013484726
-0.00051733269 -0.4240925 0.84357297 0.43084744 0.4509159 0.78169382 0.0017439574
-0.0600424 -0.12966619 0.60422039 -0.26182088 0.96370864 0.052110314 0.11611123
0.05405806 -0.13479069 0.66586494 0.0099176345 0.99994951 0.0016028323 0.017291697
-0.11175334 -0.1605027 0.75175834 -0.64201272 0.092487849 0.76109493 0.011304014
-0.1612616 -0.24603561 0.7107808 -0.63812417 0.052407864 0.76814777 0.018112954
-0.1332155 -0.1320297 0.68229759 -0.31119606 0.68204045 -0.66179895 0.082411982
-0.1441077 -0.2346631 0.71648371 -0.74767607 -0.0023975393 0.66405928 0.05450156
-0.15578154 -0.42002749 0.70059466 0.3060689 -0.95191371 -0.013494718 0.071986631
0.032152776 -0.13092168 0.82959497 -0.043852121 0.99807757 0.043796908 0.0092657115
-0.079949148 -0.16445132 0.77765006 -0.60199749 0.043965351 0.79728663 0.013276794
0.013402 -0.24139313 0.84579903 0.067709342 0.049104519 0.99649596 0.045387365
-0.030177556 -0.21178593 0.82051522 -0.57019186 0.06543266 0.81890166 0.012923871
-0.089180969 -0.26275373 0.77659184 -0.71037608 0.087805539 0.69832367 0.029991996
-0.14645429 -0.16715653 0.73255312 -0.65517092 0.16167229 0.73797905 0.020791853
-0.0090113664 -0.22471119 0.83292472 -0.51308197 0.17997982 0.83925802 0.016126407
-0.022650456 -0.1796865 0.8200922 -0.61328882 -0.031508271 0.78922999 0.05264226
-0.073446028 -0.13095351 0.63199598 -0.52022207 0.77504402 -0.3587141 0.080349445
-0.046562284 -0.21956214 0.80027431 -0.64229798 0.056702457 0.76435477 0.026357405
-0.15575995 -0.13272655 0.71724278 -0.66513085 0.40949404 0.62443227 0.1141196
-0.081991144 -0.13086864 0.66216439 0.10178229 0.99385953 0.043399457 0.01359214
-0.15883569 -0.37353939 0.71147811 -0.83737874 -0.49665073 0.22833094 0.001655884
-0.16171946 -0.20567028 0.70848078 -0.95236349 0.24484223 0.18181336 0.1322287
0.072936133 -0.13092348 0.76785475 0.68475413 0.59559321 0.41997677 0.11633062
-0.074200749 -0.13154468 0.776254 -0.33218664 0.79120737 0.51346171 0.09593457
-0.032208078 -0.22601952 0.82387275 -0.60485268 0.11453498 0.78805768 0.016536824
-0.017357925 -0.38410604 0.83243895 -0.51403695 -0.10325459 0.85153067 0.022078604
-0.058664571 -0.32679507 0.79223108 -0.64366311 0.017734 0.7651034 0.019757576
-0.0091927359 -0.22415127 0.84134108 -0.49338362 0.16231607 0.85453272 0.019433443
0.0099410312 -0.12782735 0.70254469 0.040208038 0.95620406 -0.28992599 0.0051354975
-0.1176535 -0.3776966 0.73747039 -0.67257571 0.010551766 0.73995298 0.01885017
-0.15337497 -0.14648069 0.71888173 -0.71206409 0.16606691 0.68219244 0.055488493
-0.094045334 -0.33936381 0.7669282 -0.57967895 -0.097011685 0.80904949 0.0084091332
-0.015960479 -0.1496896 0.83181518 -0.34422204 0.6940226 0.63233209 0.09067522
-0.14708401 -0.3002519 0.71975833 -0.79241395 -0.13823113 0.59411466 0.01648744
-0.02198936 -0.22581112 0.82750005 -0.55364192 0.16861665 0.81550539 0.0086296266
0.013740893 -0.12778385 0.75077444 -0.15837115 0.98587298 0.054524802 0.052606389
-0.1627997 -0.21998689 0.70315427 -0.99384296 -0.10203294 -0.043190323 0.10044391
-0.1560812 -0.34279209 0.70768559 -0.94258189 0.16715188 -0.28913605 0.051380213
-0.015929522 -0.12796584 0.69920069 -0.059003953 0.99825627 0.0017044446 0.006422678
-0.13206124 -0.15433824 0.73150927 -0.55110645 0.41215023 0.72554386 0.037119884
-0.12529734 -0.28343624 0.74238646 -0.54407567 0.037201121 0.83821112 0.010895289
-0.01441398 -0.20983361 0.82811701 -0.62096477 0.096363783 0.77789259 0.012114724
-0.0021633559 -0.22557136 0.84477735 -0.27846414 0.16327736 0.94646627 0.063306369
-0.15073098 -0.16703765 0.72875178 -0.67365617 0.21462607 0.70719379 0.029943721
-0.030121878 -0.29903227 0.82416534 -0.57440323 -0.071780667 0.81541926 0.01275917
-0.15974164 -0.32997048 0.70879132 -0.96883416 0.23768514 -0.06975808 0.050504666
-0.08210212 -0.17085457 0.77667683 -0.57079482 0.086720571 0.81650037 0.01170508
0.0029132133 -0.30324161 0.84422892 -0.45049775 0.041145742 0.89182889 0.034978326
0.07272435 -0.12764919 0.77230895 0.78383756 0.39207807 0.48153257 0.074497491
0.061005775 -0.12757748 0.78458929 0.70900327 0.31446132 0.63121188 0.076402731
0.08269196 -0.42671856 0.77044666 0.71792924 -0.094757579 -0.68963659 0.0020544198
0.1388384 -0.27511919 0.69945389 0.83854252 -0.020393606 0.54445434 0.023063026
0.07449542 -0.12343578 0.76439798 0.29218113 0.93517226 0.20020747 0.08180318
0.10947331 -0.30204442 0.7369529 0.96631956 0.22366677 0.12727803 0.035660908
0.14037558 -0.41818467 0.70313001 0.81467563 0.016420472 0.57968444 0.032265808
0.12064875 -0.40515044 0.73236233 0.74205673 -0.20278926 0.63892758 0.02735286
0.08101134 -0.43113381 0.76986808 0.71792924 -0.094757579 -0.68963659 0.0020544198
0.081439316 -0.42257088 0.76901412 0.71792924 -0.094757579 -0.68963659 0.0020544198
0.078817487 -0.19457309 0.76630348 0.37491781 0.5933153 0.71232975 0.0097156009
0.12108172 -0.16409123 0.72331458 0.69922513 -0.0049188151 0.71488464 0.046664286
0.13902102 -0.19475871 0.70728278 0.89385778 -0.030193549 0.44733295 0.028665705
0.090846263 -0.18620241 0.75870258 0.37491781 0.5933153 0.71232975 0.0097156009
0.02271026 -0.22613661 0.83462679 0.34790951 0.027752213 0.93711728 0.039569575
0.1208313 -0.32627147 0.72587264 0.84932137 0.13847117 0.50939083 0.01268221
0.061527345 -0.1467987 0.7852295 0.78764272 0.17572498 0.59054184 0.075000614
0.1474181 -0.19584882 0.68821442 0.97593713 -0.025721453 0.21652971 0.054786425
0.14778115 -0.32899427 0.68666101 0.90799266 -0.11228407 0.4036603 0.049495537
0.050284799 -0.40455931 0.8072046 0.43368223 -0.8984738 0.068297364 0.00070854765
0.079646111 -0.1583748 0.7685951 0.77689457 0.17714366 0.60419774 0.02444263
0.1351226 -0.16827036 0.70643014 0.80000907 0.054210842 0.59753376 0.020095039
0.151282 -0.25908452 0.69113803 0.85352916 0.076436095 0.5154081 0.031714864
0.11288165 -0.29944107 0.73395395 0.87342715 0.027129944 0.48619854 0.027492231
0.13935789 -0.36131364 0.70514071 0.84808487 -0.29788497 0.43819708 0.013968137
0.12535349 -0.405321 0.72706628 0.7522276 -0.052045505 0.65684456 0.006026906
0.061999984 -0.13750117 0.78741086 0.78845507 0.18361565 0.58704686 0.074725203
0.085016273 -0.124889 0.71770358 -0.0045876363 0.99983519 0.017565021 0.015055104
0.11232553 -0.252893 0.72911364 0.39864635 0.25184384 -0.88184798 0.00070446439
0.1459675 -0.36739981 0.68400675 0.9497354 0.31280982 -0.012356762 0.11209273
0.0057250033 -0.18855816 0.84520048 0.24822283 -0.1426933 0.95813572 0.080010459
0.15430929 -0.39691356 0.68515712 0.83168012 0.047073681 0.55325592 0.048902676
0.1465036 -0.29689422 0.67889321 0.8912701 0.010282641 0.45335633 0.11793428
0.073675722 -0.34055021 0.78117597 -0.29355362 -0.91669405 -0.27110544 0
0.13451062 -0.24003749 0.7030412 0.8615635 0.15126225 0.48459053 0.01732249
-0.046226311 -0.12705594 0.59756517 0.065334484 0.99621814 0.057278324 0.014761823
0.0042352341 -0.22619887 0.84458417 -0.064709418 0.21317822 0.97486806 0.071755059
0.1296006 -0.2769132 0.71488768 0.70877838 -0.13614446 0.69216895 0.026104303
0.10476027 -0.12918805 0.73247737 0.38366944 0.91063213 0.15344991 0.063036174
-0.033489753 -0.12970816 0.68922389 -0.024416378 0.99961454 0.013215515 0.0096254572
0.14752643 -0.19965333 0.68144482 0.98458278 0.028984211 0.17250097 0.06444063
-0.0861855 -0.12985189 0.65454328 -0.19279487 0.97738367 -0.08689858 0.066318616
0.13535941 -0.31527299 0.70396852 0.82042581 -0.088469267 0.56486684 0.02727985
-0.13727088 -0.13642471 0.72891593 -0.44314381 0.36039397 0.82081652 0.055558078
0.14875121 -0.35339382 0.69195956 0.97503269 0.032785494 0.21962795 0.051166113
0.01275367 -0.26428211 0.84252489 0.10147764 0.040362962 0.99401861 0.026280016
0.012180339 -0.37051022 0.84121078 0.013009286 0.19561781 0.98059392 0.090320081
0.058759809 -0.1980295 0.79263377 -0.27485886 -0.33870569 0.89985055 0.038340364
0.01620692 -0.24035275 0.8436901 0.1011112 0.042953778 0.99394733 0.050072227
-0.054292072 -0.13241042 0.79612577 -0.22933984 0.86056703 0.45478305 0.051810808
0.15073708 -0.14761671 0.68952298 0.88128442 -0.26262978 -0.39289102 0.10013043
0.071265399 -0.1235095 0.63632393 0.054082137 0.99533308 -0.079919383 0.025951648
0.053011488 -0.12740065 0.72481745 -0.065320082 0.99774444 -0.015466178 0.017781891
0.075224921 -0.1461561 0.76466978 0.82044834 0.30049148 0.48638403 0.076177463
0.014156155 -0.29769784 0.84066927 -0.36525682 0.077031985 0.92771411 0.034744702
-0.029367764 -0.12856984 0.69115454 -0.024416378 0.99961454 0.013215515 0.0096254572
-0.084923543 -0.12797379 0.64787823 -0.17486171 0.97341508 -0.1479407 0.054049082
0.079017416 -0.12522846 0.66698664 0.00075120252 0.99988985 0.014825741 0.012280134
-0.015639318 -0.13135825 0.81880438 -0.17151783 0.96308815 0.20746793 0.047536105
0.1385161 -0.20093539 0.68789673 0.97590297 -0.026248459 0.21662021 0.049745083
0.15034533 -0.3642163 0.68628812 0.94740933 0.31686524 0.044854484 0.10703104
0.091195077 -0.12559435 0.75123155 0.36590186 0.83918685 0.40234488 0.052855432
0.15277693 -0.1324199 0.68816465 0.8401823 0.15404293 -0.51996589 0.062382258
-0.045022432 -0.1308994 0.77761757 -0.042038817 0.99577242 0.081670798 0.036633912
0.055406179 -0.1264127 0.69166052 -0.077257186 0.99568349 -0.051436368 0.011882817
0.020652408 -0.12684382 0.79558629 -0.11278544 0.99353117 0.013239624 0.010752412
0.14308029 -0.12611632 0.69521374 0.49908581 0.82796609 0.25570604 0.13301438
0.1362745 -0.31403691 0.69830197 0.85870481 -0.012977406 0.51230615 0.04897093
0.13993695 -0.24103768 0.70406622 0.85343915 0.10894822 0.50967813 0.017384056
0.14641628 -0.2574676 0.69573206 0.84609735 0.056566034 0.53001851 0.024322087
0.033833079 -0.1307729 0.70081431 -0.0024530953 0.99968725 0.024887046 0.0065479348
0.032197356 -0.127388 0.59588355 0.21559282 0.96538788 -0.14678511 0.033704773
0.12548889 -0.37234175 0.72730964 0.80837744 0.0272032 0.5880357 0.012557604
0.1217948 -0.1398814 0.71371478 0.77675295 0.48868972 0.39728737 0.10186242
0.1251245 -0.15523779 0.71498513 0.70143759 0.007361141 0.71269286 0.031642415
0.12691619 -0.21531765 0.71418625 0.73151034 -0.040114511 0.68064934 0.011770986
0.14669736 -0.29072106 0.69170409 0.84867471 -0.0067332084 0.52887243 0.062413581
-0.1623179 -0.13436127 0.71281922 -0.80929357 0.27030265 0.52151734 0.10512505
0.016464176 -0.12555295 0.70209336 0.1107026 0.99362528 -0.0213002 0.0099162702
0.061273638 -0.2566407 0.61284101 0.3119626 0.75653017 -0.57475346 0
0.064726204 -0.35700899 0.60394931 0.58019984 0.40934488 -0.70413405 0.033110842
0.059428666 -0.19142915 0.78977162 0.66991717 -0.41161039 0.61788988 0.024396572
0.15130477 -0.15066452 0.68702948 0.95604849 -0.041165765 0.29030454 0.094800383
0.03871705 -0.25795999 0.81154507 -0.38427496 -0.55998498 0.73399562 0
0.031822119 -0.12889735 0.82271618 -0.050916005 0.99691558 0.059723448 0.0086624743
0.017403919 -0.13087057 0.8090986 -0.054770805 0.99848711 0.0048562111 0.0090304445
0.10828383 -0.27399677 0.63927925 0.47892994 0.73781955 -0.47565588 0.0007824112
-0.0083295889 -0.12926351 0.80821288 -0.09146449 0.99504548 0.03897123 0.018589741
0.0046804738 -0.28139141 0.84640843 -0.22185652 0.037536494 0.97435659 0.020185744
0.0033407724 -0.18473198 0.55789745 0.60311157 -0.0051246448 -0.79764038 0.020091953
0.1159553 -0.15300231 0.72707307 0.53023738 0.09683653 0.84230095 0.017442912
0.13839857 -0.35731477 0.66363937 0.77747643 -0.32883936 -0.53609234 0.059112575
0.065261953 -0.2198443 0.60803932 0.64231509 -0.016238196 -0.76626861 0.00070146291
0.03611467 -0.40949151 0.57805562 0.63946289 -0.17351204 -0.74898654 0.038664877
0.12998503 -0.29658249 0.71082371 0.76907516 -0.01491634 0.6389842 0.018539818
0.049621299 -0.37506679 0.58307117 0.42350414 -0.79140311 0.44082355 0.0017020697
0.04702507 -0.1266176 0.66240168 0.04935801 0.99763644 0.047805149 0.020205729
0.093971215 -0.18650109 0.75524628 0.68350142 -0.12935562 0.71839607 0.016316149
0.056278348 -0.12620747 0.67353374 0.0021588576 0.9997943 0.020169364 0.01780072
0.055149611 -0.13933811 0.60273182 0.44869801 0.83838397 -0.30948743 0.027790315
0.11680752 -0.36903274 0.73285466 0.81354356 -0.00036216242 0.58150387 0.026514485
0.053962622 -0.17996472 0.60442919 0.52926332 0.22938983 -0.8168602 0.0049078702
0.1500738 -0.34604499 0.67154598 0.93526298 -0.055341203 -0.3496004 0.049902566
0.087434538 -0.22913326 0.62596953 0.5987817 -0.0018951915 -0.80091006 0.0024028288
0.04874295 -0.13031121 0.6000368 0.32229033 0.89340663 -0.31297508 0.048736814
-0.02870016 -0.1285734 0.59860337 0.022610424 0.99933553 0.028586132 0.010890785
-0.020636203 -0.41918835 0.54405844 0.028181957 0.24684392 -0.96864539 0.0095210653
0.11195858 -0.27343047 0.6440044 0.47892994 0.73781955 -0.47565588 0.0007824112
0.11117826 -0.13167167 0.65486705 0.013454673 0.9933539 -0.11431124 0.018730829
-0.01777829 -0.31417638 0.5394662 0.049564086 0.058536548 -0.9970541 0.088996544
-0.036133856 -0.13822426 0.55748135 -0.98073912 0.03251379 -0.1925974 0.087697141
-0.022023734 -0.32038748 0.53803366 0.48534316 -0.11817022 -0.8663013 0.023623006
-0.09028668 -0.13497987 0.62146509 -0.48037538 0.65868849 -0.57911038 0.077803068
-0.03044102 -0.1447686 0.54249108 -0.89225173 -0.0075456472 -0.45147535 0.074219875
-0.019170305 -0.19755776 0.53803849 -0.16290094 -0.16634956 -0.97251797 0.18434176
-0.1229596 -0.39033571 0.64731431 -0.80063057 0.22665685 -0.5546326 0.012751088
-0.03630694 -0.2456079 0.54445666 -0.71698719 -0.2536855 -0.64928663 0.055344146
-0.1216349 -0.36333159 0.65500742 -0.75470448 0.13740885 -0.64151376 0.015924012
0.087753288 -0.12847278 0.66060925 0.048939057 0.99852455 0.023533734 0.015233785
-0.014457633 -0.27083948 0.53626215 0.16026774 0.005013417 -0.98706084 0.077756643
0.077606633 -0.12854449 0.6298573 0.17942747 0.95332807 -0.24284014 0.028245367
-0.089010708 -0.2025995 0.61819351 -0.84489131 -0.029345933 -0.53413254 0.022230523
-0.031601701 -0.2879478 0.5441848 -0.60877222 0.011809424 -0.79325712 0.050263811
-0.1258699 -0.3258602 0.65156358 -0.76405245 -0.11613884 -0.63461465 0.0388478
-0.095439717 -0.36091599 0.61289209 -0.69723058 -0.073926352 -0.71302491 0.036970522
-0.1287957 -0.16159323 0.67043036 -0.82118046 -0.15007636 -0.55058128 0.074566677
0.002676524 -0.12975788 0.8230173 -0.10707496 0.97721452 0.18326688 0.043187309
-0.031352758 -0.36958379 0.53595525 -0.64067489 0.012386784 -0.7677123 0.057621259
-0.1561709 -0.18848971 0.68463278 -0.84115058 -0.055665594 -0.53792834 0.015023854
-0.14997576 -0.3223536 0.68801892 -0.9161073 -0.016126135 -0.40060875 0.040251646
-0.036142241 -0.38060665 0.55433279 -0.62084693 0.099472247 -0.77759522 0.066094145
-0.10277385 -0.1829669 0.63440746 -0.7849254 0.026247302 -0.61903411 0.02469296
-0.083351433 -0.3415463 0.59986359 -0.71907759 0.1519914 -0.6781047 0.02584549
-0.048251703 -0.23826545 0.56584293 -0.91616708 -0.29099226 -0.27561083 0.056447905
-0.085642762 -0.36963621 0.60144192 -0.71905482 -0.013654708 -0.69481921 0.023073159
-0.06990163 -0.40709051 0.57632595 -0.47419408 -0.79667288 -0.37476966 0.011019323
-0.02232586 -0.34039229 0.53696191 0.28763616 -0.066352785 -0.95543849 0.02238794
-0.029135689 -0.34613481 0.53942871 0.146642 -0.076794483 -0.98620427 0.054481465
-0.053059187 -0.3365795 0.56863284 -0.57972819 -0.31036499 -0.75338489 0.050889142
-0.11753955 -0.26615378 0.64112806 -0.71461123 0.061483786 -0.6968146 0.011522247
-0.095904946 -0.20733944 0.62547719 -0.73929644 0.054573059 -0.67116505 0.036264557
-0.069254085 -0.35231501 0.58341306 -0.74863303 0.071808718 -0.65908432 0.023831442
-0.023265069 -0.30026442 0.53779173 -0.093711384 0.0098300613 -0.99555087 0.094838731
-0.15963358 -0.16191486 0.70608872 -0.85297447 0.040638071 0.52036834 0.032006599
-0.049180891 -0.2965847 0.56432152 -0.39115986 -0.64556205 -0.65592957 0.023868101
-0.064179093 -0.17356403 0.59049869 -0.73745656 0.071096152 -0.67164218 0.04803402
0.034352489 -0.12602878 0.60445023 0.21337661 0.96313906 -0.16381006 0.039313279
-0.03137707 -0.36403269 0.54131699 -0.6038149 -0.014278557 -0.79699665 0.066924751
-0.10861407 -0.23026213 0.64421993 -0.83273154 0.050309885 -0.55138648 0.057907134
-0.068385206 -0.15682922 0.5805034 -0.59400147 -0.2098228 -0.77661872 0.074835092
-0.12558872 -0.22290121 0.65926278 -0.89234114 -0.048442487 -0.44875455 0.065689944
-0.12569644 -0.22440264 0.65777463 -0.89234114 -0.048442487 -0.44875455 0.065689944
-0.13621236 -0.32250351 0.65968734 -0.77153707 0.05300707 -0.63397223 0.044317976
-0.057745934 -0.16102368 0.58252096 -0.8642993 -0.058301177 -0.49958757 0.072025158
-0.085864127 -0.17193088 0.60144699 -0.67663574 -0.2354359 -0.69766331 0.039862279
0.054342669 -0.12707482 0.73429453 -0.029198142 0.99957341 -0.00067365955 0.024908509
-0.043994058 -0.13197769 0.71932828 -0.039232779 0.9955622 0.085538149 0.0085552018
-0.065229185 -0.15944035 0.58329427 -0.67535722 -0.03402609 -0.73670542 0.093329683
-0.022788215 -0.18346609 0.54056108 -0.10400099 -0.16408667 -0.98094821 0.14979975
-0.15396276 -0.31927451 0.69529557 -0.97959059 0.12578794 -0.15677923 0.063393459
-0.15402707 -0.41595817 0.6919266 0.3060689 -0.95191371 -0.013494718 0.071986631
-0.099357583 -0.41224414 0.62292421 -0.86640829 0.087151788 -0.49167189 0.023534913
-0.10259423 -0.38087457 0.62451136 -0.762151 -0.036485519 -0.64637041 0.015922457
-0.041763246 -0.37559065 0.55678046 -0.69182432 0.13569389 -0.70920116 0.062022816
-0.1233187 -0.21146572 0.66062886 -0.89322227 -0.095521182 -0.43935144 0.067464992
-0.065906666 -0.20428841 0.58180273 -0.67403221 -0.078516625 -0.73451734 0.091557041
-0.1574925 -0.20724812 0.69765568 -0.96266747 -0.016065087 -0.27020958 0.090986952
-0.037468001 -0.26267761 0.55403233 -0.56901878 -0.0030778039 -0.82231873 0.046738159
-0.11757002 -0.23191965 0.64946711 -0.86425585 -0.076291397 -0.49723372 0.068975121
-0.033426374 -0.14209943 0.55076891 -0.95603454 -0.058271457 -0.28740636 0.078147382
-0.1021215 -0.16944981 0.6374324 -0.78505337 -0.076917693 -0.61463386 0.029790284
-0.022830691 -0.28523374 0.53620112 -0.20030068 -0.027665626 -0.97934383 0.08619526
-0.050320651 -0.4079878 0.56220901 -0.635656 -0.10879437 -0.76426786 0.030903192
0.023889691 -0.127711 0.73031211 -0.043677706 0.9975456 0.054727435 0.016524268
-0.093947038 -0.2949675 0.61925519 nan nan nan nan
-0.14835721 -0.34790438 0.66842574 -0.84530115 0.048657816 -0.53206998 0.021573765
-0.1489232 -0.1298123 0.67202622 -0.27553061 0.7119562 -0.6459111 0.09388005
-0.14943039 -0.21799999 0.68833238 -0.88202089 -0.071451642 -0.46576163 0.028310854
-0.041255958 -0.2460123 0.54711992 -0.80511194 -0.29153228 -0.51653045 0.074355893
-0.12481996 -0.22817208 0.65785819 -0.82390183 0.094879918 -0.55873382 0.056337345
0.074380197 -0.12935686 0.72122353 -0.088230081 0.99607092 -0.0076289135 0.012843558
0.10253515 -0.12363108 0.69891852 0.12476869 0.98961902 -0.071322985 0.032684155
-0.1330348 -0.1550052 0.65686631 -0.75091285 -0.058952294 -0.65776479 0.067071937
-0.053983107 -0.19556239 0.5717988 -0.7168929 -0.052284554 -0.69522011 0.068595372
-0.016675627 -0.26338455 0.53958356 -0.046277333 0.10802977 -0.99306995 0.076168686
-0.094045021 -0.39131814 0.61267966 -0.75623232 -0.030481715 -0.65359282 0.016370354
-0.1212009 -0.15493624 0.65249091 -0.76797491 -0.057822008 -0.63786453 0.046720445
-0.035866451 -0.18837608 0.55781245 -0.63320029 -0.33114746 -0.6995703 0.032128047
-0.012098109 -0.30963027 0.54202026 0.30332252 0.013416868 -0.95279342 0.07971707
-0.071604058 -0.40419266 0.57739222 -0.34932604 -0.89913613 -0.26367703 0.011154048
0.032067996 -0.12499037 0.66166884 0.11009373 0.99242312 -0.054550279 0.014951837
-0.075862207 -0.36630729 0.59133953 -0.73431778 0.029634347 -0.6781587 0.029181117
-0.14878051 -0.18986285 0.68882519 -0.85902047 -0.096301176 -0.50280195 0.019355953
-0.096432425 -0.13189477 0.72944826 0.063502088 0.99388617 -0.09032058 0.012977291
-0.052231528 -0.20072317 0.56761748 -0.69922233 -0.064432807 -0.71199471 0.060843058
-0.05649554 -0.12357258 0.58127809 0.1458994 0.98801756 0.050346483 0.033086661
-0.14012501 -0.40139231 0.66710079 -0.72570562 0.23411521 -0.6469478 0.029508159
-0.10211764 -0.40869597 0.62649804 -0.82263261 0.0063064895 -0.56853831 0.020658279
-0.1372582 -0.37117061 0.67057192 -0.70641863 -0.078784816 -0.70339578 0.019187732
-0.11793467 -0.15897994 0.64931625 -0.69939482 -0.26497963 -0.66380179 0.041792031
-0.1188379 -0.35077992 0.64565629 -0.69344658 0.0081072534 -0.72046238 0.036643948
-0.02822827 -0.3285425 0.54235709 0.48360837 -0.11640804 -0.86750913 0.022243686
-0.083376803 -0.16680616 0.6017158 -0.68312675 -0.26894909 -0.6789729 0.0325456
-0.1635015 -0.16795211 0.70141667 -0.93482929 -0.25573903 0.24635695 0.046725366
-0.03491557 -0.24464042 0.5534727 -0.71698719 -0.2536855 -0.64928663 0.055344146
-0.02174497 -0.12729657 0.60073382 0.052071728 0.99810249 0.032861996 0.014466903
-0.1593298 -0.16264009 0.69842798 -0.98753095 -0.013682175 0.15682919 0.045227293
-0.13058725 -0.14821364 0.66339141 -0.69679195 0.087360471 -0.71193331 0.072104983
-0.12961692 -0.16797298 0.66826844 -0.70404565 -0.4498449 -0.54950827 0.056489024
-0.095235005 -0.14167278 0.62070251 -0.52349687 0.5415346 -0.65779281 0.055003319
-0.09566126 -0.14953005 0.62402153 -0.80993301 0.21612282 -0.54525179 0.059838317
-0.030614721 -0.2405178 0.53457922 -0.74949849 -0.31527105 -0.58211356 0.05996811
-0.058153201 -0.20657244 0.57868475 -0.57086593 -0.05061385 -0.81948173 0.12976743
-0.057065628 -0.368494 0.57589358 -0.67569721 0.11971948 -0.72739297 0.015566042
-0.058124479 -0.2103354 0.56936252 -0.76725811 -0.053638771 -0.63909143 0.070610762
-0.11859345 -0.2658309 0.63810265 -0.65412354 0.12003081 -0.74680316 0.012232661
-0.14239812 -0.24075718 0.67908853 -0.60548824 0.19992261 -0.7703343 0.014419206
-0.062301848 -0.15309824 0.58569068 -0.67963815 0.1712447 -0.71327925 0.074594364
-0.10343646 -0.32439435 0.62927413 -0.64731497 -0.47754121 -0.59408557 0.022569526
-0.13630506 -0.26647645 0.65722859 -0.76758862 0.020576466 -0.64061248 0.01538802
-0.1187698 -0.16448899 0.6504336 -0.75627726 -0.12728564 -0.64174998 0.045107257
-0.12786962 -0.209921 0.66727662 -0.71781105 -0.054899309 -0.69407016 0.090122201
-0.16156843 -0.28597051 0.69935393 -0.88406217 -0.30627447 0.35302982 0.02818859
-0.090183623 -0.26832119 0.60799551 -0.44655916 -0.29405877 -0.84505284 0
-0.025716737 -0.33278179 0.54067987 0.43487662 -0.052726634 -0.89894509 0.021681415
-0.13871735 -0.27135885 0.66344404 -0.73598593 0.057971492 -0.67451012 0.018995088
-0.089524977 -0.16356863 0.60735667 -0.8186444 0.056604657 -0.57150435 0.04782996
-0.041524071 -0.2293331 0.54496312 -0.78197795 -0.18778723 -0.59434539 0.092442162
-0.112494 -0.3575637 0.64025187 -0.78706062 0.13788651 -0.6012677 0.023563553
-0.045499347 -0.18350124 0.55862373 -0.59470022 -0.39950886 -0.69765627 0.041368514
0.0154926 -0.40958679 0.55219692 0.564619 0.12232294 -0.81623685 0.018975405
0.01187754 -0.31190491 0.55847919 0.46885696 -0.10572576 -0.87692374 0.014921916
-0.16113457 -0.20211948 0.70139122 -0.96266747 -0.016065087 -0.27020958 0.090986952
-0.050327651 -0.3373079 0.56409341 -0.84237051 -0.028177293 -0.53816158 0.023263084
-0.026418224 -0.2014977 0.53858572 -0.44482988 -0.0065715187 -0.89559096 0.10844054
-0.11863362 -0.2388353 0.64670914 -0.83722728 0.13203841 -0.53067535 0.030051775
-0.059257563 -0.1851909 0.57248044 -0.77431774 0.046929106 -0.63105434 0.04491419
-0.1350009 -0.40328389 0.64935273 -0.71553904 0.49132931 -0.49658766 0.034978006
-0.02820171 -0.1712018 0.53490388 -0.58992219 -0.038830437 -0.80652589 0.072629325
-0.045198608 -0.19181839 0.55481702 -0.70020288 -0.096488491 -0.70739377 0.049979832
-0.05949977 -0.1196759 0.58268678 0.14426194 0.98271227 0.11603913 0.039438069
-0.084284075 -0.14217563 0.62152988 -0.36200833 0.57900757 -0.73054785 0.063498445
-0.1480159 -0.36786962 0.67929578 -0.86857367 -0.093596466 -0.48664099 0.024574187
0.058019161 -0.1238461 0.77044493 0.251277 0.94515496 0.20866723 0.093886182
-0.02932569 -0.1270787 0.53736418 -0.80528355 -0.30492729 -0.50846612 0.05056281
-0.083202288 -0.1263313 0.62918061 -0.54670209 0.75364715 -0.36487386 0.076023534
-0.1520032 -0.1370822 0.67428678 -0.27553061 0.7119562 -0.6459111 0.09388005
-0.109637 -0.1427922 0.63214773 -0.78203988 0.20762013 -0.58762872 0.035036944
-0.14205199 -0.344538 0.67168051 -0.89557976 0.069577992 -0.43942672 0.021197347
-0.1247566 -0.37079671 0.65279531 -0.76602316 0.085522741 -0.63709843 0.015206578
-0.098806493 -0.3554444 0.60893768 -0.72639036 0.13160072 -0.67456532 0.056116808
-0.046004731 -0.1469522 0.55559582 -0.87372953 0.16721585 -0.4567664 0.097465269
-0.072710797 -0.2002587 0.58168048 -0.74952132 0.019861709 -0.66168219 0.066609509
-0.1205354 -0.3122074 0.63991141 -0.64810014 -0.44632888 -0.61705482 0.010956067
-0.034592651 -0.33474761 0.53898412 -0.50314599 0.05934453 -0.86216146 0.053672846
-0.13603903 -0.26240411 0.66356432 -0.72390079 0.20989159 -0.65720105 0.012373597
-0.069120035 -0.12924027 0.61988109 -0.24454749 0.86098599 -0.44598186 0.056691777
-0.022586677 -0.3574627 0.54388392 -0.55881774 -0.10246906 -0.82293546 0.058450006
0.022475511 -0.13098808 0.60124987 -0.03593085 0.99584007 -0.083734415 0.023369113
0.015981702 -0.12946272 0.75190115 -0.15837115 0.98587298 0.054524802 0.052606389
-0.1604151 -0.20733915 0.7101469 -0.91750497 0.31413472 0.24393442 0.14352527
-0.050711893 -0.13136181 0.78729212 -0.13007052 0.9639526 0.23211448 0.062513627
-0.15654573 -0.21460861 0.71283913 -0.89831465 -0.25972447 0.35436413 0.11474109
-0.11093104 -0.13264851 0.73426735 -0.18254322 0.93869066 0.2924684 0.058041543
-0.075861476 -0.12756258 0.63708872 -0.49290255 0.84196228 -0.21942352 0.06747999
0.0029976291 -0.12952885 0.74599773 -0.13015582 0.98890823 0.071554556 0.036492385
0.054088134 -0.12759861 0.67111588 0.010323338 0.99960214 0.026246447 0.015856646
0.081383832 -0.12634158 0.66978204 -0.02371276 0.99850613 -0.04922669 0.011867863
-0.044725236 -0.2094834 0.81046408 -0.65858954 -0.0046866536 0.75248778 0.016784757
0.047587641 -0.1297573 0.61406249 0.31396946 0.82554126 -0.46894017 0.032532755
-0.084315315 -0.12771991 0.76894087 -0.22884426 0.96254319 0.14539917 0.05976991
-0.1584336 -0.37579167 0.70589435 -0.9434883 0.23646778 -0.23219106 0.0036585242
-0.07798633 -0.2634725 0.78516382 -0.66892874 0.11856166 0.73381019 0.024602363
0.0011811829 -0.31280404 0.8466596 -0.46692041 0.21689726 0.85728699 0.045247879
-0.037890423 -0.12912463 0.6920709 -0.047181565 0.99748355 0.05291931 0.0083888303
0.007323429 -0.2742092 0.84792137 -0.1375144 0.05834166 0.98878002 0.029581673
-0.030144366 -0.2337832 0.82429773 -0.58646631 0.12766023 0.79985011 0.011398199
-0.16177286 -0.15704623 0.71697903 -0.81271529 0.062197492 0.5793317 0.028663844
-0.12614876 -0.29910952 0.74404293 -0.48865065 0.011703268 0.87240106 0.01278917
-0.065351687 -0.2284283 0.7946465 -0.74555266 0.18061033 0.64150691 0.026483292
-0.12811412 -0.30220175 0.74192083 -0.64978629 -0.00022299383 0.76011688 0.01441378
-0.061489329 -0.32518849 0.79507244 -0.6544956 0.023701956 0.75569421 0.017545899
-0.11413556 -0.20371011 0.75560278 -0.37180269 -0.061812028 0.92625165 0.014146396
-0.026186537 -0.12747009 0.59848684 0.026617002 0.99923229 0.028745739 0.010680046
-0.091024131 -0.13479465 0.73486984 0.047173858 0.99677467 -0.064921893 0.013890453
-0.01359988 -0.2354483 0.84194112 -0.52061093 0.1374004 0.84266567 0.02109425
-0.10580681 -0.16587535 0.76278871 -0.57627702 0.0057795066 0.81723404 0.0078903493
-0.13308364 -0.38626438 0.73654848 -0.67257571 0.010551766 0.73995298 0.01885017
0.0073770126 -0.35701624 0.85017461 0.013009286 0.19561781 0.98059392 0.090320081
-0.084828809 -0.19879745 0.77864939 -0.65824175 0.039953206 0.75174558 0.013788975
-0.10495537 -0.13127574 0.73901546 -0.099749357 0.94789571 0.30256215 0.086806335
-0.092071824 -0.14886223 0.77019423 -0.59969413 0.094141446 0.79467243 0.032188445
-0.10909244 -0.32872397 0.76058698 -0.70436454 -0.27292168 0.65527427 0.023595339
-0.13401344 -0.2391451 0.7372061 -0.71834421 -0.0069164871 0.69565356 0.010621791
-0.025457188 -0.29731578 0.82750815 -0.57957524 -0.053473983 0.81316233 0.013577139
-0.087184444 -0.40663442 0.77980584 -0.64588594 0.099874504 0.75687277 0.012747718
-0.13102464 -0.31761122 0.73997062 -0.70163137 -0.068850234 0.70920593 0.014656773
