# .PCD v0.7 - Point Cloud Data file format
VERSION 0.7
FIELDS x y z normal_x normal_y normal_z curvature
SIZE 4 4 4 4 4 4 4
TYPE F F F F F F F
COUNT 1 1 1 1 1 1 1
WIDTH 584
HEIGHT 1
VIEWPOINT 0 0 0 1 0 0 0
POINTS 584
DATA ascii
-0.1500084 -0.1376096 0.84228009 -0.20036237 0.97966009 -0.011009677 0.02199509
-0.13126484 -0.14025268 0.7028085 -0.049277082 0.99754941 0.049668286 0.012918169
-0.1900409 -0.3104955 0.85272288 -0.74109268 0.53563309 -0.40481958 0.035123914
-0.23089017 -0.36846584 0.7802071 -0.99941671 -0.034129705 0.0011485162 0.027569618
-0.2247211 -0.37834111 0.80215073 -0.9878459 0.12686603 -0.089808121 0.014274941
-0.22881684 -0.37216851 0.76806808 -0.71281791 -0.68656027 -0.14326745 0.035112098
-0.2293561 -0.37198961 0.7411285 -0.98864645 -0.037514694 0.14550163 0.064025253
-0.23576617 -0.41609201 0.82373571 -0.28166205 -0.47860849 -0.83162516 0.002453299
-0.21603531 -0.33843055 0.8473981 -0.6629824 0.74401665 -0.083027534 0.0084480057
-0.23449317 -0.41833329 0.82791626 -0.23652916 -0.4848088 -0.84202993 0.0018124536
-0.098479368 -0.13930987 0.81858617 -0.028944777 0.99946737 -0.01507319 0.011061651
-0.10276298 -0.13834234 0.85883653 -0.019743826 0.98693681 0.15989333 0.014838784
-0.15964024 -0.13850336 0.88951474 -0.31421104 0.79729378 0.51535815 0.14509174
-0.021460235 -0.13854526 0.82494402 0.017117579 0.99935484 -0.031572346 0.011752279
0.014562291 -0.13586435 0.70950574 -0.015280128 0.9994297 -0.030112008 0.015830478
0.025291294 -0.13686448 0.78139573 -0.0059627057 0.99992782 0.010433173 0.010433774
-0.13395521 -0.13917154 0.83211076 -0.049554396 0.99747264 0.050919171 0.015261865
-0.038251631 -0.1379628 0.78341138 -0.0033957504 0.99983466 -0.0178634 0.0072068986
-0.0071767159 -0.14045437 0.59905875 0.068764865 0.99762332 0.004368763 0.011372521
-0.026333483 -0.14304218 0.69336849 -0.013544947 0.99927437 -0.035597708 0.011089087
-0.0056703892 -0.14083098 0.79216135 -0.0090823788 0.99990404 -0.010470626 0.0071486342
-0.18426967 -0.14399318 0.75262052 -0.38976541 0.92084736 0.0110927 0.06602025
-0.039071832 -0.13982952 0.81941503 -0.016613796 0.9987545 -0.047047686 0.011092434
-0.24206813 -0.33637759 0.56725878 -0.94080883 0.30470836 0.14843053 0.052614246
-0.0082997894 -0.13711803 0.80926305 -0.0082961405 0.99978095 -0.019213172 0.0084822038
0.012499276 -0.14018488 0.8140679 -0.0074355854 0.9999724 -0.00014487932 0.0093244528
-0.024005571 -0.14339033 0.54133314 0.10148773 0.99477893 0.010734092 0.019686924
-0.041479256 -0.13847364 0.82244444 -7.4253141e-05 0.99827278 -0.05874943 0.011292912
-0.14546806 -0.1380045 0.89876467 0.021120382 0.45018795 0.89268398 0.070520625
-0.10040014 -0.14009087 0.59381557 0.035453167 0.99910146 -0.023222743 0.01108519
-0.029335802 -0.13970746 0.89341545 0.065516166 0.30492383 0.95012051 0.043987863
0.078656875 -0.14458022 0.73271233 -0.0447791 0.99249446 -0.11379652 0.015015251
0.040161256 -0.13930044 0.83847201 -0.037379894 0.99898231 0.02524041 0.014089734
-0.013895393 -0.13862172 0.79240835 -0.0091468254 0.99981338 -0.017015124 0.0071002832
-0.11311131 -0.14344877 0.58815086 0.075432137 0.99496847 -0.06593775 0.0089669302
0.0082441689 -0.1415448 0.72028083 -0.010190472 0.99971908 -0.021395033 0.012394621
-0.022320548 -0.14326186 0.89233178 0.039035302 0.28357652 0.9581548 0.049059816
-0.12388869 -0.13961582 0.58105201 0.068338096 0.9872272 -0.14391783 0.0099374931
-0.012127711 -0.13913912 0.67874992 -0.029624127 0.99920619 -0.026633061 0.011215531
-0.094545402 -0.13339232 0.73718613 0.020605795 0.99783128 0.062515125 0.013996574
0.14721911 -0.1319609 0.86860919 0.14286067 0.91193092 0.38467228 0.049732972
-0.016611692 -0.31309956 0.51872653 0.08568956 -0.99560231 0.037859075 0.033927135
-0.020649286 -0.49590528 0.46492574 0.36142963 -0.27502888 -0.8909139 0.0092109051
0.014971107 -0.15738969 0.50862151 0.55481136 0.8148002 0.16818163 0.02009262
-0.035245441 -0.49578363 0.45617625 0.36525854 -0.28206313 -0.88714516 0.024001742
0.077908106 -0.31141025 0.53693622 0.44775313 -0.7100116 0.54350764 0.054565735
0.1661272 -0.2306136 0.49351919 0.14170089 0.098006189 -0.98504603 0.018291146
0.11412284 -0.38618368 0.45594636 -0.028923329 0.23847322 -0.97071826 0.012602267
0.0033952368 -0.45599866 0.46410009 -0.035880912 0.1337318 -0.99036777 0.024608206
0.094881266 -0.3163698 0.52361041 0.5624944 -0.65725386 0.50161487 0.042648327
0.0258462 -0.44915083 0.47264111 0.030482994 0.28278947 -0.9586975 0.025666475
-0.1073022 -0.3157717 0.52418947 0.1244728 0.63085598 -0.7658506 0.024058817
0.0063568675 -0.31267807 0.53168195 0.062801249 -0.99627233 0.059138998 0.019710898
-0.0088429367 -0.31435609 0.51211476 0.10254527 -0.96724486 0.23221084 0.094437867
0.02875351 -0.47493669 0.4675763 0.017545106 0.30357048 -0.95264751 0.029694472
0.119974 -0.14156289 0.60830528 0.0035001044 0.9999516 -0.0091987746 0.0066661309
0.081151322 -0.1405178 0.64484036 -0.06144711 0.99760264 -0.031831328 0.0080135465
0.1078675 -0.1427023 0.54835641 -0.0002633844 0.99965024 -0.026440393 0.0046745478
0.15752517 -0.22840843 0.48726109 0.10498199 0.11339703 -0.98798776 0.017926726
-0.12705651 -0.13619381 0.72097296 -0.068005718 0.99484152 0.075268961 0.02832569
-0.10146975 -0.13620399 0.73846138 0.0019572438 0.99824065 0.05926143 0.012082716
-0.18228142 -0.1380225 0.651586 -0.40169823 0.91528857 -0.029757462 0.066982567
-0.09714704 -0.142648 0.59584242 0.035453167 0.99910146 -0.023222743 0.01108519
0.025773324 -0.44595674 0.47426561 0.030482994 0.28278947 -0.9586975 0.025666475
-0.039183393 -0.50226021 0.45839435 0.35891977 -0.42818859 -0.82935578 0.037711922
0.018637575 -0.13530974 0.77480429 -0.021150427 0.99973327 -0.0092780553 0.0089642424
-0.076884761 -0.43333006 0.47575206 0.0040910277 0.19446568 -0.98090076 0.010742692
-0.065638907 -0.14011461 0.71270901 0.047475878 0.99864733 -0.021204086 0.0084901052
-0.045990903 -0.4447487 0.46980202 -0.098252632 0.2303898 -0.96812546 0.0047797295
0.017862473 -0.14039676 0.67027187 -0.059317864 0.99740607 -0.040773742 0.017592166
0.086935796 -0.33895403 0.4689278 0.041337825 0.74881357 -0.6614902 0.044740926
0.017085396 -0.3156195 0.51233727 0.058229499 -0.98230749 0.1779923 0.07872878
0.02852864 -0.4761619 0.46461189 0.017545106 0.30357048 -0.95264751 0.029694472
-0.099758759 -0.2427053 0.56837952 -0.89878261 -0.2581526 0.35432634 0.027327277
-0.048282962 -0.4157925 0.48150709 -0.050407887 0.23880222 -0.96975905 0.0093548242
0.022525916 -0.38507238 0.46472019 -0.028798159 0.26438293 -0.96398771 0.01376653
0.1571376 -0.4023118 0.45637771 0.045984942 0.14764833 -0.98797029 0.0016241956
0.17598067 -0.24877085 0.48206052 0.13596676 0.080284201 -0.98745507 0.019261904
0.085777871 -0.30620751 0.54469001 0.4760817 -0.66103339 0.57998365 0.053219344
0.13471629 -0.34807274 0.4683744 -0.046347734 0.2333989 -0.97127593 0.0072792829
0.056685109 -0.46767163 0.46102929 -0.12222046 0.29453453 -0.94779295 0.047430784
-0.01631391 -0.30884889 0.5814448 0.085079163 -0.993698 0.072978117 0.02833336
-0.15797912 -0.31782794 0.50915104 0.21635224 0.58610725 -0.78081369 0.031319194
-0.1314404 -0.1574042 0.51115656 -0.067028448 0.66852605 -0.74066198 0.15821768
-0.11843735 -0.2303049 0.55756944 0.76776719 0.068107501 -0.63709885 0.026616206
-0.10526642 -0.41127643 0.48245272 0.0089927744 0.11479433 -0.99334866 0.015226698
0.0054881112 -0.31680205 0.50616139 0.10254527 -0.96724486 0.23221084 0.094437867
-0.058174115 -0.13927999 0.62893277 -0.028917633 0.99628013 -0.081177413 0.0051592677
0.1731922 -0.34121889 0.46427181 -0.0037696438 0.036270339 -0.99933493 0.0071185362
0.0054577682 -0.31059411 0.5830729 -0.035954196 -0.94096327 -0.33659375 0.012998407
-0.111844 -0.2292698 0.56324917 -0.89876938 -0.25822216 0.35430911 0.027324915
0.12053676 -0.29037184 0.52350193 0.6173026 -0.63992333 0.45764133 0.057877492
0.1097136 -0.30934721 0.51495987 0.5624944 -0.65725386 0.50161487 0.042648327
0.01181033 -0.31305718 0.50378817 0.058229499 -0.98230749 0.1779923 0.07872878
-0.14771576 -0.44495219 0.47771686 -0.16229469 0.089199118 -0.98270237 0.016668621
0.11203852 -0.23212656 0.53167617 -0.17314066 -0.82834923 -0.53278506 0.003290805
0.076902263 -0.31122503 0.54418778 0.018239209 -0.99884194 0.044519845 0.015428654
0.16444109 -0.2623705 0.49078089 0.11769419 0.035640024 -0.99241018 0.028120276
-0.1203017 -0.34419414 0.49016625 0.16701293 0.77456021 -0.61005187 0.019629486
0.0076753101 -0.34103879 0.48069781 -0.0084328325 0.51506174 -0.85711169 0.01820438
-0.11469027 -0.40371022 0.47747236 0.041671552 0.099555388 -0.99415904 0.0089940559
-0.15200587 -0.17286244 0.51899737 0.00053313159 0.87993217 -0.475099 0.092846103
0.078255683 -0.2444849 0.56028092 -0.17314066 -0.82834923 -0.53278506 0.003290805
-0.14147371 -0.28524902 0.5361985 0.36074805 0.46582887 -0.80800027 0.020682644
0.096039221 -0.31605861 0.51536357 0.53380805 -0.7618531 0.36691788 0.033169508
-0.19960043 -0.35465282 0.48700801 -0.30791086 0.26232806 -0.91453528 0.011494072
0.081380501 -0.24415749 0.56627011 -0.11765573 -0.86137962 -0.49414796 0.0038965237
0.10847327 -0.22539428 0.52567255 -0.31552982 -0.67351979 -0.66843998 0.0012291815
0.11851818 -0.28759563 0.52540088 0.6173026 -0.63992333 0.45764133 0.057877492
0.19440322 -0.35929531 0.46283662 0.41750699 -0.023254402 -0.9083761 0.045751359
-0.16527666 -0.1556309 0.52204788 0.03088513 0.87504745 -0.4830507 0.072999582
0.0076678819 -0.14207232 0.65795356 -0.049783211 0.99686295 -0.061528113 0.0200403
-0.14891906 -0.17211376 0.52119339 0.00063315907 0.87993884 -0.47508657 0.092803702
0.016957434 -0.15895307 0.51190025 0.55481136 0.8148002 0.16818163 0.02009262
-0.15840845 -0.1664304 0.51425606 0.017593648 0.86685818 -0.49824423 0.083787926
-0.1418508 -0.15439069 0.51949632 0.031051369 0.87511009 -0.4829267 0.072991058
-0.02951036 -0.36822921 0.47679761 -0.0591412 0.20187689 -0.9776237 0.013447026
-0.09996374 -0.1400706 0.71332133 0.02436295 0.99968964 -0.0052002389 0.014428632
-0.018796859 -0.29135841 0.62827122 nan nan nan nan
0.16283204 -0.14064117 0.7884196 0.22395834 0.95240825 0.20678779 0.0061250851
0.061163239 -0.1385313 0.88325751 0.069830179 0.99165696 0.10835255 0.019595837
-0.013203434 -0.13861747 0.67934084 -0.024444407 0.99918818 -0.03202296 0.010704307
-0.16174375 -0.14004698 0.62792534 -0.041738309 0.99910158 0.0073421029 0.010972078
0.044330411 -0.13806073 0.77830142 0.014032628 0.99989313 -0.0040955492 0.012952906
0.15633596 -0.14088678 0.70895946 0.031209469 0.97698164 -0.21102813 0.014464607
-0.10007152 -0.13900186 0.74689823 0.0098518124 0.99750501 0.069905244 0.013426906
-0.052200481 -0.13815455 0.83271199 0.012032251 0.99636972 -0.084276862 0.0078145955
-0.1424997 -0.1441109 0.84108102 -0.043528918 0.99827111 0.039497722 0.013750401
0.020892208 -0.1416138 0.82943439 -0.010085262 0.99943662 0.032012682 0.011305509
0.031745549 -0.13603181 0.79500669 -0.0038000878 0.99960715 0.027771054 0.0094076516
0.1726283 -0.1362652 0.84471297 -0.010024898 0.99992669 -0.0067970157 0.014981897
0.03326942 -0.1330995 0.84834272 -0.045225699 0.99822265 0.038809109 0.016885163
0.11896351 -0.13615641 0.71920252 -0.065461032 0.98666149 -0.14904384 0.013659267
-0.023228794 -0.137808 0.72100294 -0.0057080821 0.99981844 -0.018179409 0.0069954144
-0.1080579 -0.13635109 0.58635259 0.042793296 0.99835449 -0.038171776 0.0097414618
0.014488399 -0.14236885 0.66410959 -0.033687092 0.99702865 -0.069274716 0.01750599
0.083609588 -0.13901959 0.64100564 -0.064742781 0.99769622 -0.02026926 0.0071616601
0.083358623 -0.14354406 0.73981458 -0.030547783 0.99771732 -0.06022409 0.012851102
0.1101062 -0.3091073 0.51138812 0.5624944 -0.65725386 0.50161487 0.042648327
0.11573108 -0.28333893 0.52135217 0.6173026 -0.63992333 0.45764133 0.057877492
0.15598419 -0.2277866 0.48118991 0.10498199 0.11339703 -0.98798776 0.017926726
0.11803887 -0.28658411 0.52030265 0.64911169 -0.63566446 0.41783345 0.061830882
0.10699898 -0.22727045 0.531349 -0.17314066 -0.82834923 -0.53278506 0.003290805
0.10970253 -0.22901161 0.53001177 -0.17314066 -0.82834923 -0.53278506 0.003290805
0.1634158 -0.25811669 0.4879317 0.11769419 0.035640024 -0.99241018 0.028120276
0.086975835 -0.34215578 0.47161612 0.013725104 0.5565297 -0.83071434 0.063067958
0.11336288 -0.38997504 0.45650932 0.034464072 0.31368324 -0.94890201 0.0078573097
0.19299017 -0.35763541 0.46247596 0.41750699 -0.023254402 -0.9083761 0.045751359
-0.13396697 -0.27696756 0.53352493 0.39839467 0.46126339 -0.79279119 0.013569362
-0.13056912 -0.2755906 0.53608698 0.38056329 0.45222709 -0.80663639 0.020344373
-0.11314791 -0.22640362 0.55528408 -0.89878666 -0.25814927 0.35431832 0.027348703
0.020551637 -0.31137651 0.51578432 0.058229499 -0.98230749 0.1779923 0.07872878
0.0045336615 -0.31228122 0.50069767 0.10254527 -0.96724486 0.23221084 0.094437867
-0.023214186 -0.48620024 0.45851642 -0.11914313 0.13164364 -0.98411125 0.020803092
-0.10188619 -0.40569395 0.4756988 -0.036322083 0.058490139 -0.99762696 0.012937143
-0.067117006 -0.35373768 0.47877201 -0.2077025 -0.91049552 -0.35757163 0.0086425683
-0.070434101 -0.35408738 0.47702959 -0.24840683 -0.86852723 -0.42889923 0.0098010786
0.059700396 -0.46660313 0.45775315 -0.12741256 0.32017434 -0.93875152 0.031539697
-0.15457234 -0.31376526 0.50446206 0.10418226 0.62188661 -0.77614629 0.028008692
-0.0097533362 -0.45515499 0.45796761 -0.014329574 0.16322674 -0.98648453 0.017278336
0.026544355 -0.43697661 0.46826088 -0.012861226 0.12061897 -0.99261552 0.022653092
0.027690951 -0.46962291 0.4527353 0.017545106 0.30357048 -0.95264751 0.029694472
-0.11942331 -0.47972667 0.46397847 -0.5189923 -0.076508075 -0.85134798 0.016709656
-0.14651926 -0.43931571 0.46964911 -0.032723017 0.20943363 -0.97727525 0.010232753
0.1824719 -0.25940201 0.48552299 0.19693451 0.035611339 -0.97976971 0.015341196
-0.017570119 -0.30527559 0.57242757 0.010817319 -0.99238807 0.12267473 0.013604332
-0.01820376 -0.31028077 0.51600957 0.066843443 -0.99214691 -0.1057189 0.031655449
-0.11640082 -0.40286714 0.47693175 0.028561236 0.085914075 -0.99589306 0.0074707251
0.092259906 -0.31030095 0.50667703 0.538701 -0.75649309 0.37083626 0.018964976
-0.1009403 -0.2424411 0.56418478 -0.89876938 -0.25822216 0.35430911 0.027324915
-0.13004749 -0.15719461 0.51055026 -0.067028448 0.66852605 -0.74066198 0.15821768
-0.0098815076 -0.4231025 0.46840709 -0.073494822 0.081832714 -0.99393255 0.016122028
-0.14393708 -0.16373464 0.5141679 -0.0061500873 0.86391777 -0.50359535 0.13049509
-0.16639173 -0.3736991 0.47649261 -0.2437477 0.17510338 -0.9539004 0.0086241467
-0.2113018 -0.47958711 0.4706594 -0.35187274 0.1291125 -0.9271006 0.0055849086
0.2069647 -0.3669908 0.46526501 0.5129897 0.12190413 -0.84969455 0.041290175
-0.18944722 -0.51536077 0.46027336 -0.5564959 -0.0066732299 -0.83082348 0.0042841677
-0.14126754 -0.44129708 0.47418296 -0.044339046 0.21810809 -0.97491682 0.012826167
-0.2046674 -0.23244371 0.51646608 -0.95092672 0.14647917 -0.27254769 0.037013248
0.1536794 -0.40352371 0.4534339 0.045984942 0.14764833 -0.98797029 0.0016241956
-0.1156655 -0.2224638 0.54467922 -0.50391477 -0.76580298 -0.39951944 0.020894725
-0.20447791 -0.42357799 0.47595641 -0.44276217 0.49316937 -0.74882948 0.013916668
-0.1843987 -0.4122096 0.47145429 -0.12129012 0.063816682 -0.99056351 0.010797142
-0.119865 -0.46138009 0.4591566 -0.025325961 0.21427754 -0.97644448 0.013784245
-0.025852468 -0.49421659 0.46470997 0.38877976 -0.27808473 -0.87836164 0.0098442575
-0.02533037 -0.36474761 0.47641021 -0.060541216 0.21255144 -0.9752726 0.011451853
0.18380746 -0.1429816 0.5125345 0.88349336 0.39427167 -0.2529611 0.057511158
0.061278839 -0.4498533 0.46067941 -0.12222046 0.29453453 -0.94779295 0.047430784
0.20196395 -0.31003723 0.7245447 0.047737528 -0.98947257 0.13662061 0.023089839
0.2090421 -0.3000626 0.73363698 0.22120436 -0.93594211 0.27400911 0.032126211
0.1797578 -0.31226629 0.69349402 0.031461086 -0.99496782 0.095127836 0.024132617
0.2500993 -0.42684299 0.79391652 0.99782795 0.05718844 -0.032691631 0.0065119262
0.25384599 -0.40395609 0.85742652 0.97791773 0.20857903 -0.01310538 0.0049037198
0.13904589 -0.29843009 0.75240052 -0.39639372 -0.66784263 0.62996686 0.051365118
0.15291791 -0.26392218 0.77584201 -0.41117147 -0.34943759 0.84192121 0.017509753
0.1910881 -0.18415 0.50629562 0.92338866 0.26189446 -0.28065032 0.055191491
0.18727463 -0.1686935 0.49934992 0.92342961 0.26187453 -0.28053415 0.055202048
0.2294713 -0.31312171 0.69001812 0.034336872 -0.98787642 0.15139703 0.018803123
0.25320071 -0.3491109 0.87950212 0.99249554 0.11321872 -0.046196718 0.0043126196
0.233187 -0.3153955 0.67640978 0.23940834 0.95348597 -0.18316168 0.0012339065
0.25138569 -0.45078534 0.82988274 0.69547951 0.60193455 0.39240667 0.00022581816
0.24911456 -0.37003943 0.81128484 0.98423141 -0.17674902 -0.0069407402 0.012681162
0.24861661 -0.38150191 0.86730379 0.99472123 0.087711222 -0.053258918 0.008282722
0.24195769 -0.31672201 0.80420947 0.52668345 0.84860522 0.049735501 0.0045956047
0.2470527 -0.4262912 0.77752721 0.99917364 0.036356911 0.018171702 0.0063990406
0.11667664 -0.2866874 0.7554161 0.50929701 0.57880431 -0.63686895 0.04945299
0.1233587 -0.29994211 0.69731778 0.93058872 -0.14495493 0.33614382 0.03045935
0.25284091 -0.41711819 0.76837242 0.99130219 0.084257253 -0.10109729 0.005874672
0.20109951 -0.30771405 0.71596873 0.047737528 -0.98947257 0.13662061 0.023089839
0.25099599 -0.38256359 0.85383493 0.99666011 0.078456998 -0.022654515 0.0033608926
0.2506876 -0.37930927 0.79919875 0.99678034 -0.018485829 0.078020543 0.0055427407
0.11941376 -0.30198956 0.71388745 0.50482267 0.83815384 -0.20652421 0.025834512
0.16398641 -0.1400055 0.71433324 0.031386755 0.97561407 -0.21723746 0.015368005
-0.0089018466 -0.14412238 0.67709154 -0.039082464 0.9988535 -0.027643243 0.012789932
0.11835708 -0.13542955 0.73154026 -0.064325064 0.98320073 -0.17081754 0.014385753
-0.0080076093 -0.13656442 0.59796846 0.0065415879 0.99965185 -0.025561975 0.01183716
-0.00096474047 -0.13847284 0.70218515 -0.048908874 0.99779224 -0.044928994 0.012741937
0.15638112 -0.14258496 0.70806551 0.031209469 0.97698164 -0.21102813 0.014464607
0.052704584 -0.14255431 0.6070022 -0.074258871 0.99404401 -0.079762213 0.01439004
-0.0067072613 -0.13952589 0.59888774 0.068764865 0.99762332 0.004368763 0.011372521
-0.072785214 -0.14075097 0.60533798 0.00078473287 0.99849087 -0.054910988 0.0059296885
0.015734592 -0.30938372 0.50389856 0.058229499 -0.98230749 0.1779923 0.07872878
-0.012200734 -0.31607422 0.5122683 0.10255611 -0.96722865 0.23227371 0.094441019
-0.021367891 -0.3150188 0.5322144 0.035698298 -0.9973079 0.064050041 0.017254297
0.17438313 -0.13479784 0.69846761 0.3578963 0.91786665 0.17155503 0.024300545
-0.099068254 -0.1383491 0.59418321 0.035453167 0.99910146 -0.023222743 0.01108519
0.011723551 -0.15719765 0.50407708 0.56581724 0.77341723 0.28579113 0.012437511
-0.03087146 -0.13590761 0.73478419 -0.0060468391 0.99950153 -0.030985571 0.0078636352
0.095444612 -0.31199205 0.51474577 0.53380805 -0.7618531 0.36691788 0.033169508
-0.0077615702 -0.13680521 0.74214339 -0.029765058 0.99936819 -0.019426221 0.0066975956
-0.02206069 -0.1428865 0.59489459 0.029621338 0.99949694 -0.011330897 0.0069929119
0.19878182 -0.18768983 0.5378387 0.96728647 0.13652372 -0.21381786 0.025455108
-0.18305181 -0.14238359 0.77023268 -0.38962936 0.92090207 0.011330249 0.06603989
-0.023014087 -0.14045803 0.68010008 0.0049067922 0.99979901 -0.019438198 0.0093908105
0.2111325 -0.1384442 0.86430848 -0.35152367 0.28839955 0.89064962 0.0093863662
-0.14767857 -0.14077084 0.8432911 -0.18501399 0.98271036 -0.0070876819 0.02200854
-0.057688538 -0.13821816 0.74924731 0.0094989855 0.99986577 -0.013347494 0.0059010219
-0.071969137 -0.13754606 0.72729915 0.025676964 0.9996084 -0.011125076 0.008868278
0.17108904 -0.14223379 0.52302271 0.71069157 0.6898402 -0.13797837 0.098402746
-0.048878644 -0.14000748 0.62788254 -0.016567657 0.99732846 -0.07114388 0.0056982581
-0.18059762 -0.14307973 0.75294793 -0.38976541 0.92084736 0.0110927 0.06602025
-0.028968329 -0.14049248 0.57312095 0.047138285 0.99855357 -0.02586049 0.010917997
0.0080519179 -0.31371492 0.53008896 0.0744306 -0.9966808 0.032975446 0.022017065
0.16526838 -0.2253287 0.48966312 0.14166486 0.098032482 -0.98504859 0.018199544
-0.028809009 -0.14249972 0.55023539 0.04843029 0.99871129 -0.015172182 0.017293118
0.1631058 -0.14155941 0.84714508 0.39751244 0.82121778 0.40937161 0.071140885
-0.097964071 -0.13798483 0.82019103 -0.029054195 0.99953568 -0.0091804564 0.01074477
-0.050111622 -0.13625589 0.89692897 0.036375362 0.35028699 0.93593585 0.064914234
-0.072007976 -0.1390038 0.89891809 -0.13099733 0.93883419 0.31848085 0.029263005
0.016470335 -0.13845682 0.65880746 -0.0072159991 0.99785131 -0.065121293 0.018238662
0.1248365 -0.1522709 0.4968726 -0.075164646 0.9678877 -0.23988278 0.00060564256
0.0059084641 -0.14113069 0.65025133 0.022593521 0.99853933 -0.049079746 0.016247272
-0.1619269 -0.14035304 0.6213423 -0.063318215 0.99785995 0.01631972 0.0091419648
-0.025578402 -0.14749031 0.55569077 0.045885257 0.99835092 -0.034496419 0.012595404
0.11673684 -0.14141466 0.60358495 0.014148089 0.99981308 -0.013180872 0.0084241666
0.083896928 -0.14048792 0.59585422 -0.04446815 0.99829376 -0.037844233 0.0081651947
0.011798869 -0.14116403 0.65349531 -0.013207584 0.99679852 -0.07885664 0.02004566
0.065166466 -0.13867025 0.75740945 0.014568986 0.99848902 -0.052985009 0.017334057
-0.1022599 -0.14319539 0.74655348 0.01179883 0.99707747 0.07547988 0.013224958
-0.041553903 -0.13854457 0.79574752 -0.010212133 0.99967772 -0.023238717 0.0074041937
0.1161657 -0.14083271 0.54201341 0.061994322 0.98323458 -0.17148353 0.020695847
0.1497972 -0.14261867 0.57409132 0.059872717 0.99330598 -0.098784961 0.02721969
0.035409652 -0.13972449 0.86209828 -0.11438859 0.98929781 0.090582371 0.016256703
0.068633564 -0.13737144 0.7923618 -0.03768919 0.99881893 -0.030663628 0.0076863938
0.044083644 -0.13643745 0.83565962 -0.038497675 0.99916357 0.013785569 0.014000352
0.0083882734 -0.30859622 0.50092721 0.10255652 -0.96722847 0.23227403 0.094441034
0.02177499 -0.3116014 0.51985002 0.075496703 -0.99672288 0.029047957 0.028177159
-0.0031820205 -0.45152825 0.45896295 -0.02525869 0.14954279 -0.98843259 0.022151763
-0.038656738 -0.14022146 0.62664646 -0.0040819254 0.99796104 -0.06369523 0.0043627829
0.073004872 -0.14031476 0.6404835 -0.053654991 0.99683249 -0.058703966 0.012817451
0.081719056 -0.13812687 0.6299206 -0.090370953 0.99548715 -0.028957037 0.010104937
0.04884243 -0.14336571 0.74259138 0.10597295 0.99383986 -0.032437105 0.020222504
0.059048977 -0.13601895 0.87717593 -0.0092852376 0.99586868 0.090328544 0.020734834
-0.030596673 -0.13292609 0.56945652 0.058118664 0.99770552 -0.034725934 0.015129078
0.083642051 -0.14312005 0.73983252 -0.030547783 0.99771732 -0.06022409 0.012851102
-0.043764744 -0.13878243 0.5598309 0.090750821 0.99554932 -0.025413085 0.026084118
0.021651119 -0.13960686 0.81879342 -0.014627121 0.99973238 0.017920958 0.0097522549
0.0098243896 -0.13550197 0.66669375 -0.076630734 0.99618548 -0.041740716 0.018348427
0.085601054 -0.3093625 0.53933269 0.4760817 -0.66103339 0.57998365 0.053219344
-0.021145169 -0.14113086 0.53580618 0.29994538 0.95369959 0.022132935 0.017144118
-0.06758634 -0.13872252 0.60639131 0.00029783649 0.99684918 -0.079319328 0.0048580091
0.02689405 -0.14013219 0.64962739 -0.063556418 0.99333423 -0.096165285 0.013429474
0.070841812 -0.13881177 0.62761956 -0.073639922 0.99253899 -0.097177647 0.015984025
-0.089884572 -0.14501093 0.59166151 0.058803834 0.99474126 -0.08385621 0.010095529
-0.0069250977 -0.13677919 0.72766882 -0.028565202 0.99938291 -0.020439727 0.0097213918
-0.040295091 -0.13966204 0.55630112 0.091863677 0.9957642 0.0038295689 0.025349481
-0.033454973 -0.49153641 0.45424843 0.36525854 -0.28206313 -0.88714516 0.024001742
0.04124203 -0.12519585 0.75029826 0.10163111 0.99435735 -0.030403687 0.01949193
-0.060794376 -0.1404147 0.69118774 0.034827668 0.99931401 0.012595985 0.0089067928
-0.010019137 -0.13940868 0.69432884 -0.022740133 0.99914831 -0.034431882 0.010952296
0.071271129 -0.31399301 0.53985637 0.018239209 -0.99884194 0.044519845 0.015428654
-0.11248337 -0.14362942 0.87404788 0.051054779 0.98567021 0.16077237 0.031763896
-0.13478261 -0.13440292 0.83824426 -0.037923682 0.99854028 0.038458053 0.014596433
0.10884568 -0.31166902 0.51656437 0.5624944 -0.65725386 0.50161487 0.042648327
-0.15401138 -0.31482297 0.50597537 0.10418226 0.62188661 -0.77614629 0.028008692
-0.12431553 -0.4747456 0.46493712 -0.48973605 -0.092734367 -0.86692494 0.020753494
-0.076641463 -0.1535341 0.51047778 nan nan nan nan
-0.1707592 -0.1438088 0.62828559 -0.17182446 0.98512757 -0.00011038616 0.047033839
-0.1061972 -0.13281681 0.73305529 -0.0017872228 0.99927688 0.037980545 0.015277038
0.089719445 -0.34081888 0.47005856 0.01342282 0.51049525 -0.8597759 0.05513411
-0.10397018 -0.40721241 0.47722253 0.045219503 0.15158762 -0.987409 0.017796542
-0.10044914 -0.35054529 0.48316428 0.14980377 0.75371528 -0.63990015 0.02957329
0.093479082 -0.1283557 0.8092801 0.14915657 0.98787189 -0.043143697 0.042178385
0.062519014 -0.14003085 0.62407911 -0.05169351 0.9931643 -0.10465416 0.013878139
0.18433391 -0.1448742 0.51586199 0.87227058 0.44696552 -0.19840811 0.075082779
0.020343477 -0.14426345 0.81955421 -0.014291497 0.99975854 0.01669213 0.0099826921
-0.10262134 -0.14088428 0.8698923 0.036290571 0.98770362 0.1520673 0.015161223
-0.0053756735 -0.13327882 0.81879354 0.0029591867 0.99976867 -0.021302199 0.0092876824
0.01083069 -0.38290599 0.46632361 -0.14400846 0.13309167 -0.98058563 0.012328748
-0.045826823 -0.13714494 0.82723725 0.0029795917 0.99835956 -0.057177797 0.0133336
-0.017327536 -0.36025646 0.46809682 -0.088710636 0.23318185 -0.96837831 0.01275966
-0.15918227 -0.13688688 0.89461595 -0.35637861 0.39475459 0.84685481 0.06071233
0.04230909 -0.14517599 0.61151671 -0.022742888 0.99707544 -0.072961338 0.01309115
-0.010296932 -0.14660865 0.51109356 0.60428631 0.73063499 0.31782165 0.01380049
-0.023228081 -0.49407411 0.46322364 0.36142963 -0.27502888 -0.8909139 0.0092109051
0.1501493 -0.1383169 0.58796889 -0.018352196 0.99976444 -0.011594001 0.017991059
0.040004943 -0.30934763 0.54441726 -0.0030671095 -0.99871945 0.050497871 0.0079009375
-0.019471485 -0.1397565 0.7461198 -0.0075436682 0.99994004 0.0079350239 0.0054161483
0.16052452 -0.13536464 0.78091961 0.042591803 0.99614674 0.076665364 0.016003245
0.080459997 -0.1394041 0.64094043 -0.12534168 0.99195361 -0.017823106 0.008650736
-0.018532651 -0.3075887 0.51514721 0.066843443 -0.99214691 -0.1057189 0.031655449
0.11531832 -0.38051289 0.45500547 -0.033578206 0.24136718 -0.96985269 0.0092505906
0.071637496 -0.14095791 0.67874718 0.049075287 0.99870825 0.013165587 0.0024877728
0.18619029 -0.26047835 0.48780689 0.24830018 -0.0078273285 -0.96865153 0.028295299
0.18951726 -0.21157531 0.49591801 0.72894388 0.12497402 -0.67306924 0.059335478
-0.14612319 -0.31189561 0.50909603 0.15647054 0.64459532 -0.74834067 0.026297683
0.1076824 -0.31547299 0.52137691 0.5624944 -0.65725386 0.50161487 0.042648327
0.017608922 -0.13874829 0.71494591 -0.018631786 0.99982351 -0.0023821965 0.011417958
-0.020470373 -0.14463174 0.69302976 -0.019140868 0.99906385 -0.038796455 0.010552061
0.042173915 -0.13778205 0.744784 0.097203076 0.99461585 -0.035927918 0.01565654
-0.16488993 -0.15772097 0.51862538 0.03088513 0.87504745 -0.4830507 0.072999582
0.090114705 -0.1317156 0.80634117 0.0855157 0.99630815 0.0075613423 0.033630736
-0.068178788 -0.13465013 0.66031921 0.11260508 0.99346161 0.018820997 0.0069160461
-0.13764003 -0.14284709 0.89647496 0.098061197 0.5568524 0.82480264 0.083666205
0.058799624 -0.45672253 0.46538502 -0.12222046 0.29453453 -0.94779295 0.047430784
-0.1947241 -0.36815411 0.4873496 -0.25370347 0.17436218 -0.95143706 0.0071117161
-0.1537614 -0.1377174 0.56234211 0.041956894 0.97283959 -0.22764635 0.012006524
0.18043414 -0.13946861 0.59329057 0.303675 0.95087761 -0.060110237 0.031236535
-0.14581285 -0.44286108 0.47396106 -0.064007431 0.17846942 -0.98186135 0.0145449
-0.14640762 -0.1397752 0.81858975 -0.093694575 0.99386543 -0.058761377 0.019451955
-0.021741349 -0.1399432 0.76316941 -0.033694051 0.99943215 -0.00017963916 0.0046226601
-0.13631946 -0.16487704 0.5151397 -0.067028448 0.66852605 -0.74066198 0.15821768
0.24189547 -0.31352979 0.88447285 0.67241174 0.20714362 0.71060109 0.0024430568
0.060401581 -0.46735176 0.45826694 -0.12741256 0.32017434 -0.93875152 0.031539697
0.217263 -0.22834469 0.85056251 0.54456311 -0.76972204 -0.33313522 0.0028082947
-0.0682007 -0.3615973 0.48449171 -0.20770864 -0.91054159 -0.35745078 0.0086334972
0.1664768 -0.1396561 0.59362829 0.1987341 0.97934413 -0.037279859 0.046836879
-0.1775334 -0.1439455 0.5749467 -0.17461973 0.98353708 -0.046505895 0.011049361
-0.13044073 -0.13290766 0.70699614 -0.016571743 0.99138898 0.12989704 0.023790557
-0.13401516 -0.28148812 0.53966492 0.38646612 0.45956346 -0.79965335 0.017442899
-0.19765431 -0.2352341 0.51518291 -0.94399512 0.15188549 -0.292923 0.039404619
0.042052779 -0.13064626 0.75189173 0.087476552 0.99532676 -0.040895995 0.019680027
0.088265628 -0.14341287 0.59575552 -0.04446815 0.99829376 -0.037844233 0.0081651947
-0.021377288 -0.49445155 0.46290481 0.36142963 -0.27502888 -0.8909139 0.0092109051
0.0026245913 -0.14133987 0.68846405 -0.063839816 0.99718195 -0.039402086 0.012389154
0.15710901 -0.14240304 0.57452518 0.13761596 0.98190212 -0.13011557 0.028398234
-0.11825719 -0.33955905 0.48500115 0.14700681 0.75462645 -0.63947487 0.020583691
-0.020323467 -0.14513353 0.53320509 0.29994538 0.95369959 0.022132935 0.017144118
0.071927026 -0.31355327 0.54225427 0.018239209 -0.99884194 0.044519845 0.015428654
0.068093494 -0.13967019 0.68050158 0.04893804 0.99865621 0.017051794 0.002499924
0.18229394 -0.17555755 0.50436521 0.92338866 0.26189446 -0.28065032 0.055191491
0.016574237 -0.14261502 0.64617807 -0.040657587 0.994313 -0.098430909 0.018065622
0.16695821 -0.1436657 0.51960379 0.52423644 0.80714768 -0.27145672 0.11231504
0.1090309 -0.1438728 0.54034579 -0.3606222 0.88628781 -0.29059514 0.00018865379
0.1952419 -0.1556315 0.6863696 0.21492527 0.94982392 -0.22724803 0.032934356
-0.022297576 -0.36723036 0.47741327 -0.08792001 0.21527308 -0.97258806 0.0081722969
-0.1541895 -0.1379074 0.59114611 -0.039749034 0.99857354 -0.035650354 0.0090410523
-0.21063045 -0.2114172 0.52387697 -0.7875756 -0.43479609 -0.43666595 0.022898126
-0.2383073 -0.39837119 0.70881402 -0.96989965 -0.15195213 0.19027652 0.0047092657
-0.24686256 -0.4887585 0.73059577 -0.9839378 0.16837163 0.059306711 0.065723732
-0.20707761 -0.31338793 0.58631843 -0.69202381 0.6784566 0.2465761 0.073345751
-0.25254929 -0.44966474 0.53877074 -0.98716205 0.089236639 -0.13246806 0.013225123
-0.22653008 -0.3519223 0.82788706 -0.93485379 -0.15650454 0.31867647 0.029384242
-0.20509499 -0.1748071 0.65076351 -0.80603892 0.58256119 -0.10451686 0.086587049
-0.24604094 -0.41724789 0.66223544 -0.91039652 -0.21225171 0.3551442 0.0069218623
-0.22494996 -0.35057539 0.83114988 -0.74992388 -0.42673755 0.50547922 0.034926713
-0.24828829 -0.42008156 0.52127457 -0.96735048 0.17960052 -0.17882043 0.010222222
-0.2198061 -0.3386023 0.85102189 -0.6629824 0.74401665 -0.083027534 0.0084480057
-0.24161413 -0.33829707 0.56648445 -0.94021052 0.29717243 0.16641143 0.052197691
-0.22428238 -0.29397857 0.52683997 -0.89298576 0.43745282 -0.10588416 0.021922555
-0.23746093 -0.33409205 0.61456823 -0.58534741 0.80724502 -0.075656652 0.032034766
-0.1927312 -0.1495984 0.79958773 -0.32461819 0.93779016 0.12317709 0.025738453
-0.19999442 -0.16220707 0.6901868 -0.76112032 0.6477899 -0.032622289 0.085891522
-0.2299882 -0.37514201 0.79901463 -0.98900098 0.11958997 -0.08703614 0.017036263
-0.235177 -0.35629639 0.66561162 0.31433752 -0.94864881 -0.035458926 0
-0.2434634 -0.3542302 0.52772361 -0.99995738 0.0055736224 0.0073607112 0.012620865
-0.25880384 -0.47396061 0.57874203 -0.49602047 -0.70020682 -0.51349193 0.0023134951
-0.1783628 -0.2185448 0.85327262 -0.90411508 -0.38156372 -0.19231492 0.001917715
-0.2475097 -0.41728705 0.52278477 -0.96856624 0.19303757 -0.15689515 0.008792771
-0.22651172 -0.29752126 0.55194777 -0.74640864 0.56623715 0.34964204 0.031061575
-0.26089084 -0.47384375 0.57369238 -0.49176821 -0.70262396 -0.5142796 0.0022710839
-0.03601392 -0.50103045 0.4584142 0.35891977 -0.42818859 -0.82935578 0.037711922
-0.25351796 -0.49864924 0.72640693 -0.9839378 0.16837163 0.059306711 0.065723732
-0.24103838 -0.47198784 0.86307949 -0.034175031 0.58558452 0.80989051 0.0081028929
-0.21867616 -0.24043262 0.55956376 -0.74169075 -0.49111238 -0.45684069 0.024381185
-0.23627867 -0.41742903 0.82683396 -0.23652916 -0.4848088 -0.84202993 0.0018124536
-0.19565563 -0.15985639 0.78082693 -0.389624 0.92090422 0.011337057 0.066050924
-0.208528 -0.15448759 0.56509292 -0.2989254 0.95080185 0.081359893 0.0098893158
-0.1276855 -0.47818008 0.46151361 -0.48973605 -0.092734367 -0.86692494 0.020753494
-0.2012161 -0.28978771 0.88814521 -0.95358139 0.30112141 0.002908516 0.056308001
-0.22444244 -0.34861195 0.82535815 -0.96437156 -0.070845939 0.25488868 0.02514472
-0.24572589 -0.37421831 0.55615085 -0.99462813 0.057414882 0.086130783 0.0092594009
-0.2444222 -0.36355451 0.56272858 -0.99374801 0.0086236009 0.11131277 0.01192569
-0.24812232 -0.44899166 0.64418405 -0.8716526 0.17028974 -0.45959011 0.01234263
-0.24341083 -0.44533533 0.49273422 -0.77116966 0.36512467 -0.52151829 0.03873897
-0.21475379 -0.27633491 0.50774759 -0.92181581 0.3159374 -0.22458668 0.016818739
-0.2076761 -0.4321779 0.48009911 -0.29989845 0.17114006 -0.9384945 0.011186515
-0.1869199 -0.4208436 0.48026201 -0.10057916 -0.0053997505 -0.99491435 0.009206675
-0.12503409 -0.47605097 0.4640373 -0.48973605 -0.092734367 -0.86692494 0.020753494
-0.19631247 -0.28740585 0.88535297 -0.9611479 0.2747345 0.026753059 0.055915594
-0.24334766 -0.45097163 0.48321673 -0.60602504 0.3454878 -0.71649969 0.037010364
-0.1606874 -0.16510123 0.51558226 0.017593648 0.86685818 -0.49824423 0.083787926
-0.14258811 -0.15584251 0.51567608 0.017892266 0.8669728 -0.49803418 0.083774716
-0.11734248 -0.34280917 0.4843182 0.16104379 0.77991217 -0.60481554 0.020741664
-0.20191613 -0.17014016 0.69164681 -0.73542017 0.67473787 -0.062338259 0.10708978
-0.2321188 -0.374199 0.74467438 -0.98864645 -0.037514694 0.14550163 0.064025253
-0.2288066 -0.360369 0.8233549 -0.96355087 -0.11036094 0.24370086 0.024956916
-0.083896518 -0.43137926 0.47260731 0.041113801 0.25089821 -0.96714002 0.009288081
-0.24891314 -0.47057199 0.70253837 -0.96590924 0.24609461 0.080354623 0.027483938
-0.24578661 -0.3903915 0.55837238 -0.99242198 0.12149588 -0.018366752 0.0078118127
-0.053078219 -0.41638118 0.47437352 -0.027799724 0.17800477 -0.98363686 0.0089867944
-0.18762065 -0.37057438 0.48420301 -0.24382222 0.17503981 -0.95389289 0.0086744977
-0.2315446 -0.3486174 0.72732937 -0.90988034 0.19982943 0.36357397 0.042976208
-0.25810692 -0.49070871 0.65012282 0.20745979 -0.18411981 -0.9607603 0.0071601714
-0.12582947 -0.28508493 0.80138683 -0.18127282 0.57423025 0.7983731 0.013156119
-0.2323985 -0.3681612 0.78138942 -0.99932069 -0.036852133 -0.00039142632 0.025278885
-0.25168803 -0.49060127 0.73102772 -0.9839378 0.16837163 0.059306711 0.065723732
-0.24692971 -0.4701061 0.72828227 -0.9839378 0.16837163 0.059306711 0.065723732
-0.04429609 -0.44470131 0.47046751 -0.086404249 0.2334749 -0.96851629 0.0049257036
-0.25745618 -0.43889055 0.5355553 -0.97280318 0.14968643 -0.17677073 0.020931426
-0.1262266 -0.46558139 0.4600544 -0.48973605 -0.092734367 -0.86692494 0.020753494
-0.24221756 -0.345539 0.55989015 -0.98863566 0.096531466 0.11524399 0.019898068
-0.22810493 -0.37369791 0.77316749 -0.85432261 -0.51973611 -0.0026918524 0.05049894
-0.26377201 -0.51830578 0.77792281 -0.21287666 -0.81539911 -0.53833818 0.00036748982
-0.24528554 -0.3399235 0.51814866 -0.99556762 0.08906316 -0.030213501 0.024762902
-0.191626 -0.1630331 0.84743488 -0.53158218 0.84063584 0.10369091 0.06709633
-0.18968549 -0.15621389 0.87607628 -0.73747665 0.40512434 0.54037249 0.062338807
-0.25281224 -0.49768516 0.74241632 -0.97186691 0.16238718 -0.17060223 0.036277574
-0.25595471 -0.44780099 0.53677976 -0.98650593 0.082551233 -0.14139099 0.012413925
-0.24610806 -0.41422179 0.52432948 -0.96858037 0.19304976 -0.15679227 0.0095163984
-0.258863 -0.48397619 0.49338284 -0.46307859 0.12254363 -0.87780482 0.022379972
-0.25724185 -0.48117551 0.49088013 -0.46307859 0.12254363 -0.87780482 0.022379972
-0.25257099 -0.49195486 0.48479351 -0.39461741 0.10117137 -0.91325873 0.019104894
-0.12475899 -0.48290321 0.461564 -0.5189923 -0.076508075 -0.85134798 0.016709656
-0.11214756 -0.406086 0.47910288 0.020385008 0.1246222 -0.99199492 0.012604012
-0.24124086 -0.34397188 0.51275557 -0.90764588 -0.2621296 -0.32782149 0.078737803
-0.23916835 -0.33199796 0.61380315 -0.57818705 0.81340653 -0.063793086 0.029533226
-0.2029154 -0.36259311 0.4887509 -0.31265098 0.24384113 -0.91803646 0.010218584
0.080635332 -0.24407341 0.56422311 -0.11765573 -0.86137962 -0.49414796 0.0038965237
-0.2430803 -0.36676246 0.55797833 -0.99786156 0.021587368 0.061694738 0.012683322
-0.25479132 -0.435965 0.52805424 -0.97273195 0.14329638 -0.18236943 0.016787451
-0.19020854 -0.51734024 0.45762905 -0.5564959 -0.0066732299 -0.83082348 0.0042841677
-0.25020921 -0.41885591 0.56201762 -0.98112637 0.19170028 -0.025338793 0.0078059435
-0.2572853 -0.42275199 0.56346917 -0.97961885 0.19835655 -0.03164662 0.008255343
-0.24004744 -0.34047252 0.56702518 -0.9330759 0.33932123 0.11929148 0.053963974
-0.11602233 -0.25297076 0.7866509 -0.18127282 0.57423025 0.7983731 0.013156119
-0.21783677 -0.40504888 0.93110776 -0.83324867 0.39981401 0.38189706 0.0070694629
-0.2167052 -0.2202727 0.52131832 -0.7875756 -0.43479609 -0.43666595 0.022898126
-0.22418343 -0.23915567 0.5570097 -0.74169075 -0.49111238 -0.45684069 0.024381185
-0.22310188 -0.29465529 0.52676886 -0.89298576 0.43745282 -0.10588416 0.021922555
-0.19290882 -0.36371893 0.48546025 -0.25551155 0.15945944 -0.95356518 0.010120378
-0.096080579 -0.40768868 0.47633374 0.021098454 0.11199828 -0.99348438 0.01258838
-0.2416546 -0.45907259 0.85306919 -0.10662827 0.53816098 0.83607012 0.00056146865
-0.2239899 -0.29657564 0.51946771 -0.89040065 0.44291705 -0.10493385 0.01560384
-0.22652614 -0.35386351 0.81635588 -0.93689269 -0.22818464 0.26488468 0.023899104
-0.16883183 -0.15528929 0.51491058 0.017593648 0.86685818 -0.49824423 0.083787926
-0.14717855 -0.16791883 0.51498342 -0.0061500873 0.86391777 -0.50359535 0.13049509
-0.26397672 -0.46959263 0.57671154 -0.98823214 0.027529549 -0.15046397 0.0041247299
-0.25647092 -0.43918619 0.5360499 -0.97280318 0.14968643 -0.17677073 0.020931426
-0.26044744 -0.44159463 0.52746284 -0.97273195 0.14329638 -0.18236943 0.016787451
-0.25366929 -0.43469405 0.5278433 -0.97273195 0.14329638 -0.18236943 0.016787451
-0.24906078 -0.41143805 0.52332783 -0.9687354 0.19170749 -0.15748043 0.0088694096
-0.2431501 -0.48896718 0.7276454 -0.9839378 0.16837163 0.059306711 0.065723732
-0.25104669 -0.4686594 0.69712019 -0.95081663 0.26473448 0.1608209 0.021876331
-0.25355461 -0.49560276 0.74062395 -0.97186691 0.16238718 -0.17060223 0.036277574
-0.25262889 -0.50008577 0.72726083 -0.9839378 0.16837163 0.059306711 0.065723732
-0.254792 -0.44871491 0.53782409 -0.98650593 0.082551233 -0.14139099 0.012413925
-0.2468002 -0.46922031 0.7299127 -0.9839378 0.16837163 0.059306711 0.065723732
-0.054609865 -0.4151836 0.47562948 -0.027799724 0.17800477 -0.98363686 0.0089867944
-0.24498031 -0.44245464 0.49126431 -0.79156286 0.37730536 -0.48069635 0.035484944
-0.24680808 -0.44473726 0.48139414 -0.65676159 0.37417847 -0.65471733 0.029527817
-0.19042215 -0.51727778 0.45563695 -0.5564959 -0.0066732299 -0.83082348 0.0042841677
-0.25171447 -0.492185 0.48547658 -0.39461741 0.10117137 -0.91325873 0.019104894
-0.2416203 -0.4863416 0.479496 -0.39688718 0.11319463 -0.9108609 0.018292096
-0.26581416 -0.51502275 0.7737819 -0.21580771 -0.81054944 -0.54445994 0.00034829008
-0.24979106 -0.4182038 0.56180036 -0.98112637 0.19170028 -0.025338793 0.0078059435
-0.25351831 -0.50074023 0.72209203 -0.9839378 0.16837163 0.059306711 0.065723732
-0.2509304 -0.44530201 0.64069963 -0.8716526 0.17028974 -0.45959011 0.01234263
-0.037712306 -0.50027859 0.45801583 0.35891977 -0.42818859 -0.82935578 0.037711922
0.03138449 -0.47350481 0.46126741 0.017545106 0.30357048 -0.95264751 0.029694472
-0.017295459 -0.42661679 0.4690094 -0.030340265 0.20938274 -0.97736293 0.016553951
-0.26014236 -0.49329481 0.73973936 -0.97917098 0.14957871 -0.13729742 0.036610991
-0.14800686 -0.31314719 0.50802082 0.15992282 0.6575051 -0.73628247 0.028835976
-0.18322647 -0.14114583 0.65189427 -0.50109172 0.86511105 -0.022134509 0.061419755
-0.026024543 -0.14632709 0.55237943 0.034412581 0.99907213 -0.025900245 0.014604728
-0.14404529 -0.317211 0.51690757 0.14900193 0.63346618 -0.75928849 0.025483998
0.1458028 -0.1379358 0.87084317 0.11174764 0.91948491 0.37690839 0.040395103
-0.16327898 -0.13842365 0.62465841 -0.044188358 0.99897051 0.010259654 0.011665509
0.016855825 -0.13319182 0.7099939 -0.027030693 0.99910575 -0.032512128 0.014450248
0.081968591 -0.14096077 0.63036406 -0.090370953 0.99548715 -0.028957037 0.010104937
-0.1872818 -0.1433998 0.61489791 -0.61964971 0.7835207 -0.046146229 0.052528467
0.034799866 -0.13387592 0.76289976 0.032775484 0.99869913 -0.039062243 0.0190599
-0.016793393 -0.13768344 0.68342221 -0.019316852 0.99921447 -0.034601908 0.010779959
-0.0075203883 -0.14055699 0.59903866 0.068764865 0.99762332 0.004368763 0.011372521
-0.090923928 -0.13677368 0.5910812 0.060197931 0.99586225 -0.068078488 0.011452616
-0.18323107 -0.14210634 0.75362545 -0.38976541 0.92084736 0.0110927 0.06602025
-0.045216873 -0.13923571 0.56017441 0.11646169 0.99312526 -0.011782699 0.02879492
0.1819191 -0.135902 0.5933668 0.303675 0.95087761 -0.060110237 0.031236535
0.057003323 -0.13880658 0.88016981 -0.035714906 0.99436653 0.09979824 0.017479794
-0.096034288 -0.13528499 0.82208407 -0.0092624724 0.99994504 -0.0049096108 0.010491796
0.054060686 -0.14004195 0.60882205 -0.051391874 0.99333018 -0.10321859 0.01552727
0.071249753 -0.1359926 0.79280329 -0.026742412 0.99797678 -0.057681803 0.0062049325
-0.040855452 -0.13466607 0.82445973 -0.010120329 0.99828893 -0.057593025 0.011871676
0.019751456 -0.14433391 0.82433075 -0.0033906375 0.9998852 0.014766439 0.010226033
-0.15797842 -0.13517813 0.89761055 -0.35475394 0.40208477 0.84408379 0.064028352
-0.022849178 -0.14290228 0.53801054 0.10148773 0.99477893 0.010734092 0.019686924
-0.059794523 -0.1393555 0.68826228 0.042087734 0.99897796 0.016481154 0.0087826308
0.041350976 -0.14099282 0.75292879 0.076958835 0.99564987 -0.052522257 0.020874292
0.013457757 -0.13977775 0.65600377 -0.00012075215 0.9976753 -0.068146914 0.020458071
0.062420383 -0.13945656 0.62595803 -0.05169351 0.9931643 -0.10465416 0.013878139
0.025183471 -0.30588701 0.50970352 0.033338953 -0.97834766 0.20426564 0.084181741
-0.0053979233 -0.1364671 0.79602009 -0.013729139 0.99981618 -0.013382274 0.0082255956
0.038662348 -0.14381181 0.84099537 -0.056459762 0.99784696 0.033372041 0.015366547
-0.0070876046 -0.13967432 0.59887427 0.068764865 0.99762332 0.004368763 0.011372521
-0.14475201 -0.13720955 0.8157357 -0.06521178 0.99747199 -0.028230987 0.017337015
-0.041945152 -0.13880517 0.55781627 0.11646169 0.99312526 -0.011782699 0.02879492
-0.030737851 -0.1331453 0.89807701 0.065516166 0.30492383 0.95012051 0.043987863
0.083105877 -0.14724649 0.74340618 -0.027220709 0.9984014 -0.049534578 0.013026802
-0.098961987 -0.14287917 0.59852862 0.035453167 0.99910146 -0.023222743 0.01108519
-0.028091157 -0.1402202 0.57444638 0.045220654 0.99868834 -0.024015101 0.010212495
-0.0052119396 -0.14568453 0.69684935 -0.044656333 0.99808222 -0.042868022 0.012099372
-0.097005196 -0.13661303 0.74435663 0.0098518124 0.99750501 0.069905244 0.013426906
-0.089015901 -0.14046495 0.72828907 0.029081913 0.99957418 0.0023959295 0.01235914
-0.025247643 -0.14016668 0.89632756 0.065526336 0.3049514 0.95011097 0.043987028
0.1166344 -0.139448 0.71055353 -0.065461032 0.98666149 -0.14904384 0.013659267
0.027558271 -0.1340059 0.66844398 -0.0054774941 0.99846035 -0.055199288 0.013898632
-0.042126525 -0.1386618 0.62722313 -0.018157173 0.9973048 -0.071087711 0.0045155874
-0.16262399 -0.14315826 0.55606019 -0.0629237 0.95534253 -0.28872341 0.022011634
0.0043377443 -0.31521565 0.52926689 0.062801249 -0.99627233 0.059138998 0.019710898
-0.13004801 -0.13782716 0.64475524 -0.11036982 0.98196596 0.15349776 0.018912291
-0.070784196 -0.1393086 0.66639686 0.12174571 0.99221253 0.026310222 0.0066929655
-0.01196692 -0.13868201 0.82044595 -0.0011649418 0.99965411 -0.026270412 0.01234735
0.059886228 -0.13697781 0.79098457 -0.046639144 0.99885267 0.010865057 0.0091181742
-0.15394798 -0.31751257 0.50734937 0.22462386 0.62923539 -0.7440477 0.028340539
-0.021025805 -0.13975202 0.68285561 -0.013434169 0.99934042 -0.03373874 0.010578501
-0.1383753 -0.1356976 0.84457558 -0.017971465 0.99927849 0.033458136 0.011518875
-0.1086524 -0.13946453 0.86825794 0.02462909 0.99150956 0.12768002 0.014879234
0.0097038867 -0.13375679 0.66826284 -0.076630734 0.99618548 -0.041740716 0.018348427
-0.073106326 -0.14204419 0.60794395 0.010020309 0.99678534 -0.079489768 0.0065720505
-0.17211933 -0.13815993 0.67527622 -0.24479015 0.9498356 0.19465387 0.044130072
0.15663028 -0.14239879 0.71138656 0.031209469 0.97698164 -0.21102813 0.014464607
0.031405412 -0.1400409 0.8641969 -0.11824286 0.98888385 0.090151906 0.017748233
-0.040377628 -0.13954866 0.79947662 -0.011752003 0.99952662 -0.028433282 0.0084087132
0.16146077 -0.13889925 0.78665721 0.14885841 0.98602945 0.074746504 0.014452064
0.118806 -0.1390603 0.60126704 0.003966732 0.99998933 -0.0023513143 0.0084342323
0.071809374 -0.1378206 0.62775981 -0.094777435 0.99215764 -0.08148957 0.015452671
0.1492171 -0.1362974 0.58977079 -0.018337369 0.9997642 -0.011632367 0.017987328
-0.069196016 -0.13715655 0.72771448 0.027623413 0.99960101 -0.0058903256 0.0085070245
0.1684314 -0.13962139 0.849141 -0.063480705 0.95619613 0.28576064 0.034757547
0.084636442 -0.13829629 0.59548306 -0.04446815 0.99829376 -0.037844233 0.0081651947
0.00083857245 -0.14057511 0.70585138 -0.022071255 0.99909317 -0.036410075 0.013805225
-0.058899578 -0.13986048 0.74954748 0.0083991075 0.99980849 -0.017674368 0.0059749889
0.16416854 -0.14029062 0.71729076 0.077088855 0.98925692 -0.12421028 0.013888654
0.020671371 -0.13759729 0.81700873 -0.013982751 0.99973655 0.018204577 0.0095424931
0.1547357 -0.13289 0.86493683 0.08519879 0.92655998 0.36637107 0.07023412
0.018645363 -0.13768938 0.65810633 -0.020472197 0.99734908 -0.069825366 0.01889048
0.17437215 -0.13951802 0.52137148 0.71069157 0.6898402 -0.13797837 0.098402746
-0.13324758 -0.13620102 0.71484536 -0.054540906 0.98992431 0.13067204 0.026210861
-0.082553327 -0.13620269 0.70031571 0.044972822 0.99898511 -0.0025089968 0.010142163
-0.073240951 -0.13586441 0.69769049 0.096361868 0.99517941 0.018228736 0.0089233052
-0.039304022 -0.13901913 0.6185953 0.00300873 0.99878889 -0.049109582 0.0045208312
-0.054735601 -0.1358202 0.90030342 0.038334012 0.39997444 0.91572422 0.039706293
-0.14685147 -0.14018066 0.84251273 -0.12651581 0.99196315 -0.0017321012 0.017476363
-0.069929145 -0.13709392 0.72962165 0.027352577 0.99962163 -0.0028919079 0.0084594246
-0.18117189 -0.1389091 0.67307663 -0.52365333 0.85087949 0.042323079 0.065044448
0.18469401 -0.1403273 0.6581133 0.50542921 0.84829962 -0.15788916 0.019929325
0.15039068 -0.14866762 0.57501525 0.080247208 0.9905836 -0.11092618 0.029765982
0.1308001 -0.1364923 0.73110962 -0.018235849 0.99329728 -0.11414045 0.0094403271
-0.034343027 -0.14328423 0.57578272 0.026320076 0.9994756 -0.018864136 0.0081460644
-0.04616823 -0.1369123 0.76600838 0.048596591 0.99881738 0.0014946669 0.0054504685
0.1799165 -0.1406225 0.58406419 0.30128327 0.95048857 -0.076157115 0.03379339
0.089378163 -0.13604927 0.59466064 -0.017231414 0.99933642 -0.032091837 0.0067773885
-0.0075204005 -0.13904023 0.50860476 0.59725761 0.74258274 0.3030746 0.014696629
-0.024675999 -0.13598107 0.81109971 0.017867463 0.99951285 -0.025588194 0.01043104
