# .PCD v0.7 - Point Cloud Data file format
VERSION 0.7
FIELDS x y z
SIZE 4 4 4
TYPE F F F
COUNT 1 1 1
WIDTH 1453
HEIGHT 1
VIEWPOINT 0 0 0 1 0 0 0
POINTS 1453
DATA ascii
0.7064532 -0.70411098 1.312927
0.26830861 -0.50325471 1.075488
0.50720543 -0.82084638 0.77129889
0.43901801 -0.8317591 0.93770039
0.70819801 -0.99775231 0.82216442
0.60624278 -0.96837002 0.87404001
0.62903368 -0.96989697 0.91216701
0.4877905 -0.93811309 0.99426413
0.48653221 -0.93446869 0.98571593
0.544595 -0.63040477 1.126905
0.74961698 -0.96806967 0.88214928
0.2245211 -0.93291229 0.87821949
0.65465689 -0.52933109 0.956411
0.42187139 -0.82023948 0.77043623
0.4127095 -0.96287137 0.92916131
0.47662181 -0.96313709 0.90717429
0.41669309 -0.91069168 0.86272812
0.28825271 -0.84563732 0.83264798
0.29966521 -0.96203858 0.91296959
0.4412078 -0.90580249 0.82494599
-0.1537049 -0.74688739 0.95642519
0.4385232 -0.97758639 0.88629568
0.59130383 -0.49274561 0.88763452
0.40295759 -0.659769 0.8406266
0.21264119 -0.51526898 0.87117559
0.097413182 -0.8929528 0.95635092
-0.01353005 -0.91077697 0.97100443
0.407327 -0.8508172 0.7564429
0.44744071 -0.67266911 0.84038597
0.3251636 -0.87989408 0.83978301
0.27647799 -0.88389587 0.80750489
0.65551502 -0.56186801 1.083711
0.2837868 -0.88691211 0.85771888
0.19884869 -0.88619542 0.83699358
0.2291255 -0.55063778 0.86809421
0.17214321 -0.60236609 0.87338269
0.1649529 -0.63082433 0.87619299
0.58776343 -0.86012149 0.75353521
0.39980161 -0.82273477 0.79286528
0.20482489 -0.87314981 0.86956638
0.65197033 -0.65900302 1.209522
0.68277311 -0.51718527 0.95924008
0.4124932 -0.7588315 0.77455902
0.24823271 -0.43681559 0.84766108
0.2304578 -0.47628969 0.87292731
0.4310939 -0.83437902 0.79794651
-0.1540319 -0.73707718 0.96228957
-0.1453301 -0.71801102 0.97385228
-0.1463645 -0.74842763 0.92490822
0.67061079 -0.77246457 1.361244
-0.1433492 -0.72721398 0.96659148
-0.003208125 -0.70427102 0.98525429
-0.1152324 -0.72579002 0.96886343
0.029060289 -0.74920642 1.094411
0.25225851 -0.51856577 1.1470031
0.22986241 -0.4469524 1.02749
-0.043301661 -0.69746912 1.0716079
-0.18178999 -0.7286309 0.91730368
0.2044066 -0.4635953 1.15139
0.1432184 -0.4706946 1.118893
0.29226941 -0.76470399 1.156063
0.56336921 -0.77751869 1.353206
0.70871818 -0.78209561 1.329365
0.56170899 -0.77449793 1.337641
0.2462991 -0.74830687 1.131681
-0.064957596 -0.74179453 0.99007708
-0.01365826 -0.72262418 0.9781512
0.25258031 -0.78019297 1.376506
0.28568411 -0.78009999 1.405599
-0.02326397 -0.75478029 1.014412
0.041194439 -0.6881249 1.0092241
0.019149389 -0.70390803 1.043898
0.26292461 -0.74582583 1.176514
0.57664597 -0.78593928 1.3219351
0.30784279 -0.48138201 1.150758
-0.097107403 -0.3997913 0.94989222
-0.01048806 -0.69667691 0.98025358
-0.3461028 -0.7283923 1.040176
-0.3589066 -0.73545963 1.042904
-0.3495577 -0.73753083 1.040244
-0.1652516 -0.45197541 1.0199161
-0.32812941 -0.74613643 1.076925
-0.076898031 -0.46453229 1.063484
0.24339689 -0.71681398 1.157099
0.32614809 -0.78265178 1.381897
-0.1116537 -0.3861526 0.99696791
0.26179919 -0.51997387 1.146932
0.1969313 -0.49909079 1.108009
-0.1059786 -0.38162601 1.007499
0.01009953 -0.6921376 1.03371
-0.2175784 -0.60553437 0.94691843
-0.33528051 -0.71774119 0.87292981
0.030556761 -0.71234161 1.050248
-0.2026026 -0.54977632 0.9620679
0.00082376599 -0.71986181 1.1025881
-0.1064047 -0.35329089 0.97220212
0.20329671 -0.65948057 1.114935
-0.1000459 -0.53217751 1.05541
-0.0031048809 -0.47254151 1.131879
0.2923336 -0.43531439 1.167781
0.37358621 -0.47107661 1.1131051
0.061050419 -0.68092728 1.098318
0.066213727 -0.65036827 1.136045
-0.13833509 -0.3563633 1.048281
0.27675521 -0.68760628 1.168244
0.3534641 -0.46214649 1.107457
0.4520978 -0.6908381 1.139746
0.20348141 -0.65796912 1.164863
-0.1451648 -0.69759369 1.474323
0.3617751 -0.49501821 1.135339
-0.1068148 -0.7015003 1.459998
0.39532411 -0.66437292 1.115012
0.40809369 -0.67367917 1.139484
0.4778913 -0.66877508 1.089265
-0.34006581 -0.6587525 0.86160833
-0.1255843 -0.35878 1.018499
-0.1225593 -0.39209741 1.053068
0.47338161 -0.71164578 1.144055
0.30573541 -0.4633351 1.192245
0.468189 -0.66433191 1.078686
-0.12751921 -0.52072757 1.037282
0.32365799 -0.69032103 1.033285
0.37489659 -0.63004792 1.114665
0.20164301 -0.64940661 1.174238
0.4861742 -0.70781142 1.475404
0.4971143 -0.71774471 1.4727581
0.26230299 -0.4717536 1.20359
0.47959 -0.70925128 1.483783
0.3140524 -0.66975909 1.160074
-0.1821716 -0.71315932 1.478492
0.06226863 -0.66720933 1.0478359
0.39016739 -0.65478641 1.13248
0.50680768 -0.71300977 1.460007
0.5253287 -0.71878409 1.443478
0.50439209 -0.7254734 1.490183
0.322173 -0.68431401 1.102327
0.44721851 -0.66608733 1.129921
0.31567299 -0.58738881 1.16689
0.3597115 -0.4697437 1.119119
0.06293197 -0.70417452 1.108878
-0.12850951 -0.69432563 1.470642
-0.1093639 -0.71361542 1.466269
0.38243249 -0.70168507 1.478261
-0.047207709 -0.72353959 0.3809377
-0.048310582 -0.65199947 0.48362559
-0.2487562 -0.9287349 1.43562
0.385952 -0.64147478 1.120199
0.50959623 -0.70855367 1.4495
0.51018149 -0.72027129 1.469141
0.3878718 -0.69679642 1.14363
0.4617905 -0.64839351 1.1351171
0.303718 -0.47517771 1.182842
0.41345069 -0.5240944 1.129503
0.41965789 -0.72773647 1.442273
0.4697324 -0.71188098 1.442567
0.26398319 -0.45578599 1.205249
0.48717079 -0.70556557 1.351965
-0.063059948 -0.5173105 1.077109
0.067108117 -0.70595467 1.05082
-0.149526 -0.68355012 1.428728
0.37171009 -0.48851031 1.125501
0.1953415 -0.45672691 1.162012
0.0098829987 -0.73672682 0.29730019
-0.2068001 -0.70677942 1.469691
0.081620529 -0.7033093 1.048049
0.51373768 -0.74268568 1.478007
-0.159329 -0.70940238 0.96841139
0.030309159 -0.66264242 1.14588
0.45657429 -0.67364037 1.130195
0.48397359 -0.71359462 1.490329
0.32025051 -0.45450431 1.1818351
0.36461449 -0.47098431 1.038483
0.39781779 -0.50806463 1.084341
-0.1324098 -0.69077039 1.4744591
-0.41692021 -0.71034998 0.8380087
-0.1538451 -0.70845717 1.492295
-0.2298362 -0.70643711 1.448228
-0.2288886 -0.71501762 1.461208
-0.3084726 -0.79326439 1.401317
0.49961951 -0.83252752 1.4780591
-0.1097022 -0.38423291 0.99549621
-0.0039837351 -0.60325491 1.095162
0.1185452 -0.70788831 1.071326
0.35412559 -0.70737499 1.062813
0.47836211 -0.71286708 1.451355
-0.018772719 -0.63305438 1.1590379
-0.20026509 -0.71736538 1.47526
-0.2695998 -0.87038738 1.425197
-0.3453787 -0.91761452 1.368641
0.53085053 -0.72099608 1.449412
-0.1110509 -0.3524943 0.97035033
0.03360144 -0.70476562 1.10987
-0.061025798 -0.52725869 1.060437
-0.2967549 -0.92012691 1.394495
-0.42337719 -0.97143191 1.2969199
0.0090970397 -0.7534101 1.097715
0.1860678 -0.59224159 1.178215
0.36624259 -0.59420007 1.123789
0.14970709 -0.62119758 1.101706
0.4875752 -0.83949262 1.490448
0.50636601 -0.81511581 1.473298
-0.11201 -0.50183398 1.0385031
-0.46913451 -0.93130028 1.2658
-0.3762922 -0.8536284 1.342088
-0.41046429 -0.8539986 1.314278
0.52188218 -0.70039219 1.405036
-0.33522859 -0.94508642 1.3809021
-0.01797005 -0.69393748 1.1032391
-0.31185019 -0.6989094 1.086694
-0.2236249 -0.67067981 0.95094937
-0.1192404 -0.35766181 1.047694
-0.074585997 -0.53754342 0.95760018
0.067367397 -0.69076627 0.93314642
-0.089155152 -0.50679618 0.9594999
-0.19778609 -0.51494402 0.97180891
0.13110501 -0.58162433 0.95367289
0.2349012 -0.69955277 0.99387169
0.092373803 -0.62686318 0.95114452
0.26227999 -0.63174152 0.95766681
0.23795921 -0.4411329 0.99125189
0.19956049 -0.41889739 1.039157
0.1671712 -0.70111507 0.97430718
0.1103466 -0.6009028 0.9503125
0.2099403 -0.65158057 0.92918491
-0.2026175 -0.51531529 0.97295988
0.035676312 -0.63456881 0.9054876
0.2239389 -0.70882922 0.99079621
0.1293003 -0.68407029 0.9688707
0.1964038 -0.4240678 1.051304
0.46837619 -0.69610721 1.039791
0.2468904 -0.69314313 0.98595661
0.250552 -0.69742823 0.98397279
0.12985539 -0.70458227 1.001091
0.16951419 -0.70662981 1.012754
0.044799581 -0.69341552 0.93003452
0.1165563 -0.64554977 0.93409401
-0.1238403 -0.35185969 1.0495681
-0.1742651 -0.4568477 1.004982
-0.1350479 -0.35527831 1.021981
0.1811087 -0.72116882 0.97261977
0.24099959 -0.7153964 0.99927539
0.19778571 -0.65352279 0.96279478
0.2163194 -0.474305 1.167033
-0.0120238 -0.72333258 0.93828201
-0.077820681 -0.4600676 0.94068128
-0.104624 -0.40769091 0.94588488
0.042756721 -0.72073662 0.89497632
-0.1124701 -0.3670415 0.96280521
0.2210319 -0.44377959 1.041029
0.22471979 -0.72211683 0.96110278
-0.149838 -0.46230769 0.95809847
-0.019259689 -0.72910941 1.058094
0.005288396 -0.7267381 1.028031
0.2097061 -0.43807909 1.036839
0.3561115 -0.48152369 0.96917248
0.25921291 -0.71976572 0.95083708
-0.2149597 -0.54291528 0.96901703
-0.0076299282 -0.72156781 1.04378
-0.1704717 -0.46264961 0.99674368
-0.1233296 -0.38743749 0.96209389
0.57430691 -0.72987533 0.95723808
0.59775698 -0.72412252 0.93862891
-0.02853276 -0.72691739 0.96416599
-0.1026191 -0.38234711 1.030583
0.55301571 -0.70040709 0.9816888
0.085610449 -0.70158118 0.91447932
0.3226907 -0.59127432 0.93574399
0.60339469 -0.68453801 0.98710382
-0.028670561 -0.72293729 0.92983872
0.56005251 -0.696917 0.96535432
0.049629211 -0.70602041 0.91475278
0.01251529 -0.72424382 0.94847482
-0.13140941 -0.39390299 0.98364443
0.021474481 -0.73307782 0.9076159
0.30720061 -0.66202909 0.95420969
0.59098917 -0.75518721 0.97035098
0.50320351 -0.70167118 0.97814572
0.25467521 -0.72837448 0.94557792
0.68028092 -0.68878698 0.97226691
-0.089194462 -0.52708137 0.94409722
-0.032871559 -0.71696287 0.9471373
-0.1124683 -0.3822504 0.94677782
0.58967179 -0.67143208 0.98164701
0.60027093 -0.71951139 0.95921922
0.69692159 -0.71272868 0.96323568
0.01746837 -0.72110713 0.91475338
0.6745187 -0.71735108 0.92128778
0.1277637 -0.71936661 0.86669731
0.046991561 -0.72634411 0.88886482
0.30239961 -0.71031862 0.93684572
0.01459195 -0.71631467 0.85636371
-0.064372249 -0.53673339 0.95790797
-0.1209102 -0.72131139 0.96279371
-0.006742253 -0.6735059 1.0177979
-0.077480167 -0.43254721 0.94582641
0.3343004 -0.52323771 0.95440829
0.33339491 -0.61687708 0.94521362
0.29743251 -0.70193738 0.94497168
0.2322873 -0.71745729 0.93997508
0.20885479 -0.71917868 0.93940032
0.2211336 -0.43458611 1.05354
0.09128207 -0.70138168 0.90128911
0.030153999 -0.71217102 1.030318
0.05237636 -0.4450849 1.071458
-0.2151885 -0.54574329 1.005947
0.59929872 -0.67386568 1.0076621
0.292229 -0.71806502 0.91555202
0.37341401 -0.470465 1.080328
0.1043039 -0.71221358 0.92393482
0.01484009 -0.72187608 0.91044492
0.0128591 -0.54408252 0.92421043
0.01410373 -0.71927339 1.017228
0.28776079 -0.46235341 1.1301
-0.13178889 -0.39370629 1.017436
-0.13893481 -0.73004812 0.98049408
-0.1781318 -0.47640449 0.97298408
-0.19196171 -0.52593648 0.95740789
-0.13020641 -0.37416631 1.052704
-0.07830599 -0.38644049 0.95749068
0.1097868 -0.57575542 0.90460187
0.1053453 -0.57868242 0.90609223
-0.1420446 -0.37521911 1.045445
0.57430762 -0.72061121 1.354581
-0.125962 -0.3833645 0.99409509
-0.13632549 -0.3609637 1.0478261
-0.1503467 -0.71708429 0.97277367
-0.001197107 -0.71715069 1.099813
0.19603039 -0.43231419 1.035947
0.53127211 -0.72653621 1.392356
-0.03033568 -0.71283227 1.094072
0.43640691 -0.71746892 1.438815
-0.03528196 -0.71829993 1.054543
0.1122841 -0.45501691 1.126184
0.054058939 -0.57217288 1.15458
0.15972701 -0.63717967 1.1571701
0.1959935 -0.42653549 1.0245661
0.18803281 -0.48804519 1.159829
-0.14975341 -0.37173101 1.021522
-0.1055307 -0.71173573 1.452088
0.45766371 -0.71598458 1.331957
-0.153411 -0.71281648 0.97409493
-0.37208411 -0.68770897 0.85641879
-0.38130751 -0.71728319 1.027359
-0.02257761 -0.63118279 1.0316451
-0.3170734 -0.72651571 1.070793
-0.41544381 -0.72322547 1.3147351
-0.3920761 -0.7255283 1.3309799
-0.3190406 -0.7293418 1.387802
-0.3561379 -0.72198492 1.348292
-0.3531526 -0.71046501 0.80711472
-0.3791222 -0.70359617 0.82328951
-0.36620849 -0.70961511 0.82104748
-0.39299709 -0.7131694 0.83032978
-0.40116519 -0.71708858 0.8456673
-0.40527451 -0.72295088 0.85616678
-0.38922191 -0.7187745 0.85478508
-0.40130591 -0.72016948 0.86427552
0.15829369 -0.67064899 1.149873
0.52146608 -0.6990965 1.353966
-0.41331771 -0.74412513 1.321471
-0.36541611 -0.70801008 0.80937868
-0.39214271 -0.73773658 0.8102839
-0.4166415 -0.71281332 0.89273077
0.06638407 -0.48342529 0.93483341
-0.25813431 -0.71351218 0.89799601
-0.1130672 -0.39813301 1.062711
-0.35357741 -0.71681309 1.046864
-0.3326087 -0.71443719 1.079703
0.28339139 -0.44359249 1.133189
0.2373125 -0.72502202 1.166183
-0.40007249 -0.72247142 1.321618
-0.40006709 -0.73282391 1.331902
-0.4001742 -0.8433367 1.335664
-0.1358328 -0.70327961 1.455045
0.59146202 -0.72075552 1.32663
-0.3491019 -0.72859508 1.358019
-0.21303961 -0.71432829 1.448465
-0.1712351 -0.71586651 0.94637209
0.20780221 -0.4395943 1.036932
0.2372988 -0.49912149 1.158623
-0.1349297 -0.3669019 0.95066023
-0.185873 -0.472783 0.97836512
0.2388937 -0.4450748 0.9914223
0.2667993 -0.43569919 1.0501159
-0.114018 -0.3796387 0.98022032
-0.31515661 -0.72079313 1.069638
-0.34918439 -0.7210899 1.0415879
0.0094625354 -0.70923781 0.85532987
0.03612534 -0.71815741 0.8915571
-0.11695 -0.36731559 0.96145529
0.59970433 -0.74987578 0.96324331
0.2122857 -0.43638769 1.038846
-0.1203323 -0.3677159 0.95989132
0.66759109 -0.69127411 0.95470989
-0.2192708 -0.54211432 1.0074281
-0.3917883 -0.71962267 0.87279522
-0.37507331 -0.72151321 1.025213
0.62226862 -0.69774163 0.99173069
-0.1170577 -0.38813919 0.99002463
0.03506371 -0.43415809 1.052377
0.4171485 -0.50987601 1.076311
-0.35735151 -0.72370237 1.1390001
0.61318982 -0.68887669 0.95418692
0.3374936 -0.45137429 1.0234441
0.033127919 -0.70652509 0.90598392
-0.40750659 -0.71840727 0.88403362
-0.16067339 -0.72556168 1.472147
-0.13838831 -0.39240551 1.042562
0.61407781 -0.68908697 0.99120629
0.26884681 -0.4822433 1.169024
0.68725038 -0.70735693 1.024605
-0.35123831 -0.71894968 1.067188
-0.1803028 -0.72176021 1.476454
0.2167493 -0.43723929 1.015658
-0.1822024 -0.44956371 0.98841357
0.667041 -0.69887978 0.94146109
0.5926342 -0.72233057 0.95635301
0.2350214 -0.4421874 0.98905271
-0.32565391 -0.72224259 1.07234
-0.1107217 -0.3952617 1.0134881
0.58142477 -0.71175641 0.93746477
0.005911062 -0.72931302 0.92937863
0.5977357 -0.72422832 0.93416381
0.67899102 -0.71123129 1.011045
0.6641798 -0.6962719 0.96134251
-0.1576055 -0.42493361 0.97823322
-0.1785842 -0.45597711 0.99151868
-0.25538439 -0.72190249 1.028533
-0.1268834 -0.37325111 1.046502
0.4838542 -0.59182149 1.003427
-0.022997091 -0.7030955 0.93266618
-0.4215298 -0.72236317 0.89595461
-0.090895608 -0.71593302 0.94220072
-0.16808289 -0.72163588 0.96236718
-0.1198647 -0.37904951 0.94347513
-0.36353609 -0.71875328 0.88908869
-0.1055361 -0.71545988 0.93871689
-0.1825776 -0.71448052 1.462
-0.1053108 -0.3649911 0.96028519
-0.1262566 -0.39151701 0.95880461
0.58745497 -0.73178989 0.98963523
0.5424788 -0.68356907 0.96431738
0.59482962 -0.70867813 0.92482221
0.70158309 -0.70882642 1.0093451
0.74034441 -0.72422051 0.97338098
0.3085278 -0.4696463 0.9669416
-0.40020531 -0.72209013 0.86227989
0.65181839 -0.70826298 0.92006731
0.6684311 -0.70220131 0.92641461
0.65049839 -0.70502138 1.050346
-0.18611629 -0.47246909 0.96726477
0.1918627 -0.43440461 1.009768
0.51867282 -0.57774508 1.09726
-0.1380111 -0.37896991 1.047263
-0.1261826 -0.37306389 1.03659
-0.211623 -0.72165573 1.446612
-0.38745439 -0.7338661 0.85407299
-0.3486076 -0.71376783 0.85509759
0.064615719 -0.68529671 0.88976812
0.19501349 -0.71253473 0.91535598
-0.42219499 -0.72375941 0.91136408
-0.2039382 -0.71539038 0.91590142
0.027360121 -0.69375622 0.8839823
-0.084258877 -0.70953709 0.93331963
-0.055355329 -0.70800728 0.95162708
0.458693 -0.65675688 0.97165191
-0.1241392 -0.71864527 0.9589057
-0.032158349 -0.74316537 0.97278482
0.052221481 -0.56434453 0.90091091
0.54722452 -0.71896547 0.95651269
-0.1905106 -0.53275478 0.94594121
0.3326833 -0.45857421 1.0192159
-0.130844 -0.3912771 0.98160291
-0.1405116 -0.39097929 1.012216
-0.1472024 -0.4279924 1.051397
0.63828802 -0.80030203 1.488783
-0.38489151 -0.7238043 1.321061
-0.1916088 -0.72132719 1.439337
-0.39127529 -0.72843611 0.81952012
-0.1490902 -0.36656031 1.055047
0.026310749 -0.42597231 1.064039
0.035115 -0.71608621 0.90819722
-0.1313711 -0.37538841 0.95519513
0.1929891 -0.4261061 1.045472
0.55362821 -0.70545 1.362566
0.66315788 -0.71011931 0.92368942
-0.1311174 -0.38259691 0.95879179
0.12623259 -0.71216738 0.81832463
0.0032361799 -0.70213681 0.9123829
-0.1225287 -0.36427671 0.95984292
0.55282933 -0.66557962 0.91570598
0.2277811 -0.43028539 1.037239
-0.14263339 -0.3539665 1.05522
0.54318333 -0.73451883 1.400719
-0.15755729 -0.70087832 0.99555522
-0.028352341 -0.7111358 1.105817
0.1306171 -0.4593707 1.131005
-0.01312612 -0.70011842 1.123798
-0.1498307 -0.35957649 1.063982
0.1931324 -0.45662951 1.157871
0.116625 -0.45604661 1.135654
0.2051769 -0.70289302 1.154989
-0.17425451 -0.71529138 0.96985388
-0.1319176 -0.70604539 0.98847318
-0.148066 -0.36556011 1.03719
-0.1539465 -0.38880959 1.061329
0.2355448 -0.70611101 1.163468
0.20924839 -0.70668638 1.148698
-0.1294757 -0.35098061 0.97994542
-0.1082486 -0.3587065 0.96018231
-0.023618091 -0.66145867 1.022679
-0.15531319 -0.70994699 0.98414898
-0.03619545 -0.70088053 0.996858
0.3732242 -0.47030929 1.0669399
0.1777668 -0.47548041 1.171189
-0.017599899 -0.65589541 1.031152
-0.030860679 -0.67570949 0.97897488
-0.1797716 -0.7083143 0.96230167
-0.253405 -0.72299129 0.89705408
-0.111183 -0.47702599 1.0834889
-0.1130742 -0.41274339 1.073645
0.208324 -0.43654791 1.0001841
0.12915359 -0.6078186 1.1658469
0.19904999 -0.4566623 1.159421
-0.32638821 -0.70308101 1.087458
-0.13517749 -0.7033807 1.010422
-0.2510415 -0.7124247 0.88753182
0.64260519 -0.70020682 1.2254471
0.26346681 -0.42021859 1.125751
0.20452151 -0.66634178 1.1486239
0.38972709 -0.49258059 1.061426
-0.084714241 -0.54669231 1.0825599
-0.1003737 -0.54218388 1.0410661
-0.03599846 -0.71022862 1.089027
0.29433581 -0.4354358 1.155845
-0.1469593 -0.36975741 0.98726279
0.18989059 -0.4840956 1.147312
0.058687329 -0.72057527 1.082539
0.28025281 -0.6931147 1.156534
-0.1566091 -0.71134722 0.96505219
0.3532933 -0.47563621 1.073488
0.30726609 -0.46622211 1.177209
-0.12643801 -0.40117291 1.0344239
-0.124352 -0.36220041 1.048002
0.39255229 -0.65433222 1.117021
0.4833554 -0.68603301 1.05364
0.1988216 -0.463072 1.142977
-0.24356321 -0.60061473 0.97150427
0.06974528 -0.65007663 1.130245
0.28563121 -0.4381997 1.126532
0.058360249 -0.70264721 1.057235
0.3853741 -0.65363652 1.086226
0.288472 -0.42244399 1.12307
0.36055961 -0.47568649 1.100233
0.3268902 -0.70188087 1.0667599
0.31888351 -0.67999113 1.13151
-0.37020579 -0.67454147 0.87437052
0.075210378 -0.70120478 1.047128
0.30873629 -0.47447911 1.1677949
0.26773891 -0.47835219 1.180669
-0.05195066 -0.72768521 0.36684299
-0.1002177 -0.70702279 1.454115
0.3304947 -0.68224531 1.030242
0.37530729 -0.63983423 1.078238
0.48003599 -0.70346707 1.057832
-0.1156377 -0.39085981 0.97921002
0.45647141 -0.64127111 1.066433
0.47604331 -0.68181002 1.04342
0.32329911 -0.47022131 1.150147
-0.1279459 -0.71130031 1.455979
0.1577249 -0.64479709 1.142072
-0.044496831 -0.71720731 1.483068
-0.03275175 -0.67279798 1.094364
-0.1276972 -0.35248271 1.038612
-0.1192807 -0.35520509 0.96008039
-0.1390641 -0.7069447 1.498279
0.074174583 -0.65548319 1.0597
0.51825941 -0.72472042 1.437639
0.46229899 -0.6830951 1.132951
0.52216852 -0.73756921 1.4427299
0.509408 -0.73110467 1.4500459
0.39919409 -0.69366252 1.123904
0.49847201 -0.71962208 1.454639
-0.1149565 -0.51730812 1.043897
0.35645291 -0.72339761 1.032107
0.48064569 -0.71353507 1.428996
0.49698511 -0.71709782 1.327986
0.3907513 -0.73380673 1.442843
0.1296057 -0.4595806 1.1226079
0.35998049 -0.60742098 1.078473
0.54933518 -0.74156559 1.4244961
0.53789842 -0.73645502 1.415967
0.55856478 -0.72052819 1.372448
0.58040452 -0.74774539 1.376779
0.32578859 -0.64244157 1.116865
0.47065511 -0.65818161 1.119454
-0.1071639 -0.50320351 1.034079
0.57227188 -0.74312729 1.3797261
-0.3508085 -0.69601369 0.87656921
0.381874 -0.47108141 1.102947
0.40869689 -0.67757732 1.105425
0.57411301 -0.7242589 1.38095
0.31210431 -0.436923 1.048743
0.090248726 -0.69924152 1.046209
0.44584021 -0.58525437 1.094671
0.086227067 -0.71033359 1.432151
0.4303062 -0.71547771 1.440672
0.31546709 -0.44486219 1.180908
0.2708393 -0.46752071 1.184144
0.4274466 -0.55192047 1.101428
0.594284 -0.72766668 1.354389
0.59185308 -0.72028291 1.345027
0.48039779 -0.7380619 1.09796
0.40109119 -0.48543009 1.0862139
0.38712239 -0.5204916 1.112583
0.4842048 -0.64330631 1.066265
0.043972511 -0.68308538 1.078136
-0.4188664 -0.71580851 0.83689189
0.30063251 -0.66368097 1.198631
-0.2656329 -0.72501087 0.86984259
0.1792403 -0.449673 0.98277068
-0.126325 -0.3568044 0.99446052
0.117387 -0.63808912 0.97535813
-0.077543952 -0.53173357 0.97042203
0.1203543 -0.68536609 1.001557
-0.51835662 -0.72203588 0.98156089
0.087965079 -0.60755312 0.92033219
0.2108454 -0.42517179 1.030171
-0.62945712 -0.71487731 1.086514
-0.12645049 -0.36393419 0.99690503
0.096543357 -0.61428672 0.93052059
0.1311418 -0.58212018 0.94365501
0.2374737 -0.42570961 0.99553603
0.1761841 -0.68716502 0.96772742
-0.082541972 -0.53411722 0.96332371
0.1996271 -0.41773641 1.024923
-0.2080384 -0.52117288 0.97228128
-0.2078654 -0.52869642 0.98062003
0.2109524 -0.4183093 1.036844
0.068714693 -0.68905622 0.92242289
0.1071469 -0.69794363 0.96032453
-0.43074009 -0.69676763 0.92491859
0.1017124 -0.62532932 0.94504333
0.2369543 -0.6680522 0.97233772
0.24953701 -0.70044237 0.98558891
0.1113929 -0.60321963 0.9441362
-0.1273859 -0.354307 1.04597
-0.5021252 -0.71217072 0.97743207
0.024898401 -0.67895949 0.89221132
0.1042807 -0.53969282 0.91892308
0.1013938 -0.54767191 0.92406642
0.099423967 -0.6665231 0.96478212
0.1225583 -0.69095188 1.0067379
0.26061371 -0.4154501 1.051496
-0.50994581 -0.74781322 0.96293873
-0.36415949 -0.68595159 0.82562172
-0.37450191 -0.71041077 0.81753302
0.26868999 -0.63725168 0.95526528
-0.68895698 -0.4698948 1.495164
0.20998169 -0.68665898 0.9506284
-0.34507659 -0.75396562 0.75313038
-0.39788371 -0.70372432 0.8686564
-0.52722597 -0.70898807 1.019375
-0.006645103 -0.54724407 0.95900577
0.083080523 -0.68706971 0.9401269
-0.38132459 -0.68972379 0.87179542
-0.3121427 -0.68590838 0.77398467
0.1692488 -0.69330812 0.99237078
-0.42135641 -0.70255357 0.90565699
-0.29500139 -0.67183512 0.77128148
0.043836258 -0.60013449 0.89214158
0.2340434 -0.6650551 0.97515148
0.1326873 -0.68710339 0.97517753
0.09347146 -0.68918198 0.985165
0.063526407 -0.63523549 0.87748659
0.043069411 -0.60462898 0.89763099
0.1974864 -0.41391441 1.0213259
0.21455321 -0.43650851 1.036064
0.169202 -0.69797927 0.99696928
0.099595264 -0.68470532 0.95527297
0.01132707 -0.65274042 0.89281392
-0.04293859 -0.77087373 1.0042599
-0.37807581 -0.70110101 0.83144909
-0.3278814 -0.73431051 0.77434897
-0.204613 -0.70024461 0.62566638
-0.4549475 -0.80132413 0.88265139
-0.2208343 -0.54824048 1.006843
-0.1216272 -0.38294229 0.96413291
-0.16208249 -0.45691219 0.97680509
0.19371 -0.41756639 1.027521
0.029417871 -0.61322731 0.90086359
-0.01066984 -0.71438903 0.94162548
-0.083163187 -0.44220001 0.94269872
0.2317187 -0.69254547 0.99902707
0.23457649 -0.69726568 0.99898678
0.2251827 -0.71994847 0.98637432
0.1659057 -0.68799978 0.97571552
-0.1203691 -0.3663187 1.035179
0.216089 -0.69367057 0.95632929
-0.01559156 -0.70475888 1.0976861
0.1585993 -0.69950908 0.97053552
0.2213272 -0.69603908 0.98199189
-0.1210195 -0.36321989 0.95781708
-0.1925953 -0.499513 0.94745731
-0.023385059 -0.69129938 1.050277
0.003369421 -0.68832761 0.92692733
0.2094247 -0.4238399 1.039948
0.039717231 -0.70363438 0.92195648
0.089021087 -0.62559772 0.92645788
0.239121 -0.4307614 0.99673992
0.091201887 -0.69879419 0.92189842
-0.01201958 -0.70165777 1.0443
-0.0073829512 -0.66533983 0.93842149
-0.0030901241 -0.66794348 1.019748
-0.026327049 -0.69110823 1.042394
0.2122166 -0.4190816 1.038204
0.20743801 -0.428029 1.0201091
0.2406029 -0.66894138 1.013468
0.2358329 -0.66334128 0.98846883
0.1754797 -0.71149057 0.97648537
0.096929871 -0.69356072 0.90956682
0.1027475 -0.69347322 0.93472368
0.09454634 -0.69240361 0.918347
0.01156296 -0.69191408 0.92105842
0.0082626455 -0.68845838 0.96633202
-0.01034884 -0.5919078 0.9700312
-0.020472489 -0.70002449 1.0237859
0.01447439 -0.52497458 0.92421001
0.01892606 -0.71128029 0.91486043
0.037518829 -0.70414799 0.88952971
0.01412892 -0.71090019 0.85615522
-0.2145557 -0.54062217 1.009825
-0.1128486 -0.35714999 0.96480751
-0.1242016 -0.49387619 0.95702308
0.60848898 -0.72301573 0.93739313
0.68913293 -0.70701158 0.95988458
0.13042919 -0.71411169 0.86691731
-0.134313 -0.36745799 1.051905
-0.1384708 -0.3616848 0.97800118
0.24316441 -0.4392252 0.99119788
0.040165301 -0.70625168 0.91239321
0.2457422 -0.43749431 0.99333519
0.2051602 -0.42662641 1.033855
-0.02863392 -0.71958268 0.95259762
0.045919452 -0.4349421 1.058901
-0.1158457 -0.35809371 0.96646792
-0.1304937 -0.3662543 1.057108
0.67087811 -0.70926809 0.91867357
0.1447158 -0.72472298 0.81758308
-0.023872299 -0.72114879 0.94106179
-0.1141232 -0.3843675 0.99224663
0.2189997 -0.42789769 1.041618
-0.092411123 -0.4207159 0.94413853
-0.1012723 -0.37416279 0.99307752
-0.1386815 -0.41709369 1.058273
-0.1225374 -0.3652705 0.96039093
-0.13698471 -0.4329167 0.95627201
0.27477551 -0.42728761 1.051309
0.72880661 -0.70498902 0.96797729
-0.1119734 -0.71964097 0.88315529
-0.1618292 -0.72497588 0.98009533
0.54965788 -0.72504431 1.400514
0.53106248 -0.668715 1.357313
0.4843657 -0.70161581 1.490235
-0.2189804 -0.52232891 0.97650552
-0.1832068 -0.65096098 0.94114947
-0.1381647 -0.3476432 1.046285
0.2008197 -0.42535329 1.038209
0.039146431 -0.4280917 1.064401
0.2025128 -0.4336178 1.022023
-0.21037211 -0.5434075 0.98385471
-0.099841267 -0.3647444 0.97652298
-0.47979969 -0.69732761 0.95287693
-0.50086892 -0.69579619 0.97143382
-0.40167251 -0.69600648 0.8627274
-0.20602369 -0.55689561 1.0264961
-0.1339681 -0.3702752 1.060034
-0.43221721 -0.70549691 0.90798998
0.56230593 -0.7035858 1.331055
-0.54422379 -0.69996768 1.023165
-0.57988411 -0.68587399 1.094718
-0.15153021 -0.36422229 1.042827
-0.1113483 -0.360663 0.97246271
-0.51982862 -0.71511161 0.97711378
-0.424283 -0.71862233 0.84228468
-0.50679147 -0.68958449 0.96163708
-0.44590989 -0.67903751 0.89770788
-0.56835479 -0.66341799 1.07581
-0.37490949 -0.66897851 0.8019194
-0.377372 -0.70400143 0.81958318
-0.19218031 -0.63115931 0.9549135
-0.37654269 -0.70280629 0.78616321
-0.59099388 -0.6984719 1.132779
-0.40979299 -0.7127713 0.87469178
0.60459149 -0.73810238 1.36134
-0.13125239 -0.36469889 1.063279
-0.1246922 -0.37406129 0.97036833
0.032877091 -0.70705938 0.89376253
0.2075128 -0.4304283 1.041852
0.01551158 -0.72571832 0.95255047
-0.1753587 -0.45100671 1.002839
0.69816399 -0.72331423 0.91965991
0.2152383 -0.4327808 1.040626
0.05290506 -0.43618369 1.067399
0.35038769 -0.60486299 0.93738359
0.2355455 -0.47369531 1.1536109
0.25530219 -0.5666281 1.222258
0.2420866 -0.67204738 1.195251
0.027140209 -0.72616851 0.85494667
0.026979631 -0.72474372 0.85322118
-0.1012425 -0.3890855 1.070307
0.0289844 -0.74382842 1.110724
0.32702851 -0.52819133 1.195487
-0.1148672 -0.38688451 1.05485
-0.073620386 -0.40966219 1.086386
0.045080509 -0.43262431 1.062904
-0.01652394 -0.72455698 1.098868
0.205137 -0.4636209 1.150687
-0.1309576 -0.35741061 0.9712255
0.1817859 -0.4842914 1.162475
0.01299274 -0.65935212 1.118698
-0.1415181 -0.37335259 0.97730029
-0.21860629 -0.53591102 0.9816128
-0.1367646 -0.36345431 0.97145063
-0.12940539 -0.3586641 0.97337258
-0.13495269 -0.3694016 1.063964
0.0055761542 -0.72089601 1.108742
0.48783419 -0.72365779 1.340492
0.038947631 -0.43185791 1.061709
-0.0085991109 -0.70678318 0.95243168
-0.0099504944 -0.70661032 0.91706699
-0.0045534829 -0.68364471 0.92042339
0.037249669 -0.69892597 1.005668
-0.04609127 -0.59948307 1.035628
-0.2418751 -0.54756433 1.023044
0.042354971 -0.70183909 1.002249
0.25748 -0.70941591 1.165659
-0.2262509 -0.54710722 1.034191
-0.0077108941 -0.70697463 0.95295388
0.0061846189 -0.70721108 0.99483973
-0.01988316 -0.70388591 1.057537
0.031851009 -0.70901632 0.98630631
0.17284 -0.46512419 1.153652
0.25467259 -0.67778558 1.1749049
0.2555767 -0.71165937 1.168421
-0.2422957 -0.55013609 1.0244009
0.0041417289 -0.71362537 1.120844
-0.33342269 -0.71167761 1.084981
0.01131716 -0.62069672 1.140528
0.2218039 -0.71036547 1.1524529
0.1387593 -0.70814317 1.141776
-0.02925732 -0.61296308 1.034964
0.045945991 -0.7158246 0.9823038
-0.017292591 -0.70639372 0.92307371
-0.01416964 -0.70607239 0.92515349
-0.01229716 -0.71299702 0.94205791
-0.006155008 -0.71432573 0.94132459
0.2340878 -0.70985937 0.97532398
0.1932188 -0.69422281 1.027446
0.25979659 -0.7105577 1.032684
0.21240839 -0.66545892 1.094838
0.20842309 -0.68486619 1.085816
0.151205 -0.62812853 1.124058
0.1777526 -0.71568102 1.0835429
-0.1521706 -0.36025339 0.98630607
-0.037322849 -0.69380569 0.9553448
-0.05262091 -0.69256479 0.97909248
-0.041570909 -0.62487978 1.030445
0.027196599 -0.69972777 0.84506857
-0.042698849 -0.69150889 0.95523947
-0.03356811 -0.69331002 0.96805543
-0.017674159 -0.64262313 0.99646533
0.01246927 -0.71379298 0.98487091
0.18938529 -0.45922089 1.157227
0.20659339 -0.49318099 1.16837
0.1781498 -0.69145799 1.141794
-0.1235831 -0.36003259 0.96854419
0.2074126 -0.49253899 1.165778
-0.1025416 -0.37992689 0.9627533
-0.127813 -0.36010781 0.97204739
0.2133593 -0.4275223 1.037176
-0.0434702 -0.7125833 1.064741
-0.029059069 -0.72368598 1.102528
0.004953092 -0.72877598 1.109849
-0.1892547 -0.44802999 1.0035419
-0.1308565 -0.3829394 1.053201
-0.098279089 -0.72215122 0.95201361
-0.1286497 -0.36602601 0.96618181
0.0001195762 -0.72775263 1.114029
0.27826631 -0.71603543 0.58689249
-0.223298 -0.54130059 0.97695923
-0.1366743 -0.3731128 1.0556639
0.01313806 -0.64713538 1.136106
-0.02431738 -0.70861238 0.92805052
0.23344959 -0.4343338 0.9879263
0.0023124141 -0.71553731 0.93304998
-0.2236937 -0.54158372 0.97132581
-0.001181127 -0.71206659 0.90562183
0.031425469 -0.71084583 0.88518077
0.109711 -0.71043491 0.90810442
-0.0054877698 -0.71559912 0.92485309
0.25124389 -0.71245492 0.94254571
0.2009801 -0.71293211 0.93219161
-0.0031690679 -0.64392292 1.008515
-0.034895342 -0.71231377 1.045606
0.038571671 -0.66701138 1.039843
0.0068589901 -0.71561873 1.012848
-0.019249789 -0.71166879 1.035219
-0.1342943 -0.3766644 0.9736917
0.095324218 -0.70507199 0.91799641
0.2033917 -0.70833671 0.94791269
-0.026413441 -0.71381712 1.050881
-0.017477211 -0.72225767 1.095029
-0.1403151 -0.36796981 0.97800559
0.2936748 -0.69917637 0.94955051
0.1174579 -0.71269917 0.85830933
0.21950901 -0.70569921 0.94796813
0.088795133 -0.70169222 0.92391878
0.034474071 -0.71486533 0.89060777
0.1066836 -0.67037189 0.91996682
-0.0072707022 -0.71678883 0.98260951
0.00083778432 -0.66656828 0.96938181
-0.020085691 -0.713283 1.088371
-0.01484209 -0.7058832 1.103147
0.02768915 -0.717511 1.031498
-0.133755 -0.36466289 0.97976148
-0.1394065 -0.36960459 1.017985
-0.122455 -0.3517431 0.94739032
-0.02046385 -0.70593292 1.059395
-0.049312402 -0.60002041 1.01552
-0.3687427 -0.7234965 1.311586
-0.2116926 -0.54314178 0.95749021
-0.1179629 -0.3692944 0.91938192
-0.039393149 -0.66836488 0.89335531
-0.37032911 -0.70318413 1.2923369
-0.1494444 -0.71263552 1.450379
-0.02272832 -0.68296719 1.0518171
-0.34394369 -0.69347262 1.306345
0.023277409 -0.65910077 0.87249559
-0.1188463 -0.36949909 0.95848972
0.1061844 -0.54716671 0.86417991
-0.3524819 -0.70928442 1.328025
-0.07573051 -0.54570198 0.92406201
-0.1329167 -0.36951369 0.99427098
-0.1075201 -0.36716211 0.95371252
0.087821953 -0.66582018 1.034408
0.1046158 -0.647421 1.008296
-0.1298653 -0.36155239 0.99614638
-0.08299312 -0.44405159 0.90682352
-0.1083147 -0.37908581 0.98337638
0.3820821 -0.48792541 1.041079
0.36618209 -0.47155929 1.039008
-0.1134221 -0.36796749 0.91038388
-0.041035879 -0.72523671 0.33724749
-0.082354143 -0.54492903 0.99550283
0.32115829 -0.47686821 1.123418
-0.1247445 -0.36052239 0.96501768
0.1939622 -0.4354192 0.97593838
0.30352291 -0.4466781 1.100703
0.39531419 -0.47834411 1.045959
0.28469849 -0.42406869 1.070048
0.14101189 -0.46511409 1.0725501
0.37949291 -0.47637799 1.03319
0.33297059 -0.72275388 0.99824351
0.30265039 -0.4223294 1.1475
0.21286979 -0.46336451 1.096766
0.483365 -0.68300867 0.99897528
-0.1228846 -0.3686918 0.90062767
0.067429028 -0.7101444 1.056641
0.058126289 -0.72244942 1.05351
0.072829507 -0.71497208 1.0434541
0.28931731 -0.4415327 1.07953
0.1410439 -0.4624036 1.0753649
0.3775785 -0.4749648 1.055566
0.55549848 -0.7163868 1.022646
0.4908374 -0.6521616 0.99544352
0.31617501 -0.43815529 1.034531
0.08755587 -0.70527178 1.001035
0.19581971 -0.49118969 1.086503
0.041097689 -0.4293699 1.007928
0.3353737 -0.70978081 1.014689
0.45025319 -0.67788422 1.06918
0.06168085 -0.71492261 1.028536
0.36087301 -0.48850241 1.047877
0.36518359 -0.51309967 0.94615752
0.49714401 -0.67837489 1.014661
0.4847323 -0.72204322 1.045256
0.36626911 -0.63831627 1.0207551
-0.1208671 -0.39389989 0.9448263
-0.31520399 -0.70065433 0.80326271
-0.01004227 -0.7048406 1.057802
0.2124791 -0.4677726 1.09488
0.36821201 -0.63339567 1.056621
0.40224421 -0.64583713 1.055043
0.40537781 -0.53569621 1.007764
0.48511931 -0.67337352 1.047832
0.464145 -0.70974427 1.05581
0.40487009 -0.50550979 1.0115499
0.41256461 -0.66704541 1.046
0.38975441 -0.50705367 0.98935992
0.34112459 -0.68422413 1.008262
0.32042891 -0.47485009 1.122438
0.34748599 -0.7204017 0.98140937
0.32819319 -0.6682815 1.05706
0.31203139 -0.70352322 1.070832
0.3896541 -0.47160289 1.032533
-0.079130799 -0.55550802 0.99352098
-0.098311678 -0.37169129 0.91080368
0.32027429 -0.45195919 1.095419
0.086545236 -0.66673201 1.054521
0.14109109 -0.71879971 1.0133131
-0.096509479 -0.36730909 0.90971071
-0.20437419 -0.54110718 0.96986502
0.1497881 -0.47027761 1.075429
-0.135463 -0.73879057 0.90274799
0.038812399 -0.7131995 1.0648839
-0.101081 -0.4086327 1.009045
0.08613725 -0.6861195 1.0428261
0.2289481 -0.7219491 1.088527
-0.1187283 -0.39575899 0.96571791
-0.34787551 -0.70750213 0.77510822
0.001095725 -0.69322491 1.07918
0.42038691 -0.49387339 1.020705
0.40456089 -0.65332651 1.085476
0.3285124 -0.47314921 1.127429
0.2921806 -0.48252839 1.130747
0.23269311 -0.71744448 1.13517
0.2181852 -0.4963502 1.108812
0.29111609 -0.4762111 1.130229
0.22063451 -0.46430179 1.096611
-0.042943299 -0.535851 1.011369
0.1477837 -0.70096982 1.0622081
-0.1261193 -0.4115347 0.87134188
-0.091236569 -0.37520531 0.85423011
-0.2248233 -0.50749397 1.01247
-0.0057017468 -0.69984972 1.001739
-0.3071821 -0.72938597 1.013182
-0.242973 -0.70937639 0.84838539
-7.327646e-05 -0.71931207 1.0010149
-0.30485621 -0.73352587 1.0109
-0.063843422 -0.72940499 0.87165272
0.3917954 -0.47032359 1.005802
0.39994901 -0.46696469 0.9893598
0.40930039 -0.47968519 0.93278682
0.065087669 -0.58724159 1.112582
0.35916471 -0.4784928 1.091987
0.45125589 -0.54949611 1.031719
0.1660025 -0.71468788 0.99052352
0.35079011 -0.67008382 1.109754
0.32030609 -0.67263871 1.110893
0.32382709 -0.66551369 1.129064
0.3201108 -0.44171 1.056852
0.4843432 -0.73093432 1.045486
0.1679893 -0.72061139 1.00029
0.2269014 -0.65485018 1.027962
0.43822709 -0.69724458 1.064517
0.185839 -0.72006959 1.0050451
0.2701453 -0.7128399 1.10548
0.3016448 -0.43905979 1.071867
0.1843828 -0.71313959 1.3291939
0.1459388 -0.73648423 1.000363
0.1903691 -0.72698879 1.32221
0.34741169 -0.49079439 1.090498
0.1621884 -0.71173191 1.040597
-0.096409179 -0.3885172 0.91114652
0.084899403 -0.60002011 1.056898
-0.092390098 -0.3918173 0.98486602
-0.240743 -0.70357847 0.85882092
0.039938711 -0.57795107 1.104113
-0.13957059 -0.5830521 1.0144629
-0.1980599 -0.54553252 0.92116243
0.0199768 -0.72241902 1.052817
0.2146863 -0.43400621 0.99021822
0.64071071 -0.72312289 1.192894
0.59317589 -0.72446328 1.316257
-0.005605666 -0.72608882 1.006773
-0.044753391 -0.70355922 0.90119553
-0.1500089 -0.70774168 0.92643589
-0.1499362 -0.70504338 0.92844719
-0.3257418 -0.71207339 1.030341
-0.1012765 -0.70509279 1.404464
0.01092835 -0.6514402 1.066765
-0.1958162 -0.53829032 0.92902428
-0.1493016 -0.71452671 1.359789
0.1918135 -0.480075 1.1120549
-0.048135079 -0.7159192 0.92794073
0.01194016 -0.72230953 1.05533
-0.3199282 -0.73041749 1.330955
-0.1848415 -0.43792349 0.94837111
-0.26047021 -0.7021178 0.84286052
0.1362129 -0.708992 0.77009338
-0.0098975841 -0.68548959 0.81743062
-0.1369193 -0.3683061 0.99912637
0.0034590119 -0.74285769 1.000668
0.33260289 -0.69240499 1.485763
-0.26128101 -0.72025847 1.376229
0.42005041 -0.70292538 1.463199
0.020474911 -0.70748782 0.86528772
0.5666945 -0.71157998 1.314839
0.14401481 -0.70422959 0.8265664
-0.0068060411 -0.70633948 1.057916
0.52437121 -0.71774137 1.356764
-0.01305791 -0.69987851 0.89838499
0.30250731 -0.41083011 1.008114
0.68703222 -0.68199807 1.224205
0.00056656642 -0.71928251 1.07652
0.02787826 -0.71150798 0.99422139
0.1235392 -0.71151221 0.84014809
0.21715081 -0.46477959 1.097895
-0.1258197 -0.38169771 0.92152649
0.052557349 -0.69434482 0.95757067
0.06982629 -0.68961102 0.96547782
0.046901859 -0.70860177 0.84112209
-0.2020158 -0.54138649 0.95797491
-0.089028209 -0.37344661 0.91032982
-0.1183565 -0.71245468 0.94943309
-0.1670458 -0.45141041 0.94489211
0.3004387 -0.4319666 1.003031
0.01004556 -0.71687198 1.056489
-0.14466339 -0.7113921 0.92570722
-0.01544262 -0.71260828 0.9339596
-0.1319378 -0.36122331 0.91836798
0.0019190779 -0.70824271 1.00404
-0.1231323 -0.37383881 0.99272323
-0.21362931 -0.72005439 0.85636538
-0.12745 -0.71900398 0.92529082
-0.091250733 -0.36514571 0.95159262
0.1283315 -0.64689219 1.082648
0.1799176 -0.70200431 1.096524
-0.100039 -0.37761191 0.94261217
-0.1952174 -0.71326572 0.87242693
3.900006e-05 -0.70231962 0.85956138
-0.08560133 -0.71403772 0.89784902
-0.144014 -0.72175193 0.92436802
0.14056771 -0.71331698 0.95312732
0.1231421 -0.70495659 0.97177929
0.25714049 -0.70715863 1.108839
0.015686041 -0.70321769 0.92640167
-0.01422897 -0.70837033 1.000365
-0.006957307 -0.70451063 0.89762479
-0.011945 -0.61203748 0.86193579
0.0214599 -0.69762331 0.94281763
-0.1296681 -0.3633424 0.9077279
-0.0091784019 -0.7036953 0.89110011
-0.1341771 -0.38263679 0.93706071
0.2438506 -0.67316049 1.009583
-0.029691121 -0.6239695 0.97653812
-0.1634825 -0.70584792 0.92547452
-0.32796159 -0.70672482 1.024361
-0.076377437 -0.70566559 0.92687738
-0.01560473 -0.70966637 1.051012
-0.016728999 -0.66016889 0.87252438
0.1889147 -0.4852154 1.099584
-0.019753261 -0.66398621 0.87076539
-0.2366419 -0.53159159 0.95590502
-0.13178679 -0.3779524 0.92405671
0.20857009 -0.6442709 1.039512
-0.1384027 -0.70432442 0.92881483
0.2151133 -0.6559146 1.025686
0.0052630752 -0.64241499 0.8843717
-0.1338679 -0.36793131 0.9878993
-0.1499989 -0.37855959 0.92653263
0.01355583 -0.71200341 1.0553
-0.2014665 -0.44619969 0.95469761
-0.19528639 -0.5186156 1.006685
-0.14680891 -0.36231229 0.99584889
0.2357706 -0.68551052 1.024309
-0.29992121 -0.72556782 1.0141881
-0.02653873 -0.62656122 0.95873988
0.20541491 -0.69952822 1.059299
-0.017547861 -0.62691247 0.94533521
0.2509228 -0.68811399 1.127902
0.2362767 -0.67975748 1.137575
0.2367495 -0.72811037 1.111335
-0.1056137 -0.36240751 0.91672492
-0.078173213 -0.71497172 0.30545121
-0.01830945 -0.69886142 1.051988
-0.01766135 -0.70174009 1.051703
-0.017486321 -0.67559248 0.93541151
-0.14986821 -0.36856061 0.9676767
-0.037528481 -0.48629999 1.036919
-0.09051235 -0.5400973 0.99483109
0.1289639 -0.47362909 1.061493
-0.081299931 -0.37203199 0.95242047
0.2217059 -0.69026321 1.02676
0.2227637 -0.67860591 1.030381
0.05439426 -0.7202518 1.040211
0.2213133 -0.73807919 1.0670871
-0.1064988 -0.55144697 0.96470809
0.37133101 -0.4759914 0.99580538
0.41552761 -0.49715129 0.99557757
0.41034189 -0.50836593 1.001641
0.28834099 -0.76227409 1.070853
0.2491453 -0.73602408 1.077929
0.32053989 -0.47245029 1.0684
0.1050632 -0.6939103 1.001047
0.30797821 -0.4528853 1.042384
0.08259654 -0.67756361 1.03239
0.33005181 -0.69493967 1.091908
0.1473085 -0.4890013 1.042343
0.077786557 -0.69565582 1.024559
0.080534309 -0.7129271 1.011411
0.159665 -0.73456818 0.97781569
0.20584209 -0.50905108 1.080018
-0.1508671 -0.69083571 0.94010979
0.32975301 -0.49405089 1.0971251
0.4395051 -0.66542411 1.044878
0.2156053 -0.48065779 1.072939
0.1515011 -0.68401229 1.012635
0.059697662 -0.73232412 1.045646
-0.1450059 -0.72850877 0.90464967
-0.31520531 -0.70865017 1.021343
-0.14075001 -0.3795208 0.95567971
0.29479519 -0.45359239 1.0974571
-0.1137465 -0.38797489 0.9264456
-0.13761809 -0.37334251 0.99284589
0.30061159 -0.4482736 1.101752
0.27352601 -0.7197724 1.129104
0.63246959 -0.72345352 1.058737
0.091171972 -0.4311043 0.91954088
0.1272606 -0.46907839 1.068915
0.2087364 -0.43338349 1.001487
0.2069416 -0.43206531 0.98991549
0.29539859 -0.4333241 1.072845
0.2027459 -0.432197 0.98821342
0.3678281 -0.43838251 1.112479
0.36565399 -0.49974951 1.065859
0.55838639 -0.71645492 1.010386
0.4427731 -0.70414448 0.9692201
0.65641427 -0.69563109 0.94674212
-0.12725221 -0.36884671 0.90755212
0.31526589 -0.47555381 1.1254359
0.29647481 -0.72415692 1.060361
0.31127879 -0.46379879 1.110361
0.305186 -0.45413941 1.111099
-0.041104231 -0.72298169 0.3342621
0.61044782 -0.67697948 0.93538702
0.57046407 -0.70300329 0.91369098
0.68366522 -0.72474802 0.96352649
0.62392288 -0.69003928 0.95154297
0.28604949 -0.4379341 1.085032
0.68078029 -0.72771472 1.0018981
0.39920199 -0.49611691 1.052173
0.30819771 -0.4578312 1.098394
0.63456011 -0.72134441 0.85872912
-0.055810969 -0.41008869 0.97938812
-0.1115729 -0.38961509 0.99613512
0.2026403 -0.45795831 1.08313
0.25450209 -0.43132719 0.99599493
0.28557721 -0.43060109 1.058042
0.55442792 -0.7114045 1.028041
-0.077623174 -0.48289889 1.021996
0.3892906 -0.48557881 1.044986
0.3736825 -0.4789291 1.020558
0.71306598 -0.72198278 0.91785842
0.67067868 -0.71969122 0.99864948
0.69333458 -0.72386599 0.93782032
0.69731963 -0.71331918 0.95965642
0.3298023 -0.4379504 0.97734189
0.28661609 -0.44813859 1.1049041
0.71160322 -0.72145247 0.91941029
0.44648021 -0.72277421 0.94867182
0.61073762 -0.69612432 0.92505097
0.37075621 -0.47059739 1.041092
0.3141064 -0.4334614 1.04138
0.51582497 -0.69975108 0.99189007
0.52040392 -0.71622241 1.041744
0.70837128 -0.71771252 0.90923762
0.69424719 -0.7258355 0.98893452
0.49282601 -0.68762118 1.0490071
0.62579691 -0.68569422 0.9486593
0.6705358 -0.70777452 0.90899199
0.2835499 -0.43365061 1.062205
0.4950777 -0.68960333 1.018993
0.67903608 -0.72083628 0.93618703
0.66314948 -0.7061128 0.87931699
0.30729741 -0.53319961 0.90184551
0.57013768 -0.71491188 1.026697
0.54593879 -0.74129879 0.88841373
0.4979066 -0.70606017 0.96858972
0.60035789 -0.70780492 0.89302248
0.58253562 -0.6695289 0.9589209
-0.1024799 -0.3965368 1.000227
0.44511199 -0.64718813 1.040428
0.3728641 -0.47278699 1.012069
0.38561109 -0.50211549 1.000913
0.65599102 -0.71108109 0.87972242
0.57210588 -0.59338599 1.017772
-0.1243559 -0.36057249 0.99827302
-0.61353469 -0.71835059 1.0581011
-0.1394482 -0.387936 1.018837
0.36004829 -0.471288 1.03707
0.38234469 -0.4719865 1.036068
0.37857491 -0.47492409 1.021791
0.49177751 -0.70407301 1.055709
0.50174952 -0.70863938 1.049763
0.35972139 -0.50139368 1.085995
0.4504309 -0.72489458 1.286221
0.47503591 -0.72280937 1.298424
0.43185571 -0.71833622 1.297827
0.41965041 -0.72247452 1.302228
-0.048387401 -0.72286272 0.32255241
0.32189029 -0.69600141 0.91516191
0.59210807 -0.7166118 0.88882738
0.64734221 -0.70363867 0.97630471
0.28920159 -0.70988512 1.10176
0.45443329 -0.62466931 0.99164331
0.38538909 -0.50005198 1.001529
0.5029214 -0.71759683 1.284094
0.6748383 -0.68909752 0.95939732
0.53886259 -0.71810538 0.90922779
0.38061351 -0.4788388 1.000115
0.70643479 -0.75788879 0.91582298
0.4948822 -0.71414888 1.0312769
0.50187618 -0.75503802 0.94675368
0.5405966 -0.6984939 1.3342969
0.29712921 -0.4307915 1.059306
-0.1182619 -0.36620709 0.99936807
-0.073746428 -0.53612518 0.91910452
-0.076125033 -0.53526652 0.90419161
0.1290527 -0.68813461 0.94084942
-0.13327651 -0.37121001 0.96813673
0.2175274 -0.42689371 0.96436203
0.45824471 -0.69609982 0.97623378
0.094400197 -0.6319859 0.88426763
0.47938991 -0.70479113 0.96567589
0.2131653 -0.65851831 0.92740989
0.2479509 -0.69486952 0.91226852
0.1340712 -0.58244443 0.88087922
0.2364668 -0.69521219 0.94283032
0.01904849 -0.71476769 0.8670578
-0.1174427 -0.36568511 0.9310202
0.20338351 -0.43241209 0.98798913
-0.073678337 -0.38096851 0.99637967
-0.145983 -0.42374751 0.94126779
0.099832781 -0.68767041 0.92086202
0.21813589 -0.4323543 0.99633449
0.1360921 -0.69422728 0.91981512
0.1037261 -0.55605942 0.87406307
0.1036673 -0.55360627 0.86930913
0.087678477 -0.62370348 0.87812841
-0.2081518 -0.54011208 0.93914711
0.27264079 -0.65664607 0.90758711
0.1131572 -0.70424962 0.90374428
-0.1190082 -0.35629031 0.99023378
0.2369377 -0.69362849 0.94543421
0.4474979 -0.65815121 1.014325
0.4670704 -0.58093292 1.058502
0.52407068 -0.68833929 1.008135
0.31670839 -0.71265173 0.91196841
-0.01052248 -0.67133278 0.93552798
-0.081298873 -0.45782939 0.90886629
-0.1232024 -0.44516391 0.90843928
-0.069300383 -0.37702471 0.91613603
0.26826689 -0.4306863 1.013328
0.2216706 -0.44731441 0.98588687
0.40543181 -0.65419632 1.0203789
-0.1431001 -0.37245351 0.98891538
0.1120187 -0.61846107 0.89940351
0.3809692 -0.61995721 0.9246605
0.37157509 -0.58693808 0.97596109
0.34543261 -0.67530441 0.91495663
0.3683694 -0.4543348 1.021861
0.47628021 -0.71765667 0.9657135
0.035711199 -0.61525601 0.84717423
0.2426406 -0.43907869 0.94938082
0.54718423 -0.76065129 1.0244631
0.50858039 -0.73609447 0.95990783
0.22160751 -0.43171531 0.98594803
0.0062659569 -0.71876311 0.88649738
-0.1139602 -0.37244579 0.90502942
0.2284258 -0.71887457 0.9117853
0.2255564 -0.4309389 0.99213147
-0.1861648 -0.51523489 0.90816861
-0.007400665 -0.71649331 1.048751
0.4805713 -0.71588892 0.95971441
0.002664505 -0.71604538 0.99809182
-0.01644 -0.71374607 1.004025
0.1770537 -0.70113128 0.91410482
0.02480327 -0.71120358 0.86262017
0.1631726 -0.6934709 0.90443218
-0.1487 -0.44890699 0.90348929
-0.2011438 -0.53507608 0.91904789
0.2470167 -0.4359518 0.94397348
0.42349651 -0.70338547 0.94097918
0.26519379 -0.71297348 0.91941261
0.48972771 -0.69356447 0.95633322
0.302937 -0.67156428 0.88692462
0.030458789 -0.55455709 0.88776869
0.66913688 -0.70833838 1.008965
0.26322901 -0.70547712 0.90107387
-0.1267741 -0.38665861 0.93413478
-0.1056568 -0.37464589 0.89868969
-0.1137662 -0.37938511 0.9075883
0.26851639 -0.42210391 0.99827182
0.2370996 -0.70893252 0.89117253
-0.1023073 -0.36136121 0.91473109
0.01894982 -0.69982898 0.80610842
0.22879159 -0.71294469 0.90043879
0.3220318 -0.63249111 0.91391361
0.01690441 -0.71696728 0.89877868
0.050843999 -0.42971259 1.0134211
-0.0071906829 -0.71492708 1.012735
0.25055781 -0.43883941 0.94442427
0.098872453 -0.69678688 0.85451061
0.26888749 -0.53621948 0.87311602
0.38103089 -0.54000533 0.91262352
0.01152263 -0.71284401 0.88169152
-0.016209399 -0.72552031 0.91021651
-0.074058183 -0.4475801 0.88897401
0.2262325 -0.42732131 1.006124
0.3543531 -0.6078341 0.90233678
0.32346591 -0.63627362 0.89323813
0.56177002 -0.68834758 0.91679293
0.24943841 -0.71615839 0.88843822
0.0099438094 -0.66142231 0.91820472
-0.07423497 -0.72192079 0.90031618
0.212899 -0.49289551 0.87958843
-0.0386049 -0.718126 1.495326
-0.2056379 -0.53273427 0.91246903
0.068207517 -0.49567789 1.071393
-0.16572011 -0.45459121 0.94747472
0.24137031 -0.68353373 0.94403517
-0.041470651 -0.55888611 0.92151839
-0.13399871 -0.71751177 0.92862773
0.2128277 -0.71847188 0.87411392
-0.09310583 -0.37958369 0.98805028
-0.1264632 -0.36896029 0.99101251
0.20949841 -0.42380431 0.99083412
-0.1134976 -0.71015412 0.91978782
-0.13809019 -0.7075212 0.92085809
0.58136308 -0.70954043 1.310962
-0.094356328 -0.70363832 1.395622
-0.16163281 -0.70814902 0.89551288
0.0099793375 -0.7139594 1.048676
-0.1008052 -0.68928152 0.88767499
0.1432282 -0.46140221 1.068611
-0.17838401 -0.71438652 1.402898
-0.1109885 -0.37034959 0.89953119
-0.1148991 -0.38508779 0.98928988
-0.1809589 -0.70961368 1.41224
-0.077592723 -0.53793162 1.020676
0.1366559 -0.61374837 1.089002
0.01163319 -0.64786673 1.0611219
-0.1058284 -0.36546981 0.98566097
-0.004571747 -0.71862268 1.040275
0.2377931 -0.70766431 1.11368
0.2151598 -0.45947239 1.097676
0.44578269 -0.69224608 1.27904
-0.1477222 -0.70915842 1.347729
-0.1690356 -0.69499582 0.91561729
-0.1065903 -0.38133499 0.93620688
-0.146722 -0.63014448 0.92309648
