# .PCD v0.7 - Point Cloud Data file format
VERSION 0.7
FIELDS x y z normal_x normal_y normal_z curvature
SIZE 4 4 4 4 4 4 4
TYPE F F F F F F F
COUNT 1 1 1 1 1 1 1
WIDTH 595
HEIGHT 1
VIEWPOINT 0 0 0 1 0 0 0
POINTS 595
DATA ascii
0.11938597 -0.1595061 0.96168661 0.99347609 0.057236094 -0.098636992 0.017987311
0.11754536 -0.12914988 0.97177547 0.99116141 0.11839968 -0.059836928 0.020221081
0.097559892 -0.15289085 1.0003115 0.67289704 0.074579649 0.73596704 0.0027502726
0.10277101 -0.094878778 1.0774608 0.65592885 0.75031471 0.082372859 0.026877513
0.10097414 -0.091888823 1.0642008 0.63395745 0.77199376 0.046082124 0.020991668
0.045735635 -0.16663145 1.0429999 0.60967726 -0.055302706 0.79071808 0.0043432675
0.10874056 -0.10116425 1.0638771 0.69225234 0.72024047 0.045169752 0.026040046
0.10970249 -0.098636992 1.0043743 0.69993931 0.71285027 0.043924652 0.042945303
0.086132549 -0.14913316 1.0094365 0.62843055 0.05930632 0.77560151 0.0011876125
0.1292932 -0.22500032 0.97456175 0.9888503 0.097405188 0.11263774 0.031689428
0.15828414 -0.39990512 1.0147874 0.98915231 0.055055775 0.136186 0.00086948817
0.1377434 -0.31112403 1.0836627 0.97125566 0.14851823 0.1860237 0.00071953563
0.1180912 -0.2494342 1.1040525 0.92520386 0.3789725 0.019434076 0.011521948
0.13491125 -0.29946241 1.0834461 0.96696955 0.18695508 0.17325643 0.00086135149
0.13951443 -0.28256378 1.0386451 0.95666981 0.2667281 0.11678576 0.013283649
0.15826754 -0.39228356 1.0191233 0.98868322 0.064821303 0.13529108 0.00085866969
0.13982284 -0.28418484 1.0383921 0.95894355 0.25790864 0.11794244 0.012022056
0.13767454 -0.26928473 1.0254052 0.89362085 0.44837323 0.020080876 0.015756493
0.14288433 -0.34304282 1.0840682 0.9722749 0.1425259 0.18538567 0.00033713438
0.15224615 -0.35146305 1.0406898 0.9823156 0.11569523 0.14721009 0.00058913638
0.15184996 -0.42416802 1.0950073 0.98731768 0.11337233 0.11113305 0.001638792
0.13786592 -0.34484929 1.103173 0.97337943 0.15484565 0.16898301 0.00028651423
0.14210248 -0.29423887 1.0391653 0.97159678 0.20314033 0.12138247 0.0018774484
0.15162799 -0.4035244 1.0631199 0.99930161 -0.034107536 0.015262963 0.021588698
0.13800317 -0.30354929 1.0771075 0.97032619 0.17286663 0.16906869 0.00058570557
0.13516435 -0.30814523 1.0913855 0.97333127 0.14481331 0.17791925 0.0010108553
0.15178822 -0.42294717 1.0946883 0.9910894 0.095589563 0.092760302 0.0028010339
0.11039006 -0.24387144 1.0513642 0.62265819 0.76869488 0.14630458 0.027104722
0.15166558 -0.40059686 1.0732759 0.99576104 0.071675107 0.057642706 0.0093274955
0.15594789 -0.38412195 1.0284699 0.98809439 0.046784937 0.14656323 0.00097377232
0.15466829 -0.32440785 0.97918087 0.98568028 0.16565785 0.031492941 0.0011258455
0.039202899 -0.14400436 1.0488561 0.58514947 -0.10665208 0.80388147 0.0087732319
0.084548205 -0.14798792 1.0109992 0.61501217 0.060468074 0.78619564 0.00085618679
-0.29192021 -0.17421205 1.2798445 -0.24742204 0.16917983 0.95402336 0.019608131
-0.2656152 -0.13627973 1.2703613 0.28319401 -0.056405567 0.95740247 0.025719827
-0.25606471 -0.2148046 1.2604407 0.4911727 0.55601889 0.67051649 0.054930199
-0.25536472 -0.20955165 1.2569813 0.57954425 0.43708998 0.68780869 0.067634225
-0.0032139872 -0.091945201 1.3179637 -0.098161034 -0.29819378 0.94944453 0.017017305
-0.30335554 -0.15526019 1.272675 -0.39384785 0.23460419 0.88873208 0.034244545
-0.26568598 -0.13857494 1.2693335 0.33164129 -0.084982961 0.93957013 0.024060575
-0.22822718 -0.17346498 1.2435995 0.54602081 0.014934723 0.8376385 0.0019009052
-0.24502377 -0.16650602 1.2535354 0.55311221 -0.051437858 0.83151728 0.0022917408
-0.28580353 -0.10173406 1.2692513 -0.29278979 0.29436478 0.90973812 0.025145561
0.021287838 -0.30179334 1.3557314 -0.12832138 0.1763285 0.97593129 0.0015728081
0.084544539 -0.36707124 1.3605344 0.36534435 0.41158471 0.83493799 0.032848161
0.078769654 -0.31239787 1.3564241 0.49658954 0.14882176 0.85513204 0.056791455
0.024443509 -0.24181721 1.3371189 -0.36180806 0.38260585 0.85012221 0.010937616
0.086134866 -0.37214065 1.3622956 0.39273795 0.36363441 0.84470522 0.045316938
-0.038724776 -0.3255645 1.3529556 -0.12488441 0.090683475 0.98801839 0.001493305
-0.13096495 -0.41695529 1.3506361 -0.1449642 0.29976034 0.94293642 0.0032699716
-0.18418238 -0.42295137 1.3469559 -0.065065756 0.3168655 0.94623607 0
0.063499279 -0.21381068 1.336158 0.80583316 0.29951134 0.510809 0.03838107
-0.037302922 -0.32561699 1.3530794 -0.12488441 0.090683475 0.98801839 0.001493305
-0.18825164 -0.3954806 1.3375185 -0.060045224 0.25451055 0.96520412 0
-0.15028879 -0.33474079 1.3324178 -0.12355062 0.10332511 0.98694432 0.0010451394
-0.10108733 -0.39263439 1.3495345 -0.15774371 0.20402782 0.96617264 0.0012464942
-0.18625435 -0.3871884 1.3353481 -0.058706433 0.24436976 0.96790338 0.00026406627
-0.12196879 -0.34844318 1.338161 -0.1326185 0.15753502 0.9785679 0
0.055828534 -0.2241382 1.3415344 0.40937367 0.4459511 0.7959528 0.08803618
-0.068585321 -0.35427558 1.3489994 -0.23702139 0.16631526 0.95716256 5.8224854e-05
-0.071085945 -0.2488915 1.3263621 -0.19990954 0.37411338 0.9055801 0.027218964
0.055851378 -0.2183205 1.3411107 0.35324046 0.47588184 0.80545497 0.086307883
-0.09860003 -0.3417742 1.3396826 -0.16375358 0.19059077 0.96791524 0.00098295463
0.082568601 -0.37709001 1.3675364 0.20726599 0.21663287 0.95399743 0.015891237
-0.074760169 -0.24406666 1.3191382 -0.087252229 0.74672991 0.6593796 0.040383305
-0.0019521742 -0.21680959 1.0868014 0.73553324 0.36315572 0.57193422 0.041576315
0.015470057 -0.20827521 1.0687543 0.59150273 0.26548639 0.76134199 0.015777847
0.073475644 -0.1758825 1.0206262 0.61813778 0.044410072 0.7848143 0.00084452529
0.128745 -0.22469947 0.97669572 0.96774703 -0.052864876 0.24631485 0.02974816
0.11489087 -0.15175541 0.9831146 0.78146899 0.11960731 0.61237264 0.020799771
0.046545871 -0.21608202 1.0507668 0.46665183 0.4227652 0.7768563 0.028061371
0.15940262 -0.35286111 0.97146505 0.98905027 0.14741375 -0.0069716559 0.00082728377
0.047171701 -0.14254132 1.0438117 0.53612393 -0.13369246 0.83348513 0.010189688
-0.0038452654 -0.16811277 1.0829923 0.70919704 0.037895568 0.70399112 0.0062201549
-0.00088001508 -0.21581879 1.0872337 0.7354815 0.36323458 0.57195067 0.041558616
0.11808223 -0.12873693 0.97652179 0.99339056 0.080492176 0.081830584 0.038418688
0.13915317 -0.28154787 1.0411798 0.95285821 0.27253339 0.13336697 0.011357784
0.13796844 -0.3015486 1.0754784 0.96947426 0.1799047 0.16659512 0.00056856446
0.15168805 -0.40225068 1.0655279 0.99984431 -0.0098538827 0.01463705 0.023765793
0.018741362 -0.21845889 1.0705091 0.52948219 0.38273475 0.75707519 0.021455562
0.10328719 -0.094721593 1.0757737 0.65406042 0.75222558 0.079759896 0.026021196
0.1337593 -0.29800588 1.0845431 0.96596044 0.19070618 0.17479014 0.00091706519
0.12955651 -0.25658047 0.92178887 0.53567821 0.23268509 -0.8117305 0.025019506
-0.0071043763 -0.19500849 1.0899431 0.79856771 0.12632522 0.58849955 0.01140279
0.041201901 -0.21179099 1.0532387 0.47349161 0.42599541 0.77093029 0.027735611
0.12495072 -0.2768665 1.1463585 0.96998513 0.21262734 0.11797664 0.0044740546
0.053530831 -0.1791802 1.0364207 0.62319487 0.059022956 0.77983618 0.0033655933
0.12916777 -0.32838106 1.1507868 0.98207331 0.12123175 0.14434308 0.00076859235
0.086838298 -0.09558294 1.1654311 0.69016016 0.72264099 0.038325239 0.013049903
-0.0029837536 -0.19090861 1.081138 0.69791454 0.11094245 0.70753586 0.0042777364
0.041534156 -0.16701442 1.0458202 0.59198785 -0.046369415 0.80461192 0.0041498891
0.12478082 -0.2731244 1.137756 0.968642 0.22712193 0.1007394 0.0044793733
0.14301583 -0.41026241 1.1404053 0.97539955 0.14804378 0.16333622 0.00023563637
0.13690151 -0.39888018 1.1658268 0.97594225 0.15767848 0.15057981 0.00022238876
0.059927583 -0.23804265 1.1950724 0.29384077 0.95580292 0.0099155428 0.012298931
0.12901172 -0.29627147 1.1316469 0.98223817 0.13231315 0.13304698 0.0015271071
0.12962545 -0.32849893 1.1581836 0.98003912 0.11081824 0.16505358 0.0010617471
0.13197647 -0.41434422 1.2166128 0.96896613 0.18097109 0.16838673 0.0046133627
0.090289935 -0.19659841 1.0102994 0.6178838 0.11968933 0.77710629 0.007490769
0.070348047 -0.24003094 1.2200981 0.3524437 0.93579489 -0.0084432233 0.0098533817
0.10904449 -0.27227029 1.2269844 0.89972126 0.43068561 0.070792452 0.018429916
0.10724843 -0.099313572 1.0645819 0.67941421 0.73239678 0.044624086 0.023546457
0.06986811 -0.097301103 1.259127 0.74747771 0.61209124 -0.25811112 0.16303785
0.15891445 -0.39802411 1.0126872 0.98915231 0.055055775 0.136186 0.00086948817
0.11747724 -0.32481298 1.2434741 0.98440945 0.14243391 0.1032016 0.00084612815
0.1062844 -0.262568 1.2458518 0.88420624 0.45533425 0.10416426 0.03631258
0.12501867 -0.34785101 1.1992974 0.98501277 0.12649402 0.11725628 0.000601932
0.028287932 -0.18655077 1.0550443 0.56866193 0.12066988 0.81367218 0.0024628737
0.012299864 -0.18126656 1.0678854 0.65204877 0.077141799 0.75424236 0.0036992629
0.1334994 -0.30775917 1.1027308 0.9781974 0.1311166 0.16105396 0.00088826451
0.068760209 -0.091311187 1.2809484 0.8340115 0.51645863 0.19415274 0.045003027
0.12309115 -0.39432591 1.2914627 0.93196291 0.27772781 0.23305039 0.0015085785
0.1176558 -0.24855982 1.1037188 0.94306403 0.32286778 -0.079916082 0.016519101
0.14290851 -0.34187156 1.0823942 0.97198331 0.14364174 0.18605228 0.00030724079
0.082882732 -0.17997891 1.0139242 0.61990708 0.046465281 0.78329825 0.00099194772
0.10008683 -0.24285951 1.0357482 0.43855822 0.87369239 0.21054314 0.024351882
0.069049001 -0.091478981 1.2805603 0.83402485 0.51643598 0.19415587 0.045003194
0.12387117 -0.39435062 1.2875092 0.93493527 0.27323636 0.22635825 0.0017729651
0.085376166 -0.31093293 1.3553534 0.84031707 0.14251061 0.52302766 0.0045964965
0.073055647 -0.22247057 1.3245549 0.86304045 0.23135632 0.44903842 0.02778497
0.12485471 -0.34467635 1.2006134 0.98537415 0.12554261 0.11522473 0.00061068812
0.13771029 -0.25264218 0.92831445 0.72442126 0.10885371 -0.68070894 0.058749121
0.10219057 -0.31312129 1.3038272 0.9688977 0.13380525 0.20816669 0.00091667689
0.13770126 -0.30900678 1.0830731 0.97090578 0.15392336 0.18343814 0.0007248951
0.15222216 -0.42362472 1.0914686 0.99527043 0.07595177 0.060565289 0.002914309
0.08533366 -0.10642273 1.2051295 0.80625194 0.56085926 0.18813507 0.0030442756
0.043894581 -0.23978092 1.1332914 0.085008629 0.99192148 0.094156742 0.0063079754
0.1275198 -0.3441565 1.1735779 0.98226029 0.1212852 0.14301965 0.00072840147
-0.2073392 -0.073954575 1.1673467 0.025508337 0.99966341 0.0047313166 8.0789068e-05
0.061736565 -0.13941184 1.320493 0.65984434 0.096878089 0.74513096 0.032951247
0.080412358 -0.24005866 1.2682809 0.77353019 0.62636137 -0.096552908 0.033955887
-0.20831159 -0.25075045 1.3044032 -0.43409631 0.71059239 0.5537318 0.017784262
0.12348907 -0.26923856 1.1204448 0.95828176 0.28580734 0.0031863863 0.0050286017
0.04656193 -0.17015535 1.0418085 0.61238605 -0.056035705 0.78857052 0.0037005306
-0.18171251 -0.42216352 1.3471456 -0.065003566 0.31634524 0.94641435 0
0.086766452 -0.14803423 1.0086118 0.64419466 0.056930277 0.76273984 0.0018420075
0.1008543 -0.24596132 1.1883806 0.62559813 0.63088858 0.45891899 0.067794919
-0.0015238518 -0.21984798 1.0882766 0.73298317 0.3789939 0.56488878 0.042042706
0.062695213 -0.22181468 1.3414414 0.67043227 0.32043034 0.66921222 0.051078543
-0.04813363 -0.33699143 1.3511664 -0.15961194 0.091935575 0.98288953 0.00027383521
0.12806687 -0.21200736 0.97580177 0.96912336 0.24223664 0.046058033 0.011590261
0.092072621 -0.18815522 1.0080853 0.62876421 0.042862281 0.7764138 0.0016471164
0.13900517 -0.27405161 1.0330313 0.94200081 0.32989094 0.061696235 0.021591088
0.078322165 -0.19245523 1.0155413 0.60057098 0.021578595 0.79928023 0.00081344298
-0.065378793 -0.08681009 1.3058422 0.47250536 -0.64740551 0.59800065 0.086004086
-0.24701072 -0.21789344 1.2595193 0.4749364 0.60952342 0.63475716 0.053986557
0.053321481 -0.089970417 1.3122351 0.50921744 0.57085031 0.64407104 0.063863382
0.088276155 -0.36795241 1.3598927 0.50784373 0.4118484 0.75662124 0.042913955
0.0086480984 -0.24264109 1.3312223 -0.37162405 0.52279139 0.76719278 0.036617719
0.10525683 -0.24820393 1.1841562 0.86230862 0.43093276 0.26593372 0.034765508
0.0033647916 -0.098120518 1.3169105 -0.074028134 -0.27028173 0.95993108 0.091578811
0.11940181 -0.17722645 0.9439795 0.75524688 0.33668625 -0.56235623 0.066096768
0.08689025 -0.082746267 1.084744 0.59460741 0.79799354 0.098226078 0.0053339922
-0.030306969 -0.42662904 1.3693497 -0.16398329 0.19341545 0.96731585 0.00087290583
-0.12613942 -0.41647345 1.3512042 -0.15916879 0.28292388 0.94584322 0.0041251201
-0.1419868 -0.24714896 1.2981151 -0.08441671 0.86315405 0.49783424 0.021521278
-0.064937674 -0.24419241 1.3237716 0.023195496 0.69235224 0.72118682 0.052412126
0.14624175 -0.29530489 0.93913347 0.91692525 0.14911333 -0.37015301 0.034788128
0.15568373 -0.397681 1.0349566 0.99072385 0.0089102359 0.13559842 0.0076864953
0.14517105 -0.32035804 1.0578967 0.97122419 0.16960749 0.16720307 0.00044928963
-0.27884656 -0.13976504 1.2718465 -0.034439474 0.16463137 0.98575377 0.033221703
-0.29428464 -0.17252964 1.2787592 -0.30478391 0.18196696 0.93487692 0.019883933
-0.24446537 -0.21403705 1.2560796 0.46929151 0.53943771 0.69912261 0.066369355
-0.23183134 -0.27445588 1.3127631 -0.10666893 0.29001522 0.9510588 0.0090730488
0.098169982 -0.15344459 0.99991798 0.67842114 0.075749747 0.73075759 0.0036443828
0.14026509 -0.39446935 1.1425312 0.97413188 0.14658228 0.1719906 0.00021569118
0.063383147 -0.24440421 1.3488659 0.62624705 0.28636634 0.72512674 0.018644866
-0.029705098 -0.074565768 1.043784 0.021986423 0.99975818 0.00030031684 0.00023453341
0.11042862 -0.099452518 1.0051003 0.69993931 0.71285027 0.043924652 0.042945303
0.067008838 -0.2244145 1.3358848 0.84328687 0.24086615 0.48046929 0.029275512
-0.32576656 -0.39536574 1.3128321 -0.36052284 0.12436075 0.92442298 0.002535145
-0.019528907 -0.3272661 1.3539392 -0.099488392 0.12622701 0.98699993 0.0011654911
0.12034655 -0.27982646 1.1657652 0.93646628 0.29738501 0.18599196 0.004271612
0.12730341 -0.35599974 1.1829906 0.9851011 0.11014347 0.13207629 0.00052455277
-0.068469316 -0.25183383 1.328557 -0.16745207 0.35854247 0.91837198 0.017429639
0.15042001 -0.40315405 1.0900667 0.98734236 0.12687907 0.095167361 0.002197583
0.065833293 -0.23215342 1.0552255 0.41242233 0.77662748 0.47619075 0.032587018
-0.040255234 -0.27546021 1.3420868 -0.19754316 0.32385463 0.92525399 0.0098592844
-0.18715133 -0.38964036 1.3360397 -0.056390475 0.24944805 0.96674496 0.00058927276
0.11812951 -0.15629061 0.96715277 0.99980754 0.016728844 0.010249712 0.040764637
-0.25947002 -0.13778183 1.2661216 0.39975354 -0.14336441 0.90534174 0.014215522
-0.30596191 -0.15208618 1.2701942 -0.47769082 0.23738439 0.8458488 0.053059172
0.11038191 -0.28215161 1.2244343 0.96164662 0.24164641 0.12978005 0.0071767429
-0.013170621 -0.10338928 1.3111283 -0.14638324 -0.33173022 0.93194795 0.014269581
-0.021963008 -0.074994199 1.0636877 0.025973089 0.99959928 -0.011250956 0.00014900506
0.12057739 -0.31396499 1.1929866 0.97899002 0.13609134 0.15184751 0.00071104238
0.15193602 -0.34935942 1.0415797 0.98219478 0.11607172 0.14771873 0.00060375303
-0.17634618 -0.38364956 1.3351829 -0.07323166 0.19164766 0.97872782 0.0010511691
-0.22986867 -0.1756359 1.2441453 0.54370838 0.013675143 0.83916277 0.0016667232
-0.068664059 -0.2485337 1.3276609 -0.14212446 0.35991421 0.92209679 0.021373766
-0.16390628 -0.31879681 1.3292425 -0.10364242 0.097724341 0.98980212 0
-0.17077631 -0.36996433 1.3333396 -0.076190464 0.13986565 0.98723483 0
-0.26222908 -0.32056275 1.3180981 -0.18096779 0.16786337 0.96905756 0.0016081362
0.051708128 -0.11671919 1.3237488 0.2843655 0.19558975 0.93855256 0.030160487
-0.21532631 -0.33102015 1.3249606 -0.10938098 0.14763094 0.98297554 0.00047877806
-0.2848509 -0.18508977 1.2810637 -0.17286441 0.13864551 0.9751386 0.037788264
0.13733232 -0.39129058 1.1549026 0.9750976 0.1483175 0.16488355 0.00022409121
-0.032562755 -0.39223227 1.3615454 -0.17314009 0.18403599 0.96755016 0.0028561079
-0.0024584415 -0.087907188 1.3181404 -0.094356336 -0.24839993 0.96405101 0.018486423
0.15420133 -0.36921164 1.0310955 0.98859435 0.078644045 0.12843825 0.00046120296
-0.13007253 -0.30227435 1.3306136 -0.13197461 0.16263622 0.9778201 0.00048712234
0.073669165 -0.1797042 1.3049853 0.9594869 0.19739182 0.20105042 0.027484607
0.099452235 -0.34081817 1.334745 0.91851801 0.15995602 0.36157811 0.0071750954
-0.21001123 -0.19345462 1.2331215 0.52378058 0.085962519 0.84750473 0.0033060252
0.10208496 -0.29288578 1.2929844 0.97824216 0.13145776 0.16050248 0.00089939381
-0.25338572 -0.090852804 1.2737046 -0.19277342 0.4585107 0.86752886 0.093419418
-0.0054385331 -0.097383112 1.3150122 -0.1105893 -0.32516068 0.93917018 0.016115056
-0.23633364 -0.16266626 1.2488303 0.52520084 -0.081222944 0.84709316 0.0055044098
-0.19821046 -0.16101286 1.2223459 0.54828608 0.040425874 0.83531326 0.0019054959
-0.3169511 -0.35465381 1.3092066 -0.38227841 0.17455465 0.9074105 0.0035137259
0.064304516 -0.23355122 1.3441501 0.66827542 0.31187835 0.67538124 0.051032081
0.10836315 -0.37398762 1.3221184 0.93286687 0.14238347 0.33088732 0.0020264287
0.15157729 -0.41194856 1.0956141 0.99018413 0.099144295 0.098517634 0.002569586
-0.10106884 -0.39003712 1.3485702 -0.1578535 0.20175749 0.96663135 0.0012021483
0.08653374 -0.10351099 1.1980188 0.79751962 0.58271503 0.15622355 0.0038016848
0.10212047 -0.30321491 1.3002702 0.97337365 0.1411701 0.18059562 0.0012056049
-0.1485672 -0.38689122 1.3382586 -0.13725241 0.19531144 0.97108966 0.003304193
-0.26151517 -0.079257123 1.2537998 -0.13876028 0.89811164 0.41730213 0.02848544
-0.21525618 -0.19230212 1.2356145 0.52057099 0.080850787 0.84998178 0.0028830613
0.1468145 -0.27722782 0.95640904 0.97425425 0.17793444 -0.13844834 0.0031477122
-0.25178072 -0.425722 1.3385698 -0.13989891 0.26305264 0.95458448 0.0023194687
-0.17130518 -0.39881125 1.3391688 -0.073395215 0.25748855 0.96348989 0.0015779096
0.069240816 -0.12569192 1.3046799 0.81741232 0.16375518 0.5522874 0.0080007976
-0.11801332 -0.29304072 1.3310159 -0.1442553 0.17619513 0.9737277 0.0010405984
-0.099476859 -0.34273094 1.3398846 -0.16427754 0.1875245 0.96842521 0.00091951323
0.092739195 -0.38537487 1.3635517 0.6102044 0.30086219 0.73289329 0.045104686
0.099237047 -0.34083575 1.3374001 0.89110708 0.13371494 0.43364567 0.0066551045
0.098884761 -0.40679544 1.3646841 0.61200076 0.18380986 0.76920021 0.020980695
-0.035630252 -0.31948942 1.3515716 -0.12804551 0.14939177 0.98045212 0.0012181774
0.14973678 -0.29548475 0.97832292 0.98923576 0.14425199 -0.024576198 0.0038714053
0.092711657 -0.29063874 1.3322304 0.92977226 0.081244797 0.35905817 0.0091621084
-0.16700438 -0.23943731 1.2600759 0.027803956 0.99379933 0.10765631 0.0013615894
0.13419923 -0.37663436 1.1585338 0.97538358 0.14671881 0.16462216 0.00014339443
0.097233929 -0.27012479 1.2875229 0.93019271 0.33020046 0.16034071 0.0098674046
-0.069980316 -0.088539898 1.3096019 0.42125973 -0.65807372 0.62408274 0.079205886
0.01942556 -0.088407286 1.3185509 0.025513757 0.091938563 0.9954378 0.045146614
-0.011899174 -0.091227971 1.3166373 -0.10622396 -0.31292394 0.94381946 0.017303949
-0.21636446 -0.073935106 0.98651695 -0.02907267 0.99876845 -0.040203467 0.0019368933
-0.2241421 -0.27518433 1.3133707 -0.15839094 0.36977085 0.91552269 0.016292023
0.060437988 -0.14366609 1.3222531 0.6671142 0.045020547 0.74359381 0.036426999
0.060225602 -0.20795883 1.3360834 0.61610097 0.49698111 0.61108869 0.052298341
-0.20361161 -0.39195541 1.3355734 -0.06620881 0.23873323 0.96882546 0.0026973167
-0.080437385 -0.28599432 1.3355014 -0.18055589 0.25382066 0.95024979 0.00069918571
-0.146447 -0.17410783 1.1848345 0.048854496 -0.10716788 0.99303991 0.026185155
-0.12384804 -0.34966779 1.3373814 -0.13538779 0.14796849 0.97968131 0
0.052070141 -0.16206504 1.327365 0.55793148 -0.20355444 0.80453587 0.033325799
0.055246398 -0.24305515 1.3495353 0.38358483 0.34992662 0.85464269 0.056718875
0.12094959 -0.35232446 1.2497333 0.98641342 0.10869629 0.12318109 0.00053592928
-0.15424177 -0.26915354 1.3232479 0.24832219 0.61671168 0.74699587 0.030495986
-0.037558731 -0.38935277 1.3599925 -0.17015195 0.18240041 0.96838957 0.0018081045
-0.072628707 -0.35760239 1.3485833 -0.2240541 0.17427057 0.95886892 0.0011023572
-0.053595785 -0.075133309 0.966784 -0.018540215 0.99807674 -0.059153266 0.0024548972
-0.35383356 -0.40416503 1.3024697 -0.51184374 0.043093089 0.85799712 0.018515591
0.12534504 -0.36419931 1.2173984 0.98927772 0.094196722 0.1116092 0.00070895761
0.12431971 -0.39889863 1.2381036 0.97735071 0.14872992 0.15054891 0.0034808905
-0.018713742 -0.07518664 1.042206 0.024510402 0.99969953 0.00031753874 0.00021366698
-0.098178223 -0.36596435 1.3448275 -0.17476781 0.18699165 0.96669036 0
-0.038235474 -0.23973049 1.3001668 0.004365101 0.83999497 0.54257667 0.012083019
0.058985427 -0.10881054 1.2539393 0.91093487 0.31499988 -0.26640725 0.16110389
-0.27427447 -0.12843394 1.2724102 -0.019634789 0.096710242 0.99511898 0.030783804
-0.063346297 -0.28356224 1.337746 -0.20923524 0.27146554 0.9394291 0.0035751024
0.10811796 -0.2823059 1.2465198 0.96729678 0.2098638 0.14245729 0.0095127467
0.10611679 -0.26941341 1.2516214 0.94282508 0.29648715 0.15223719 0.016244376
0.015790462 -0.23534608 1.133386 0.26746964 0.96349204 -0.011962714 0.0025783365
-0.20102109 -0.23623091 1.2516335 0.16522019 0.89627928 0.41156498 0.017384684
0.14711384 -0.30484086 1.0152597 0.97090518 0.2086038 0.11759067 0.0016668001
0.1600278 -0.39606738 0.92448235 0.90515953 0.18871342 -0.38088518 0.035215314
0.10591807 -0.27910423 1.2589816 0.96852177 0.19559649 0.15397228 0.0042714467
0.087212965 -0.24835473 1.2868404 0.89013362 0.4412933 -0.11367643 0.013761309
0.12584218 -0.23821658 0.97699094 0.94958156 -0.061855894 0.30735764 0.014134833
0.096344493 -0.27322513 1.3121214 0.95869929 0.21172749 0.18991347 0.0065716826
0.15195774 -0.30840233 0.98720223 0.98572236 0.15108882 0.074320793 0.0024710055
0.087974593 -0.2688958 1.3326219 0.79668474 0.30444244 0.52211893 0.015847139
-0.28532907 -0.13985959 1.2723949 -0.13979666 0.19993719 0.9697845 0.020453451
-0.15759726 -0.072895363 1.0461156 -0.0052315388 0.99954093 0.029841216 8.3815285e-05
-0.29883751 -0.17602743 1.2782451 -0.33124706 0.1566938 0.93044204 0.018868765
-0.020939352 -0.1048142 1.3093899 -0.16423579 -0.35493392 0.92035234 0.01338682
0.077931911 -0.22709224 1.3011203 0.9851771 0.15759696 0.067744315 0.02106965
0.082183294 -0.30690542 1.353619 0.50124896 0.19817711 0.84230363 0.067501485
0.0021923538 -0.24441257 1.3271461 -0.28851506 0.66057181 0.69311178 0.014991894
-0.079679273 -0.28470385 1.3354192 -0.18107317 0.25787547 0.94905889 0.00092935847
-0.16837217 -0.38352349 1.335132 -0.074106313 0.18496594 0.97994691 0.0024465621
-0.14867558 -0.37472469 1.3361796 -0.12227128 0.13731425 0.98295194 0
-0.35028255 -0.36055684 1.2939491 -0.59066671 0.28769881 0.75388473 0.035471685
0.12292781 -0.31708375 1.1822832 0.98089021 0.13195674 0.14297514 0.00073978782
0.13995817 -0.28302678 1.0343235 0.95829409 0.27024841 0.092942551 0.015294445
0.15004721 -0.34508702 1.0475314 0.98116505 0.11681569 0.15384786 0.00049675477
-0.076080501 -0.34684634 1.3451718 -0.22969763 0.16892731 0.95848972 4.2640324e-05
0.14721017 -0.32025918 1.0302314 0.97517312 0.1833889 0.12412065 0.00019177109
-0.25012007 -0.28256387 1.3130482 -0.12087548 0.21734087 0.96858245 0.0040424173
-0.13790277 -0.29244331 1.3290706 -0.10871381 0.14748529 0.98307139 0.0021009769
-0.080223493 -0.10639866 1.3027502 0.061605416 -0.29106951 0.95471632 0.016601862
-0.08809536 -0.4042263 1.3538985 -0.15329288 0.20891571 0.96584445 0.0011489588
-0.022777976 -0.39146897 1.3629628 -0.16363369 0.18144494 0.96969151 0.0022735524
0.010596604 -0.16903751 1.0683571 0.64226776 0.040243514 0.76542312 0.0024771416
0.046572972 -0.20528448 1.0440804 0.44868335 0.30029523 0.84172797 0.018905094
0.04713532 -0.10348868 1.3208425 0.21559712 0.21401805 0.95274037 0.050562106
0.082784131 -0.2387161 1.2876832 0.88423014 0.43287745 -0.17536899 0.011696693
0.027514379 -0.23498182 1.1118146 0.19002017 0.97316062 0.12981078 0.0036354545
0.15052883 -0.32607782 1.0255263 0.97511035 0.17807923 0.13208905 0.0001637597
0.14584163 -0.36885682 1.0860771 0.97853738 0.13151926 0.15864171 0.00055377622
0.16335325 -0.40420938 0.92158979 0.90313834 0.14808339 -0.40300432 0.043908581
0.14906646 -0.41050062 1.0569018 0.98197818 -0.18446729 -0.041117951 0.027988255
-0.034171455 -0.42483655 1.3678297 -0.16363901 0.18991444 0.96806753 0.00018667898
0.14938727 -0.41330665 1.1031204 0.98042834 0.13886234 0.13956247 0.0009179716
0.11017459 -0.34470755 1.2923884 0.96041697 0.17095904 0.21993688 0.0003801269
-0.074403174 -0.25143313 1.3271883 -0.1935872 0.36999851 0.90863913 0.02476058
0.10474768 -0.28530899 1.2656325 0.97180343 0.17153388 0.16178453 0.0021922463
-0.11699806 -0.23984878 1.2613205 -0.0047702487 0.99654514 0.082916111 0.0014200867
0.071815476 -0.16436538 1.3016543 0.89738494 -0.01094132 0.44111294 0.021928346
0.094994605 -0.27683789 1.326703 0.949166 0.12929255 0.28699708 0.0073343464
0.023902845 -0.17500059 1.3274184 -0.2526218 0.018647809 0.96738535 0.020783784
-0.13653564 -0.074097075 1.2222226 -0.006473795 0.99975967 0.020945812 0.00017746516
-0.3288269 -0.3380757 1.299463 -0.48470652 0.21040389 0.84899348 0.0074866
-0.13196334 -0.41277707 1.3487934 -0.15284486 0.29149473 0.94428241 0.0026885464
-0.022509238 -0.32140455 1.353359 -0.10448963 0.13359112 0.98551279 0.00015942127
0.11021647 -0.09676116 0.98054224 0.83358574 0.55031574 -0.047827281 0.031374101
-0.11670312 -0.074789114 0.96309042 0.028752916 0.99521065 -0.093429074 0.0030783182
0.1174561 -0.24012659 1.0096667 0.64569736 0.58249336 0.49373731 0.02441223
0.12636094 -0.33423325 1.1781156 0.98253322 0.12069886 0.14163429 0.00098002411
-0.02717666 -0.41733724 1.3675768 -0.16388908 0.19004892 0.9679988 0.0018232644
-0.19952992 -0.24063952 1.2723433 0.11354695 0.97178483 0.20673974 0.0082283244
0.04452657 -0.12089507 1.3254122 0.036130317 0.1631797 0.98593462 0.037107226
0.15147752 -0.36237502 1.0431316 0.98379678 0.10409755 0.14597091 0.00046239165
-0.020882431 -0.097558849 1.3115499 -0.22886975 -0.33209544 0.91505814 0.013301735
-0.20229366 -0.37691149 1.3329868 -0.050121691 0.17720833 0.98289621 0
-0.091175519 -0.33500701 1.3387702 -0.17619945 0.2081968 0.96208513 0.0004432764
-0.23411304 -0.23248047 1.267835 0.42905247 0.82125229 0.37610978 0.026734829
0.10842635 -0.33512256 1.294471 0.9647845 0.16245861 0.2068771 0.00067720492
0.12674521 -0.27807787 1.1228551 0.96378177 0.26469317 0.032590684 0.0028548092
-0.32020545 -0.17271619 1.268049 -0.59182447 0.24113712 0.76915318 0.053511839
0.12277375 -0.35086289 1.2264664 0.98675936 0.10648809 0.12233634 0.00062491279
0.13083802 -0.35508254 1.1599135 0.9797951 0.12122803 0.15907629 0.00059103925
0.027302943 -0.37302396 1.3658781 -0.090200305 0.15917987 0.98312032 0
0.093074456 -0.37857968 1.361207 0.66262668 0.32137558 0.67649364 0.04617551
-0.23375075 -0.10441472 1.2802837 -0.26566017 -0.067124359 0.96172708 0.062074769
-0.23999923 -0.073525116 1.0490808 -0.11159293 0.99357086 0.019079447 0.0035090749
-0.12741086 -0.23366261 1.2136023 0.095081061 0.88648444 0.45288527 0.01990154
-0.11363963 -0.42249757 1.3545134 -0.128004 0.24112388 0.96201575 0.0032625333
0.13164689 -0.37858847 1.1791209 0.97955418 0.14989643 0.1341812 0.00024565769
-0.086533137 -0.097625554 1.3048722 -0.29458454 0.54084963 0.78784621 0.059362099
0.053451095 -0.094826005 1.3138832 0.52821881 0.54521418 0.65094262 0.065247692
-0.10875881 -0.18248273 1.1852307 -0.10778224 0.10023162 0.98910898 0.013765748
-0.13912171 -0.17447519 1.185258 0.035658397 -0.089042231 0.99538934 0.022206005
-0.21674289 -0.17239316 1.2360362 0.55113989 0.037520938 0.83356881 0.0014748194
-0.14252874 -0.073019251 0.99501765 0.010154493 0.99979311 -0.017620958 0.00023260048
0.0068503148 -0.31439236 1.3547339 -0.095256515 0.1188067 0.98833752 0
-0.14737467 -0.38850853 1.3377963 -0.13986686 0.21949904 0.96553481 0.00098893652
-0.22342895 -0.23564425 1.260426 0.39402834 0.84724438 0.3562564 0.023216242
0.11044346 -0.28529313 1.2232336 0.96469784 0.22400804 0.13848668 0.0072428365
0.054438807 -0.23493029 1.0683031 0.35753053 0.78127521 0.51164538 0.03641165
-0.010188363 -0.23313177 1.0903603 0.86248863 0.23440707 0.44851616 0.044000298
0.15020478 -0.30873257 0.95030093 0.97865814 0.15755393 -0.13192742 0.0020767723
-0.094635844 -0.23568875 1.225175 -0.10161702 0.92073673 0.37672001 0.013583824
0.10241848 -0.16820207 0.99848604 0.69235665 0.057892911 0.71922922 0.0067898659
0.11990273 -0.2790814 1.1687566 0.92840689 0.31631014 0.19495796 0.0037260468
0.11496899 -0.10747438 0.96392989 0.91206449 0.32103539 -0.25509739 0.022101467
-0.20660098 -0.074550629 1.1079702 0.0072790291 0.99944979 -0.032360893 0.000238876
0.077899501 -0.19006233 1.0170438 0.6035893 0.030175507 0.79672414 0.00047887376
0.12302506 -0.26900241 1.1342179 0.95213377 0.29521453 0.079307012 0.0048799748
-0.14572595 -0.074374638 1.222616 0.0013109213 0.99982125 0.018861078 0.00024497314
0.08526171 -0.37827882 1.3671454 0.21785319 0.22387967 0.94995672 0.018449292
0.1463477 -0.32539263 1.0475395 0.97532803 0.16007757 0.15202114 0.0004266864
0.041204855 -0.074178182 1.1219975 0.016694853 0.99985713 0.0026682438 0.00064883241
0.12842706 -0.37529206 1.1995199 0.98402613 0.12730446 0.12444311 0.00048256412
-0.25634912 -0.27921596 1.311529 -0.12104218 0.21951179 0.968072 0.003029281
0.1027349 -0.31545052 1.3018552 0.96880913 0.13552815 0.20746338 0.00097532233
-0.27077812 -0.08223179 1.0701376 -0.47094822 0.86906368 -0.15144639 0.018279733
-0.11884073 -0.074552968 1.2275419 -0.014512195 0.99977708 0.015336508 0.00035523187
0.14914978 -0.37318397 1.0678502 0.98333597 0.097534433 0.15341936 0.0011331919
-0.1088494 -0.10552902 1.3056836 -0.090719432 0.76068461 0.64275104 0.011607786
0.10248967 -0.29418415 1.2907668 0.9791013 0.13023758 0.15620103 0.00088521116
0.10183094 -0.2709066 1.2684882 0.9012146 0.38133669 0.20589933 0.013186385
0.11503278 -0.29165867 1.2171973 0.97570896 0.16159704 0.14791393 0.001188217
-0.24092999 -0.074544251 1.0912547 -0.09923666 0.99447745 -0.034158159 0.0035966267
-0.13885136 -0.24012339 1.2599044 -0.0024277184 0.99342555 0.11445443 0.0025087958
-0.051050942 -0.39500156 1.3587868 -0.1719874 0.18812709 0.96696866 0.016676314
-0.2499992 -0.198662 1.2556039 0.4437848 0.21586119 0.86974645 0.046557609
-0.060374577 -0.25156876 1.3296012 -0.091466285 0.42910376 0.8986122 0.035988156
0.070417039 -0.24071795 1.2220827 0.34900311 0.93658942 -0.031575441 0.0089779459
-0.29635042 -0.22916588 1.2882994 -0.35379499 0.26883009 0.89585692 0.015354282
-0.042279005 -0.26501226 1.3386869 -0.12134715 0.43465492 0.89238447 0.025265701
0.021345103 -0.37470493 1.3654296 -0.096532725 0.16239408 0.9819926 0.001363841
-0.0035128896 -0.31705102 1.3544999 -0.09546192 0.12495992 0.98755866 0
0.04604334 -0.39315623 1.3709692 -0.039237462 0.17191227 0.98433053 0.0026966757
0.10777695 -0.32952008 1.2916023 0.9658857 0.15794019 0.20523086 0.00078796106
0.05126721 -0.23461738 1.3451989 0.070985444 0.39924589 0.91409177 0.077632882
-0.28104684 -0.42658404 1.3322833 -0.19941489 0.21255088 0.95658553 0.00010362265
-0.00023371958 -0.20836721 1.2960234 -0.63688856 0.43065593 0.63945949 0.023788963
-0.31921601 -0.39194182 1.3143123 -0.31900051 0.1260139 0.93933976 0.0020003901
-0.35107371 -0.35183403 1.2908173 -0.63891983 0.25146738 0.72701144 0.040770147
-0.35164979 -0.35498351 1.2915887 -0.6228686 0.27233446 0.73339528 0.042215772
-0.20508783 -0.24382021 1.2978466 -0.44696668 0.71664172 0.5353927 0.027204467
-0.32249871 -0.19454238 1.2687145 -0.6240676 0.02651423 0.78092039 0.031523593
-0.34187675 -0.2859273 1.2800258 -0.7804063 0.10385489 0.61658752 0.023742165
-0.35737243 -0.38208786 1.2956334 -0.7136479 0.21138559 0.66784936 0.049749877
-0.35702509 -0.37793326 1.2950339 -0.75902277 0.21755086 0.61364174 0.043896839
-0.30163881 -0.082731768 1.2128078 -0.72435468 0.68844897 -0.036718432 0.042717658
-0.314803 -0.14535831 1.2646766 -0.64280087 0.22838397 0.73119617 0.074095108
-0.3079339 -0.11332778 1.26411 -0.80632794 0.2588748 0.5318073 0.076184243
-0.31467703 -0.13945538 1.2628318 -0.73693752 0.25648189 0.62541199 0.076147594
-0.30903199 -0.16669993 1.2724841 -0.46104392 0.26094201 0.84814364 0.053080488
-0.22262655 -0.26692086 1.3118397 -0.22547564 0.47386405 0.85124236 0.015582647
-0.32324925 -0.18927267 1.2693821 -0.61196226 0.09233623 0.78547829 0.027830832
-0.355654 -0.42371157 1.1241153 -0.91788477 0.38166261 -0.10872578 0.00478725
-0.12601526 -0.40984553 1.3486365 -0.17065677 0.26419902 0.9492498 0.001864463
-0.040640656 -0.38553837 1.3584272 -0.17016147 0.17545485 0.96967041 0.0026485205
-0.1648301 -0.32143494 1.3294883 -0.10513152 0.099250138 0.98949319 0.0011036057
-0.071853086 -0.35618067 1.348663 -0.22757351 0.17612542 0.95770043 0.0014916203
-0.19685881 -0.2494231 1.3123595 -0.47611639 0.70253205 0.52892518 0.025840871
-0.067708708 -0.40298513 1.3566349 -0.17265634 0.17596968 0.96913594 0.0005283631
-0.17484426 -0.33993673 1.3299567 -0.097527534 0.10379028 0.989806 0
-0.16091125 -0.35196009 1.3330562 -0.10878894 0.10640023 0.98835409 0.00069215818
-0.23791575 -0.27490708 1.3121713 -0.10617123 0.26211095 0.95917964 0.0053128442
-0.2180271 -0.19946101 1.0057721 -0.8072468 0.19785114 0.55606437 0.013339076
-0.32153457 -0.18234158 1.269483 -0.57850468 0.20630071 0.78915924 0.038793772
-0.3225514 -0.36072052 1.3087646 -0.41070136 0.17350514 0.89510918 0.0043843449
-0.34782925 -0.31118199 1.2792194 -0.87361073 0.16241643 0.45872137 0.023453863
-0.31562001 -0.17164591 1.2712699 -0.51938128 0.24602583 0.81836081 0.052219249
-0.34980851 -0.30428559 1.2591236 -0.97166771 0.14680476 0.18523002 0.019845176
-0.31318119 -0.11846013 1.2318163 -0.98607916 0.16607374 -0.0082066637 0.030486703
-0.25117624 -0.20117089 0.95797032 -0.8222447 0.28341454 0.49354824 0.013460839
-0.32064334 -0.24960138 1.127141 -0.77164239 0.63209009 0.070923641 0.021490226
-0.37222832 -0.41870418 1.2359029 -0.95477217 0.27200225 -0.12010355 0.003002997
-0.34521824 -0.32662004 1.1798517 -0.97846699 0.10865052 -0.17549203 0.00020782207
-0.34531003 -0.283501 1.2262466 -0.97534972 0.20266381 -0.087294213 0.0015686592
-0.22927664 -0.23491493 1.0336676 -0.40839288 0.89738297 0.16709 0.0435335
-0.23127396 -0.17928374 0.98177749 -0.83314461 -0.026622526 0.55241406 0.0020631468
-0.35493931 -0.33614185 1.2389897 -0.99222744 0.12417879 0.008016808 0.0010818861
-0.017256333 -0.31397569 1.353315 -0.10946298 0.14559954 0.98326933 0.0019856498
-0.32776052 -0.396887 1.0078593 -0.97627109 0.18637674 -0.11026597 0.00046954502
-0.34604663 -0.32366422 1.1854229 -0.97748625 0.11818256 -0.17479534 0.000243556
-0.34220618 -0.28756303 1.1936408 -0.96859771 0.19813149 -0.15020792 0.0019512324
-0.31214622 -0.12264688 1.2251672 -0.986628 0.1146031 -0.11589392 0.037282713
-0.31280509 -0.25313449 1.0807729 -0.69410068 0.65544891 -0.29767573 0.049641192
-0.31060356 -0.11399261 1.2203344 -0.97656757 0.089055821 -0.19592057 0.045287106
-0.33635473 -0.32009035 1.1345158 -0.97711444 0.10889915 -0.18272522 0.0001691053
-0.28653076 -0.10416356 1.0467464 -0.67592937 0.69074279 -0.2568925 0.01616391
-0.23688249 -0.17573991 0.97383112 -0.81835872 -0.048961502 0.57261837 0.0019447596
-0.29068843 -0.24208163 1.0541464 -0.29903764 0.95326436 -0.043168329 0.013049466
-0.14760864 -0.27000868 1.3242273 0.23075029 0.58888566 0.77457595 0.024629558
-0.20786914 -0.18622574 1.0186603 -0.81760073 0.11100107 0.5649848 0.0094708996
-0.30408454 -0.10342506 1.1651653 -0.85949123 0.51067656 -0.022006914 0.06241712
-0.33054015 -0.32678679 1.0946988 -0.98033875 0.07850489 -0.18103328 0.00027573147
-0.29069284 -0.093458481 1.0868707 -0.67679071 0.72460377 -0.13001464 0.03100819
-0.149528 -0.24748564 1.2990346 -0.043267645 0.83540642 0.54792702 0.015984708
-0.30546832 -0.092362843 1.2086946 -0.87771291 0.47908834 0.0097126272 0.032726809
-0.30639082 -0.10010111 1.1823826 -0.73238552 0.66989505 -0.1218698 0.044255175
-0.26214251 -0.13185377 0.95142603 -0.94915128 -0.30058292 0.093604609 0.013608906
-0.20605893 -0.20020916 1.0220385 -0.76018214 0.35842752 0.54189742 0.017131355
-0.21798249 -0.21628594 1.0198171 -0.6360659 0.52783489 0.56285924 0.021995826
-0.34966251 -0.37134874 1.1806608 -0.97353178 0.12202383 -0.19325103 0.00021926458
-0.32974762 -0.40263912 1.022247 -0.97290927 0.20405222 -0.10867437 0.00060328085
-0.22344926 -0.16466665 0.99664509 -0.85174483 -0.065510802 0.51984525 0.0022302631
-0.33849421 -0.3417502 1.1338255 -0.97788262 0.10261533 -0.18225177 0.00017867846
-0.33978912 -0.27281824 1.2026356 -0.9034794 0.39917433 -0.15615603 0.0097563453
-0.27398995 -0.092211224 0.97988564 -0.71511096 0.68381637 -0.14495306 0.039899487
-0.32211995 -0.34172133 1.0425037 -0.9851886 0.10655572 -0.1343478 0.00039840996
-0.30504751 -0.2592428 0.98149484 -0.77404487 0.62888283 -0.073218323 0.015501455
-0.26492947 -0.1255527 0.95019299 -0.95416343 -0.29239163 0.063869618 0.013175929
-0.19598362 -0.21400997 1.0448259 -0.705567 0.51431793 0.48749605 0.018552409
-0.35902461 -0.37684569 1.2561152 -0.95505452 0.2859154 0.078251556 0.0011136022
-0.35575041 -0.34813592 1.2235661 -0.99340278 0.08468809 -0.07732296 0.00073062378
-0.30895212 -0.24939676 1.0643933 -0.62309504 0.76082563 -0.18137513 0.044182029
-0.30271089 -0.24221565 1.179324 -0.62481439 0.73189718 -0.27190718 0.0087635657
-0.3089062 -0.27724364 0.9821744 -0.94207978 0.32358295 -0.088202581 0.011090039
-0.2831375 -0.11433855 1.0351862 -0.96744704 0.20922248 -0.1423801 0.015393449
-0.32008037 -0.15354544 1.2317833 -0.98855489 0.11591493 -0.096555591 0.031117551
-0.33612975 -0.30658957 1.1420789 -0.97432929 0.14541857 -0.17186002 0.00049524737
-0.35561717 -0.3505041 1.2230473 -0.99416906 0.074289106 -0.07816048 0.00060408883
-0.32218131 -0.28397918 1.0789924 -0.9341262 0.23340386 -0.2700569 0.0046013347
-0.3470695 -0.41099051 1.116232 -0.95286715 0.26465842 -0.14832424 0.0065970612
0.047422945 -0.38630247 1.3701158 -0.025578631 0.16360447 0.98619443 0.0024407587
-0.32488152 -0.37219784 1.0318751 -0.98061454 0.16707765 -0.10237298 0.0002469972
-0.32342604 -0.20589684 1.2704815 -0.6823802 -0.033280462 0.73023951 0.041097008
-0.22691929 -0.23484497 1.1117978 -0.23135385 0.94929171 -0.21288671 0.015292387
-0.32746455 -0.28361732 1.1057918 -0.96138114 0.21205644 -0.17543747 0.0020571172
-0.063267864 -0.40634659 1.3585341 -0.17533566 0.18335503 0.96728396 0.0010359494
-0.3109445 -0.27222759 1.014251 -0.95845133 0.28347534 -0.031822048 0.0056564906
-0.33754689 -0.28265285 1.168985 -0.96811944 0.20007651 -0.15071161 0.0028345108
-0.27776405 -0.16199039 0.92179888 -0.91358501 0.30754521 -0.26604202 0.035481833
-0.2660737 -0.095929839 0.95259839 -0.89618456 0.29025871 -0.33556384 0.10532807
-0.26705641 -0.22242467 0.95188266 -0.70494789 0.62306881 0.33887139 0.033492863
-0.30522245 -0.25685906 0.99115968 -0.78140432 0.61993718 -0.071309909 0.017690459
-0.32067403 -0.25381351 1.1088179 -0.88818735 0.43775651 -0.13961528 0.023760825
-0.34074429 -0.26659817 1.2211732 -0.87369108 0.44336054 -0.20023839 0.010717385
-0.35022953 -0.31606472 1.2685308 -0.96066958 0.15929233 0.22746432 0.019079898
-0.18144624 -0.42031088 1.346265 -0.064777844 0.31196707 0.94788206 0
-0.1510119 -0.3837449 1.3378431 -0.12609968 0.17396095 0.97664553 0.003680405
-0.22677404 -0.073850617 0.92558104 -0.084411547 0.96449745 -0.2502386 0.015340732
-0.35271609 -0.42079416 1.1305305 -0.95326298 0.27600247 -0.12293186 0.0055839946
-0.32215765 -0.34457186 1.0421405 -0.98538119 0.10996339 -0.13012296 0.00034304473
-0.35251912 -0.3368504 1.2755474 -0.9746092 0.11681391 0.1910273 0.011661388
-0.30776042 -0.27603197 0.97764033 -0.91107535 0.39290765 -0.12476131 0.01786191
-0.21292323 -0.23587036 1.0873682 -0.21548852 0.97580528 -0.036995295 0.0069112587
-0.32657906 -0.38746363 1.0136698 -0.97684795 0.18850443 -0.1011635 0.00038673182
-0.25358844 -0.19698699 0.95306951 -0.81303 0.22620246 0.53648365 0.018587323
-0.29569128 -0.13392584 1.2079622 -0.79792631 -0.14044327 -0.58616507 0.056813307
-0.32627648 -0.21358444 1.2727263 -0.73180163 0.10410689 0.67351919 0.057905845
-0.22353114 -0.16072883 0.99762982 -0.85008436 -0.079789318 0.5205673 0.0019491783
-0.32924837 -0.20408036 1.253179 -0.95816404 0.14017917 0.24954249 0.026742503
-0.32616532 -0.18461353 1.2604554 -0.81630868 0.21560629 0.53586763 0.044721644
-0.33268991 -0.23346387 1.2413495 -0.93733442 0.30131161 -0.17497304 0.015177871
-0.28139448 -0.22700854 0.88971877 -0.81151164 0.23312652 -0.53581798 0.0057763956
-0.29271498 -0.10627532 1.0781074 -0.78215897 0.60065603 -0.16564931 0.021584112
-0.33284262 -0.27207515 1.1549578 -0.8605262 0.49365082 -0.1257118 0.020738538
-0.25086233 -0.1545697 0.95648724 -0.83544266 -0.23523603 0.49668863 0.004433475
-0.2721996 -0.23544398 0.94524014 -0.6174739 0.77988589 0.10248841 0.028709192
-0.32299665 -0.32308611 1.059186 -0.98188668 0.081957974 -0.17082554 0.00028893762
-0.28600687 -0.28422329 1.3073565 -0.2041454 0.19937269 0.95842332 0.0020894075
-0.35542458 -0.37808055 1.2017132 -0.97346169 0.12657055 -0.19066265 0.00058055419
-0.21972103 -0.16271356 1.0045522 -0.8490485 -0.072317705 0.52334207 0.0021118806
-0.33972934 -0.26025081 1.2782681 -0.74017537 0.25546408 0.62199557 0.030257361
-0.29714093 -0.2804727 0.90293324 -0.95659673 0.14216366 -0.25438583 0.0028752827
-0.20032929 -0.1867208 1.0286292 -0.83370692 0.095164068 0.54394543 0.011051229
-0.35275483 -0.38912699 1.1823269 -0.97204769 0.15133527 -0.17950174 0.00085250364
-0.22079231 -0.22064386 1.0183799 -0.63058966 0.56213081 0.53513151 0.021616286
-0.24419874 -0.16277717 0.96634418 -0.79642761 -0.1014239 0.59616804 0.0032938062
-0.33330199 -0.22851637 1.2581744 -0.96015799 0.27598625 0.043912031 0.014967277
-0.31744945 -0.25472713 1.0927974 -0.82120389 0.50346792 -0.26859668 0.036668267
-0.35842502 -0.3693732 1.2544914 -0.98297781 0.16460256 0.08161252 0.0020892837
-0.33767405 -0.31909433 1.1409683 -0.97685665 0.11226474 -0.18206514 0.0002309353
-0.25746998 -0.23668666 1.1443757 -0.34113446 0.92168093 -0.18474725 0.0181517
-0.20012069 -0.21250398 1.1292007 -0.46052024 0.58687919 -0.66595346 0.03588248
-0.22520067 -0.2369889 1.1034889 -0.10024868 0.99254012 -0.069385462 0.0054924334
-0.26027569 -0.09123446 1.2754955 -0.23293124 0.3968167 0.88785112 0.083656229
-0.2601721 -0.3193005 1.3184848 -0.1703299 0.16773595 0.97100586 0.0017715418
-0.066816375 -0.24689007 1.3277055 -0.016741883 0.42716834 0.90401715 0.036740381
-0.22436324 -0.21520838 1.0110568 -0.69374466 0.52557701 0.49242997 0.026762599
-0.32831198 -0.30092546 1.0990864 -0.97715038 0.11136737 -0.18103704 0.00048552439
-0.19160438 -0.36591196 1.331955 -0.061731629 0.13729389 0.9886049 0
-0.18747924 -0.22671992 1.077814 -0.37032881 0.8917495 0.26007572 0.026949938
-0.30303863 -0.25176227 1.0009704 -0.71024901 0.70273238 -0.041394405 0.023270726
-0.34130272 -0.35840705 1.1409823 -0.977485 0.1179652 -0.17494911 0.00054175575
-0.19034705 -0.22444184 1.0688183 -0.39646417 0.85515368 0.33395863 0.018257359
-0.31507647 -0.1579483 1.2676347 -0.60594708 0.3355132 0.72128987 0.06750726
-0.27079672 -0.10311648 0.95777577 -0.89822555 0.22404079 -0.37814891 0.1035678
-0.34383893 -0.36866319 1.1477344 -0.97415489 0.14313477 -0.17474209 0.00046252296
-0.29446769 -0.25271609 0.95178109 -0.74801618 0.65075105 -0.13036419 0.014539653
-0.33668771 -0.24358171 1.2436786 -0.95841008 0.26705179 -0.10066459 0.014066834
-0.22349052 -0.073320739 0.98925382 -0.057615664 0.99750817 -0.040717535 0.0032128009
-0.35471001 -0.36696133 1.2028913 -0.97513103 0.12219251 -0.18490101 0.00041954697
-0.32871106 -0.37241158 1.0577257 -0.97876805 0.15096 -0.13865171 0.00014671001
-0.31570253 -0.1629997 1.2340932 -0.9738071 -0.046384867 -0.2225942 0.082541883
-0.20041765 -0.20072341 1.0309782 -0.76136315 0.36026034 0.53901637 0.018028621
-0.01226361 -0.23457938 1.3087401 -0.33789161 0.61715722 0.71059561 0.010214372
-0.29789287 -0.25181803 0.95351368 -0.75422776 0.64450794 -0.12549914 0.015277611
-0.1091118 -0.24384347 1.3131942 -0.11005948 0.95472568 0.27637991 0.0027256056
-0.27299216 -0.10454859 0.96936977 -0.94798827 0.15817969 -0.27621982 0.10767026
-0.26367792 -0.21380141 0.95570928 -0.72398591 0.54793525 0.41906017 0.036222346
-0.32650957 -0.32370341 1.0763601 -0.98076892 0.081715748 -0.177242 0.00027130893
-0.28645241 -0.09610261 1.0560434 -0.58407998 0.77074605 -0.25456098 0.011797511
-0.33615619 -0.35590515 1.115806 -0.97563803 0.11429595 -0.18726158 0.00057593803
-0.34854189 -0.41715813 1.1116673 -0.94653457 0.29171708 -0.13774355 0.0078264941
-0.29192495 -0.096411407 1.0748427 -0.67238575 0.72210211 -0.16268319 0.025931088
-0.27123097 -0.098968491 0.94387507 -0.94955391 0.14991949 -0.27544782 0.072776616
-0.13247265 -0.074950024 1.1351745 0.0023616962 0.99999207 0.0032300162 0.00080645096
-0.27489173 -0.094191343 0.97121042 -0.75529885 0.61476213 -0.2271369 0.083434924
-0.26101598 -0.084414206 0.91235644 -0.56317145 0.74191469 -0.36386877 0.036543015
-0.26691887 -0.23745883 0.99382126 -0.33485734 0.93815225 0.087982707 0.010282891
-0.26651907 -0.23996964 0.99879438 -0.31060064 0.94890261 0.055776615 0.010752101
-0.2383969 -0.15206577 0.98233825 -0.81134319 -0.19018415 0.55276781 0.0018732933
-0.31994098 -0.36216775 0.99674189 -0.98149025 0.16346136 -0.099786192 0.00034677159
-0.32235837 -0.3547419 1.0320081 -0.98415583 0.13979377 -0.10906446 0.00043664919
-0.31849492 -0.35436791 0.99495459 -0.9841733 0.14758885 -0.098084264 0.00033494027
-0.29959169 -0.28568742 0.91622728 -0.97006464 0.13576019 -0.20135467 0.0027975668
-0.29854745 -0.26396284 0.92399341 -0.95120704 0.29219139 -0.09914273 0.010507005
-0.3216182 -0.36472601 1.0078666 -0.98115343 0.16470715 -0.10104213 0.00027982271
-0.27255517 -0.10293657 0.97196996 -0.91699725 0.25557888 -0.30626047 0.12398621
-0.32635054 -0.41699037 0.97206259 -0.97660625 0.15429451 -0.14977762 0.0020928148
0.059727978 -0.24978217 1.3503132 0.41952246 0.23438612 0.87696296 0.048089691
-0.26788381 -0.23953399 0.99467415 -0.33732995 0.93833995 0.075674154 0.010767982
-0.27707309 -0.23956843 1.150486 -0.22439049 0.96931416 -0.10039404 0.0059193177
-0.25824985 -0.082073793 1.2643372 -0.20764752 0.77780974 0.59320694 0.068856642
-0.28657642 -0.24119894 1.0513681 -0.25747728 0.96557128 -0.037115443 0.014350343
-0.18962932 -0.072925143 1.0117114 -0.0079110898 0.99996024 -0.0041211769 0.00027280248
-0.33357468 -0.231861 1.2544985 -0.95783716 0.28657287 -0.020592151 0.02025352
-0.24965072 -0.075016372 1.2402738 -0.026711531 0.97035062 0.24022099 0.010093936
-0.047557484 -0.24000286 0.93866956 0.012540126 0.99550039 -0.093923718 0.0051715416
-0.26391536 -0.17288747 0.88837105 -0.42956072 0.24600555 -0.86888367 0.050903801
-0.2610549 -0.13044934 0.89167809 -0.75000787 0.0099997362 -0.66135329 0.05092008
-0.26067153 -0.07433705 1.213456 -0.11849972 0.9929533 0.0012477528 0.0027272347
-0.18805769 -0.074166097 1.1723219 0.013543083 0.99988055 -0.0074511934 8.4410647e-05
-0.30516905 -0.10666801 1.1718585 -0.83888012 0.53809762 -0.082043469 0.041692182
0.065073498 -0.075914688 1.0138836 0.13014165 0.99008673 -0.052834935 0.0051437099
-0.080968283 -0.24604611 0.90335673 0.24211206 0.91897166 -0.31124425 0.022072142
-0.18389401 -0.073372051 1.0223475 -0.011134098 0.99993038 0.003909911 0.00010510809
-0.22775272 -0.073142678 1.1517764 0.032928098 0.99944907 0.0041475501 0.00015472851
-0.0010777719 -0.074376941 1.236734 0.045999501 0.9988786 -0.011210272 0.00066380034
0.065510921 -0.25515598 0.90990162 0.11492774 0.49375954 -0.86197048 0.027984815
0.14207165 -0.26609749 0.93498796 0.8564927 0.1848577 -0.48192096 0.024196407
-0.042208057 -0.23803999 0.97283447 -0.036384132 0.99325448 -0.11009844 0.0062657413
-0.29530573 -0.080257028 1.210004 -0.58766979 0.80613703 -0.069190979 0.049459364
0.010338175 -0.27916771 0.89094234 0.11051803 0.44030294 -0.89102143 0.010954101
-0.1936589 -0.073105238 1.0108832 -0.0047311564 0.99997509 -0.0052402932 0.00025307597
