# .PCD v0.7 - Point Cloud Data file format
VERSION 0.7
FIELDS x y z normal_x normal_y normal_z curvature
SIZE 4 4 4 4 4 4 4
TYPE F F F F F F F
COUNT 1 1 1 1 1 1 1
WIDTH 587
HEIGHT 1
VIEWPOINT 0 0 0 1 0 0 0
POINTS 587
DATA ascii
0.055406243 -0.23804849 0.83078855 -0.03818788 0.040239327 0.99846005 0.00026994222
0.071753539 -0.24844576 0.83356464 -0.026538147 0.03974006 0.99885756 0.00042832436
0.069014601 -0.34261322 0.83561587 -0.024763491 0.047354307 0.99857116 0.00077355898
0.012077994 -0.42297149 0.8348527 -0.0032872404 -0.9487325 0.31606299 0.051043209
0.095409118 -0.41458189 0.84034055 -0.0016973162 -0.34457725 0.93875641 0.069831327
-0.029169066 -0.24460879 0.82760972 -0.37922969 0.11328183 0.91834205 0.052529152
0.060284611 -0.42489165 0.83565462 -0.02639932 -0.93049431 0.36535391 0.061239105
-0.01271046 -0.26510483 0.82969505 -0.23795374 0.036755063 0.97058076 0.02023402
0.068597481 -0.42501295 0.84170365 -0.047091611 -0.82715124 0.56000286 0.062244743
0.12728669 -0.22447221 0.83313066 0.18224031 -0.01378716 0.98315734 0.03191258
0.15552022 -0.33814847 0.83065158 0.54000878 0.014892566 0.84152764 0.066752322
0.15926585 -0.12984972 0.78360909 0.49851614 0.83831823 0.2206904 0.069906861
0.15171559 -0.13183376 0.79753411 0.47799677 0.81200534 0.33491242 0.099583417
0.10570782 -0.13612618 0.82468534 -0.012382079 0.65257818 0.75762028 0.079810776
-0.0078162644 -0.12382658 0.75239229 -0.27171642 0.96124053 0.046764094 0.037911694
0.083545484 -0.38785389 0.83763838 -0.028266938 -0.1040981 0.9941653 0.054693855
-0.017482882 -0.12899008 0.80089211 -0.23462763 0.88156962 0.40961561 0.063069813
-0.048597727 -0.13522089 0.73559648 -0.74328798 0.66857594 -0.023002526 0.068745092
-0.023251405 -0.12446499 0.71759129 -0.3949587 0.91841841 0.022699684 0.046774562
-0.022678925 -0.12446569 0.73444039 -0.35938248 0.93307084 0.014930885 0.046235681
-0.067434102 -0.42471817 0.8148331 -0.2959176 -0.94771588 0.11944601 0.11556041
-0.021031382 -0.42374051 0.8297348 -0.072255708 -0.98057866 0.18233132 0.07552547
-0.029218979 -0.1490019 0.82343006 -0.39949825 0.53019905 0.74785709 0.086205542
-0.025621615 -0.30979773 0.82943642 -0.34908879 0.004427976 0.93707919 0.04363763
-0.021616163 -0.42510426 0.83495897 -0.068921134 -0.97336173 0.21867068 0.072330013
-0.049832415 -0.39248779 0.82461762 -0.62873101 -0.24199271 0.73901075 0.1752281
-0.036467835 -0.39233559 0.82889676 -0.43713763 -0.15054411 0.88670576 0.14554623
0.16408405 -0.13244124 0.72978187 0.53433675 0.84204382 0.073801056 0.075164914
0.1456116 -0.42286956 0.83771539 0.11906434 -0.93693358 0.32860196 0.11951479
0.045514911 -0.38093516 0.83717459 -0.048195902 -0.087808788 0.99497074 0.043222327
0.15135601 -0.12611958 0.65805507 0.26273465 0.9442451 -0.19842277 0.055547081
0.07896661 -0.12386581 0.70277262 0.0099854767 0.99993527 -0.0054582837 0.00020694705
0.11834892 -0.18479654 0.83090723 0.073055789 0.18872638 0.97930855 0.02988909
0.09870135 -0.16685943 0.8292197 0.023973195 0.32145193 0.94662237 0.041608855
0.046580721 -0.38096458 0.83723831 -0.050825279 -0.090757057 0.99457526 0.04562337
0.1435671 -0.33605862 0.83324248 0.35348201 0.013929509 0.93533766 0.056421861
0.095225736 -0.23242116 0.83418876 0.030084966 0.039103396 0.99878216 0.0040548989
-0.0085997824 -0.36928958 0.83283859 -0.14245571 0.01410359 0.98970073 0.035347722
-0.02348315 -0.206195 0.82760245 -0.43108386 0.0071657882 0.90228337 0.06981612
0.033545181 -0.12337166 0.74080819 -0.0090659093 0.9992255 0.038290691 0.00058824406
0.056806363 -0.16606537 0.82724249 -0.0407045 0.40663767 0.91268229 0.056396592
0.0094397245 -0.42335343 0.83487362 -0.011579233 -0.95662302 0.29109845 0.048510894
0.15761615 -0.35997859 0.82668215 0.56739652 0.053037286 0.82173491 0.054396112
0.02587527 -0.12319921 0.69458085 -0.019713262 0.99974394 -0.01111204 0.001439145
0.11370315 -0.20199661 0.83237416 0.069406107 0.067547813 0.99529904 0.012442698
0.10076328 -0.20017925 0.83148998 0.025918551 0.075857818 0.99678177 0.0065318532
0.067473397 -0.27002722 0.83358401 -0.033918001 0.035606842 0.99879014 0.00037722368
0.045912076 -0.19194934 0.82864052 -0.039665978 0.17383507 0.98397565 0.011121542
0.052711561 -0.20088769 0.82952106 -0.037598826 0.11849602 0.9922424 0.0042540058
0.16335204 -0.15094066 0.81817013 0.64515179 0.40341318 0.64887363 0.11482073
0.090278417 -0.21529269 0.83225971 0.0051331683 0.047943398 0.99883682 0.0020872031
-0.012643271 -0.13168274 0.80864608 -0.2182738 0.83626825 0.50300294 0.068256721
0.01825282 -0.38122323 0.83569127 -0.046600241 -0.086065501 0.99519908 0.045168098
0.059925832 -0.33760461 0.83506256 -0.035689995 0.035496552 0.99873233 0.00014474051
0.14782903 -0.32838011 0.83336061 0.41760045 0.0073629599 0.90860099 0.058546018
0.16070989 -0.14064437 0.82033879 0.58517313 0.5636645 0.58297056 0.11844978
0.14729336 -0.26540291 0.83241189 0.43207619 -0.0020849498 0.90183473 0.052709803
0.092932463 -0.14902063 0.82503891 -0.014343274 0.51636076 0.85625106 0.066350065
0.14470318 -0.39394018 0.83478546 0.34460989 -0.14888912 0.92686349 0.14344983
0.041484799 -0.26220551 0.83075249 -0.043487512 0.036207136 0.99839765 0.00013043136
0.0050430242 -0.30006114 0.83119124 -0.14121377 0.025310786 0.98965544 0.0070683672
0.034634046 -0.33220088 0.83422726 -0.045954581 0.0367021 0.99826902 0.00036078077
0.07914497 -0.36425847 0.83718896 -0.026115865 -0.039781164 0.99886709 0.024586659
0.028991265 -0.26879382 0.83082628 -0.053643808 0.037869852 0.99784178 0.00040232189
0.099579647 -0.38410169 0.83959162 -0.0019858899 -0.08066386 0.99673933 0.05554416
0.075755335 -0.14106508 0.82344979 -0.057602078 0.68553764 0.72575492 0.069161028
0.031685464 -0.32175902 0.83396578 -0.050913803 0.038042936 0.99797827 0.00034044008
0.089804098 -0.18887611 0.82962304 -0.01372178 0.17538285 0.98440468 0.01555801
0.011882613 -0.1292965 0.62138319 -0.078266844 0.81435966 -0.57505876 0.070277803
-0.043760438 -0.13130312 0.65440059 -0.60481524 0.77079135 -0.20019791 0.086754315
0.14506882 -0.12464772 0.72121847 0.28027704 0.95854455 0.051352262 0.046733323
0.17718418 -0.42386231 0.79975098 0.21376067 -0.97531688 0.055348113 0.1014958
0.15027513 -0.42312583 0.8383165 0.11497244 -0.94936466 0.29238346 0.12993662
0.1589902 -0.29035035 0.82267725 0.60487998 -0.006153787 0.79629284 0.05769781
0.17425407 -0.35358989 0.76700336 0.98042601 0.0078183347 0.19673266 0.014025201
0.16058207 -0.36707082 0.82258379 0.65519565 0.02040983 0.7551834 0.075775385
0.17097755 -0.13783793 0.66178089 0.63945699 0.74328601 -0.19652127 0.084315099
0.17104757 -0.20441957 0.75944144 0.98515677 0.046605758 0.16520892 0.008402016
0.17621949 -0.39218304 0.71621662 0.93265957 -0.35809609 0.043741118 0.11010323
0.16930909 -0.42391157 0.69388282 0.13695036 -0.99057764 0.00076770963 0.052600056
0.17733964 -0.39579123 0.68889481 0.89035094 -0.45502096 0.015201123 0.11270026
0.16980094 -0.29571128 0.78598255 0.93628842 -0.0007958716 0.35123125 0.038646512
0.17187713 -0.24827027 0.7796191 0.95888555 0.039861605 0.28097969 0.028441133
0.17679708 -0.38822976 0.7192837 0.94603145 -0.31894946 0.057407498 0.10372832
0.16677965 -0.34849086 0.8085652 0.76489204 0.092859544 0.63743025 0.037986591
0.17688762 -0.35902777 0.64405453 0.94755578 0.06263867 -0.31339183 0.063073717
0.17513029 -0.34531248 0.6342566 0.80835974 0.12071572 -0.57617903 0.04492145
0.16333802 -0.13214839 0.79292482 0.58818048 0.76124918 0.27302644 0.089688487
0.16795392 -0.14147198 0.76274091 0.62575287 0.76966423 0.1266901 0.057839602
0.15523672 -0.22870162 0.82731003 0.46972752 0.011332351 0.88273871 0.058826234
0.17477921 -0.42293698 0.7308203 0.20879643 -0.977947 0.0048734234 0.066013187
0.16690031 -0.24223439 0.8155815 0.74151427 0.025083361 0.67046797 0.058676966
0.17156637 -0.42559299 0.82833421 0.1036595 -0.98409534 0.14426059 0.11988346
0.16799675 -0.25404364 0.61823499 0.638807 0.042903546 -0.76816982 0.058948953
0.17055219 -0.14315313 0.72866827 0.67551559 0.73533803 0.054376245 0.079549767
0.17125653 -0.20851925 0.8103649 0.6798529 -0.014193332 0.73321122 0.073269971
0.16627188 -0.19826224 0.81918484 0.56633049 0.062041003 0.82183981 0.067487329
0.17608908 -0.15451343 0.65011799 0.823035 0.48305279 -0.29878655 0.09132728
0.1708184 -0.2214901 0.81064045 0.70793027 -0.018735806 0.70603371 0.074523903
0.17113692 -0.26763451 0.78579676 0.94578427 -0.037085671 0.32267129 0.032675464
0.1740776 -0.35699409 0.75995791 0.99145299 -0.016399579 0.12942928 0.020217
0.17271262 -0.2732614 0.62887079 0.76263082 0.034509588 -0.64591277 0.052027024
0.17754248 -0.35490212 0.71299851 0.99844319 -0.043683395 0.034683429 0.016765365
0.17507759 -0.37134618 0.7423026 0.99104762 -0.12856649 0.035989583 0.072163008
0.17395212 -0.42396542 0.76806462 0.17848372 -0.98393148 -0.0047282297 0.047702461
0.18148609 -0.42359635 0.64427537 0.26980618 -0.95703346 -0.10626215 0.094808266
0.17326431 -0.17962901 0.81329221 0.7392059 0.1705472 0.65152752 0.074392989
0.16669135 -0.13359295 0.73014337 0.56078482 0.82479703 0.07231994 0.076640576
0.13842444 -0.12590922 0.77879661 0.27759162 0.94119787 0.19258611 0.052711643
0.16244936 -0.26832831 0.81961018 0.67155051 -0.0089525711 0.74090469 0.056147337
0.17854968 -0.29974452 0.67976546 0.99672049 0.015058891 -0.079507977 0.0095094806
0.031486206 -0.12352908 0.66607434 -0.011493325 0.99064612 -0.13597143 0.015016359
0.16041456 -0.1284657 0.6456151 0.38146529 0.8703596 -0.31138161 0.077651553
0.17645504 -0.42545381 0.80690312 0.13559633 -0.98878598 0.062577635 0.1029773
0.16502559 -0.29481179 0.80925953 0.76740342 -0.048301268 0.63934261 0.062021323
0.15974088 -0.27344292 0.8262555 0.58858168 -0.026941931 0.80798876 0.053551264
0.17619953 -0.42303607 0.76345259 0.20364812 -0.9788993 -0.016837124 0.04818644
0.096202016 -0.12425917 0.74220484 0.046486434 0.99839288 0.032412447 0.0023951684
0.17680107 -0.27883223 0.69655842 0.99958342 -0.0010740109 0.028841347 0.0016543956
0.17750975 -0.36800489 0.71130657 0.99258345 -0.11755936 0.030948499 0.06047941
0.16526069 -0.27869895 0.81042224 0.78604478 -0.015265167 0.61798102 0.058392659
0.17504464 -0.37172037 0.75797641 0.99177647 -0.099075742 0.081015043 0.065094464
0.11089819 -0.125479 0.78834814 0.065827712 0.94765711 0.31243038 0.051769406
0.17167942 -0.36372691 0.7861318 0.96589071 0.042444486 0.2554478 0.046162263
0.17490099 -0.23731115 0.72049361 0.99717826 0.0071348208 0.074730217 0.0001880413
0.16900131 -0.27973935 0.7970528 0.90267706 -0.023159461 0.42969513 0.043015752
0.17788972 -0.42365283 0.6702491 0.21739407 -0.97549838 -0.033805523 0.063132994
0.17093138 -0.16372006 0.74834782 0.8884865 0.45536411 0.056878358 0.060668163
0.17499013 -0.28605601 0.72626555 0.99712986 0.014532132 0.074302129 0.00023986257
0.16817293 -0.17134526 0.78775489 0.88702726 0.2951282 0.35508025 0.08212281
0.16939288 -0.15567593 0.75032437 0.78760868 0.61228794 0.069108345 0.066151425
0.17013228 -0.26873648 0.62057006 0.72783148 0.010913859 -0.68566912 0.046114739
0.18100059 -0.42361158 0.65784043 0.20654972 -0.97688961 -0.054990981 0.067055486
0.16270985 -0.3069436 0.82161707 0.65491354 -0.00065678474 0.75570345 0.067885444
0.17925683 -0.27022997 0.65677124 0.95489728 -0.02348849 -0.29600593 0.048399117
0.16901885 -0.30550379 0.79776096 0.87437701 -0.013052682 0.48507169 0.05332949
0.16799845 -0.30441305 0.61940116 0.7018044 0.009477092 -0.71230674 0.048097439
0.17079508 -0.28156927 0.77624243 0.96359682 -0.0069342819 0.26726979 0.020409539
0.17132957 -0.25680804 0.77487528 0.96758467 0.013231581 0.2522001 0.020880874
0.17093956 -0.23582867 0.77099186 0.96479738 0.025968444 0.26170933 0.023566041
0.17064463 -0.30431777 0.79261643 0.89516401 -0.018488742 0.4453533 0.048726354
-0.0059060361 -0.12382027 0.74451745 -0.2596736 0.96505553 0.035177298 0.037762593
0.04820288 -0.12454433 0.77455199 -0.02868337 0.97293729 0.22928217 0.02663799
0.17595086 -0.33713236 0.7398178 0.99652076 0.016451793 0.08170522 0.00051046762
0.17887899 -0.22290953 0.67303568 0.9847185 0.019815002 -0.1730231 0.0212844
0.1749936 -0.26907706 0.71253699 0.99794853 0.0056586964 0.063771211 0.00033436235
0.17010945 -0.17954572 0.76033551 0.95990068 0.25664088 0.11281067 0.032846369
0.17726266 -0.15715796 0.64923996 0.83581781 0.44617718 -0.31989774 0.088638082
0.17237297 -0.29787019 0.7614544 0.98372161 0.013927588 0.17915846 0.0065949792
0.17840959 -0.22851358 0.6797877 0.99927408 0.00082491437 -0.038088243 0.0067344131
0.1713497 -0.25596085 0.78525847 0.94864726 0.03324499 0.31458408 0.034134779
0.17106996 -0.14463031 0.71045649 0.72733289 0.68412232 0.054439288 0.087503545
0.17552231 -0.16359861 0.6686998 0.88470334 0.4257355 -0.18986665 0.076540619
0.17545618 -0.40043876 0.74801034 0.69644618 -0.71705437 0.02820874 0.10610827
0.17207034 -0.26992768 0.75932276 0.98720735 -0.0052047968 0.15935671 0.0059149438
0.17821783 -0.42307934 0.70953691 0.21992989 -0.97538304 0.016087644 0.068644144
0.17460383 -0.28025076 0.71516645 0.99791729 0.0074104699 0.06408032 0.00036294229
0.17970414 -0.2224609 0.66038215 0.96701479 0.031207565 -0.25280157 0.03538819
0.17674321 -0.1961166 0.69926429 0.99020416 0.134727 0.036666308 0.0096589047
0.17736289 -0.19693692 0.64245254 0.90631831 0.075255014 -0.41584116 0.04420444
0.17489874 -0.29714447 0.72899491 0.99710542 0.018218223 0.073816441 0.00020376856
0.1717549 -0.2737374 0.7633549 0.98189205 0.0057373843 0.18935438 0.0090595186
0.17523248 -0.27087501 0.70900387 0.99821866 0.0046931389 0.059476223 0.00042780366
0.17273591 -0.1444416 0.71014357 0.74777442 0.66193902 0.051674049 0.085751578
0.17951427 -0.32277167 0.69685125 0.99979997 0.0048141424 0.019412726 0.0018105686
0.17454934 -0.40319934 0.62158251 0.68109137 -0.52642334 -0.5089137 0.16641945
0.17628394 -0.18881872 0.70484549 0.97543228 0.21735425 0.035902455 0.025908111
0.17187485 -0.13210683 0.69462192 0.56116861 0.82706028 0.032575365 0.080535196
0.16981336 -0.36947393 0.62051648 0.66568857 -0.029154221 -0.74565995 0.10248955
0.17575218 -0.26190248 0.63014907 0.83937186 0.03213777 -0.54260677 0.044915874
0.17841485 -0.25283289 0.67480212 0.99297678 0.0029838348 -0.11827167 0.016439633
0.16701113 -0.19796246 0.62067264 0.71137625 0.042891961 -0.70150119 0.055968866
0.17367001 -0.14483772 0.6592446 0.74086171 0.62485713 -0.24632822 0.088706397
0.16206637 -0.35500637 0.82146567 0.66844469 0.083236665 0.73908949 0.046487585
0.17823002 -0.20065837 0.67395586 0.99025559 0.082095228 -0.11249126 0.014285504
0.17397353 -0.23272973 0.73761433 0.99712336 0.0083240159 0.075337291 0.00031497225
0.17842783 -0.19095202 0.64762121 0.92558801 0.10914154 -0.36245659 0.049939994
0.17537796 -0.25924331 0.62927574 0.81537831 0.041216575 -0.57745939 0.044420689
0.17945035 -0.42250261 0.6289947 0.32820725 -0.91966146 -0.21564497 0.13029906
0.17394093 -0.27326208 0.73254949 0.99669367 0.01180022 0.080388978 0.00025828683
0.16712233 -0.28679809 0.80379277 0.84113169 -0.054595433 0.5380677 0.054015186
0.17175627 -0.3551181 0.77716887 0.96689481 0.0083419178 0.25503898 0.025392659
0.17934942 -0.3439948 0.68847954 0.99934745 0.00094214996 -0.036106873 0.0048680478
0.1731495 -0.4241074 0.81057715 0.11784118 -0.98946905 0.084050611 0.10855737
0.10748202 -0.12483115 0.66918969 0.080216289 0.99076104 -0.10935164 0.013582818
0.17489395 -0.1905873 0.72440165 0.98129582 0.1775903 0.074298039 0.020497764
0.17477292 -0.25315407 0.72008306 0.99729562 0.0062948475 0.07322482 0.00020206053
0.17530511 -0.26154578 0.71394134 0.99790895 0.0027457529 0.064576678 0.00028313289
0.16082281 -0.12715133 0.65588331 0.37692288 0.89579827 -0.23553035 0.073443711
0.17645499 -0.21859691 0.71163547 0.99742317 0.016119709 0.069908671 0.00038679081
0.16895095 -0.42553419 0.83403498 0.10129733 -0.98036224 0.16920005 0.12207951
0.094996177 -0.12477466 0.6606378 0.047939088 0.98794889 -0.14716928 0.012417235
0.17528296 -0.16813746 0.72680181 0.91429466 0.40081331 0.05842958 0.062017489
0.10280544 -0.12418338 0.71486872 0.059241965 0.99814808 0.01381024 0.0044856188
0.11726371 -0.12619224 0.64249671 0.15246569 0.95808649 -0.2425375 0.041429807
0.11519184 -0.12511042 0.65220898 0.12585996 0.97297817 -0.19357868 0.032768615
0.16052347 -0.12958768 0.63731164 0.41530031 0.83099204 -0.3701053 0.083368674
0.17198466 -0.14669582 0.7330066 0.69965088 0.71182489 0.061594851 0.082711257
0.17690678 -0.19854727 0.63937289 0.88314891 0.067811295 -0.46416539 0.042613279
0.17890076 -0.3699117 0.68060851 0.99847406 -0.052912854 -0.015805094 0.056484547
0.17013605 -0.18442301 0.76481909 0.96776736 0.19408138 0.16049524 0.031981952
0.17424546 -0.29380873 0.74269283 0.99574322 0.020485476 0.089866348 0.00061757182
0.17904675 -0.27377433 0.65022528 0.93154901 0.010526336 -0.36346331 0.054183736
0.17180821 -0.27603093 0.76068133 0.98617655 0.0030911814 0.16566929 0.0058077131
0.1721548 -0.35458645 0.63069534 0.84376281 0.087799236 -0.52948612 0.057390958
0.16397217 -0.13066222 0.72736639 0.49140024 0.86803615 0.070987105 0.069158323
0.17840438 -0.31649402 0.64169753 0.85848445 0.022464953 -0.51234734 0.054460153
0.17347111 -0.16475426 0.73383337 0.88922942 0.45345765 0.060391359 0.069073856
0.17744613 -0.21923713 0.69254357 0.99936593 0.012532892 0.033327807 0.0020311547
0.17946361 -0.36322603 0.6893 0.99815285 -0.058962699 0.014638426 0.040761523
0.16936401 -0.16097069 0.76098609 0.86358941 0.48623884 0.13336077 0.057774678
0.16813949 -0.22710517 0.80583388 0.7314868 0.0033633539 0.68184733 0.071425714
0.1746196 -0.26779661 0.72451365 0.99713647 0.0096551469 0.075003974 0.00020758023
0.17077716 -0.28276059 0.7773788 0.95956153 -0.012851107 0.28120553 0.022810247
0.17598079 -0.37871528 0.72854382 0.96752322 -0.25153676 0.025060805 0.097865276
0.1749974 -0.34116307 0.755665 0.99034649 0.00057875132 0.13861245 0.0020487991
0.1657251 -0.18239415 0.82509834 0.59415704 0.1569971 0.78887862 0.07606376
0.0071150907 -0.12344627 0.71077102 -0.14578792 0.98914331 0.018477038 0.017621337
0.17128284 -0.33034578 0.62171721 0.76445115 0.0019021191 -0.64467883 0.050373282
0.17915592 -0.3148829 0.64417905 0.88387173 0.022412259 -0.46719223 0.056603339
0.17798285 -0.296675 0.66970438 0.98312432 0.023151735 -0.18146797 0.025959371
0.178215 -0.24066725 0.63799435 0.88068932 -0.0062202043 -0.47365358 0.0528461
0.1693252 -0.13248664 0.71310657 0.57268673 0.81802201 0.053571742 0.076011166
0.17387474 -0.15817571 0.72302556 0.86370414 0.50002128 0.063197777 0.075965464
0.10504115 -0.12519567 0.77773893 0.067312784 0.97942853 0.19023328 0.029498857
0.1574717 -0.37255573 0.82427841 0.59921837 -0.0043310728 0.80057383 0.096097514
0.1165482 -0.12818022 0.63236278 0.14802523 0.92830902 -0.34107322 0.061810024
0.1295552 -0.12360737 0.68715131 0.16439645 0.986022 -0.027102036 0.020928442
0.17516735 -0.14148016 0.61891621 0.59193063 0.59511745 -0.54355633 0.10277003
0.17918347 -0.24012578 0.64785486 0.94250101 0.055312239 -0.3295944 0.040664919
-0.042433862 -0.1315003 0.72861475 -0.6602934 0.75093544 -0.010415294 0.069453336
0.17364204 -0.14450228 0.6520316 0.7252422 0.62576085 -0.28713608 0.092194073
0.087501124 -0.12538868 0.77724773 0.00061113853 0.98098403 0.19408746 0.023922689
0.14823554 -0.12469537 0.70641047 0.29805091 0.95407832 0.03000362 0.048600856
0.098084554 -0.12517074 0.77935219 0.020870531 0.97745585 0.21010566 0.027722714
0.17623183 -0.18552941 0.70558596 0.97149491 0.23465225 0.033704262 0.028169265
0.1740073 -0.35997784 0.63311017 0.86777258 0.06081317 -0.49322668 0.067263387
0.17780447 -0.37722445 0.70068812 0.98247093 -0.18214206 0.039688092 0.084745534
0.17345579 -0.36422992 0.77228314 0.98209155 0.0021742908 0.18839194 0.03919334
0.11996937 -0.12366637 0.69418883 0.1276044 0.99179393 -0.0078623593 0.01523528
0.17527068 -0.33205482 0.73714775 0.99660861 0.014997718 0.080909461 0.00046033764
0.17847034 -0.35743117 0.65836185 0.98481542 0.023591734 -0.17199412 0.056544498
0.1779453 -0.42401567 0.80065745 0.22067183 -0.97369045 0.056840122 0.10380958
0.17833574 -0.14467038 0.62280512 0.6501326 0.54119337 -0.53332663 0.10008743
0.17518668 -0.18190245 0.71924573 0.96366817 0.25313145 0.085252956 0.034807209
0.065735355 -0.12380426 0.70696557 0.0088216383 0.9999606 0.00099298207 9.4380004e-05
0.17482908 -0.42320898 0.70024782 0.17659998 -0.98426402 0.006074232 0.064001158
0.17508474 -0.3942489 0.73363501 0.85889482 -0.51201248 0.011958268 0.1067275
0.17990655 -0.35738924 0.67416245 0.99533194 -0.015295839 -0.09529078 0.034689564
0.12753339 -0.12397648 0.72250164 0.15428498 0.98733151 0.037049245 0.021056514
0.088722751 -0.12857403 0.61657494 0.039283611 0.88096654 -0.47154504 0.047836818
0.093591638 -0.12392538 0.68638605 0.021968225 0.99917954 -0.034025524 0.0010151035
0.17504713 -0.32056382 0.63015443 0.78104126 0.0015667204 -0.62447739 0.053573396
0.17857027 -0.28739065 0.63977611 0.86466801 0.035308182 -0.50110137 0.060131811
0.17917188 -0.3301672 0.65260953 0.92818749 -0.00644862 -0.37205693 0.050171237
0.17614134 -0.17141525 0.71593755 0.92991221 0.36479381 0.046782941 0.056815755
-0.032750539 -0.12668692 0.74742192 -0.44799295 0.89390296 0.015485314 0.049150303
0.044376992 -0.12331162 0.72869325 0.0034677647 0.99984765 0.017107395 0.00016325587
0.0066666501 -0.12381349 0.75107193 -0.11779467 0.98975128 0.080726393 0.012440728
0.16684482 -0.20792973 0.62663752 0.72350973 -0.013989075 -0.69017249 0.055278819
0.17290226 -0.25993106 0.62652665 0.81252408 0.04555792 -0.58114469 0.04436443
0.17833684 -0.29530868 0.65178335 0.91729867 0.047615167 -0.39534274 0.056969568
0.17856641 -0.20786864 0.64717954 0.92228466 0.065931864 -0.38084629 0.050076414
0.034596875 -0.12537022 0.63403255 -0.026940366 0.91518146 -0.40214059 0.056243934
0.16925478 -0.1323541 0.67879015 0.54095274 0.83962744 -0.048947193 0.07281702
0.17772661 -0.16628683 0.65927768 0.88792914 0.3813079 -0.25726658 0.072602801
0.17691565 -0.20364714 0.69658983 0.99729401 0.060304262 0.04204851 0.002995054
0.16831617 -0.24085039 0.79909533 0.86530608 0.035354842 0.49999544 0.062887512
0.1795792 -0.42321414 0.76255614 0.24089167 -0.97040582 -0.016846716 0.050799366
0.17181388 -0.21468139 0.80869651 0.72012907 -0.030496588 0.69316959 0.07434909
-0.027917411 -0.12528811 0.73209369 -0.39459804 0.91865385 0.019170616 0.049502674
0.16435853 -0.1347255 0.76417917 0.50196505 0.85681939 0.11786231 0.052288461
0.11057279 -0.12474922 0.74857551 0.084865987 0.99545753 0.043152336 0.0078457166
0.15728754 -0.21820955 0.82649457 0.45280617 -0.010992082 0.89154118 0.067211695
0.17200984 -0.35187989 0.77094233 0.97282594 0.01057749 0.2312959 0.013877491
0.16867466 -0.28178307 0.79712421 0.90829051 -0.024664836 0.41761228 0.042951632
-0.03078343 -0.12411993 0.69839483 -0.47924456 0.87761921 0.010451526 0.05640091
0.12438457 -0.12742503 0.63473672 0.20529562 0.92534894 -0.31872085 0.061082534
0.1449772 -0.12386306 0.67198366 0.23187543 0.96786308 -0.097338445 0.038775139
0.028092286 -0.13236192 0.61620456 -0.035715029 0.79816735 -0.60137635 0.067937888
0.071156077 -0.12424092 0.65076977 0.0059235562 0.96977425 -0.24393173 0.034110539
0.16643471 -0.21535026 0.8165946 0.56137735 -0.042639829 0.82646072 0.073131539
0.17228822 -0.13782082 0.62547988 0.59319484 0.64154917 -0.48634821 0.10068137
0.17038853 -0.21405497 0.78641552 0.90765971 0.0019996448 0.41970214 0.065651968
0.16759333 -0.13973987 0.74666899 0.56106406 0.82547826 0.061585303 0.062861085
0.17903514 -0.3280296 0.66993088 0.98383808 -0.017203733 -0.17823204 0.023155723
0.17283052 -0.38431937 0.79642373 0.93470228 -0.040137924 0.353158 0.10527068
0.16844654 -0.15168773 0.62678707 0.66871858 0.48910275 -0.55999464 0.10877436
0.18003419 -0.22065005 0.65315598 0.95302606 0.055651981 -0.29773176 0.040858619
0.12911782 -0.12497931 0.64967752 0.17070509 0.95927471 -0.22505984 0.042712364
0.17430125 -0.31354633 0.62914944 0.79113096 0.0072601307 -0.61160368 0.051639929
0.17896903 -0.32608679 0.65113646 0.92506963 -0.0081055481 -0.37971094 0.05196264
0.17783995 -0.23395678 0.68959999 0.99996036 0.00014563266 0.0089040808 0.0030214405
0.16035849 -0.32089853 0.82803202 0.58202767 0.0059670433 0.81314713 0.066766419
0.01286752 -0.12310822 0.6866678 -0.10039871 0.99404818 -0.042288173 0.012064952
0.1597486 -0.12548691 0.67259037 0.35940191 0.92765379 -0.10143387 0.056087796
0.079520635 -0.12403742 0.74958259 0.0083789648 0.99867308 0.050812259 0.0015502711
0.17335895 -0.28311896 0.73591065 0.99624813 0.015319367 0.085176505 0.00037115643
0.18020149 -0.37002897 0.66331619 0.99481386 -0.028845979 -0.097536936 0.066248164
0.093891695 -0.12415151 0.70721686 0.029868826 0.99955261 0.0015368109 0.0011491319
0.17200704 -0.13464569 0.70477784 0.61391515 0.78830588 0.041014351 0.08071389
0.17292097 -0.15920693 0.7097019 0.88772094 0.45749485 0.051477443 0.073464744
0.1750045 -0.20100707 0.71884376 0.99387515 0.079524569 0.076733321 0.003237888
0.1780284 -0.31924015 0.71232998 0.99828529 0.015114658 0.056550931 0.00033377085
0.17572741 -0.40305242 0.74881947 0.64653981 -0.76253933 0.022804212 0.10400198
0.17879677 -0.22385289 0.6741913 0.98815602 0.012230417 -0.15296447 0.019586725
0.1760677 -0.22535799 0.71673208 0.99719495 0.012741568 0.0737556 0.00027706704
0.17793237 -0.20454638 0.68139648 0.99758947 0.050461076 -0.047633406 0.0069786753
0.16735572 -0.19506139 0.81875086 0.62942415 0.079276405 0.77300745 0.067169994
0.17864229 -0.2523663 0.64021075 0.88685769 0.038350258 -0.46044832 0.052679464
-0.045272291 -0.14027788 0.61029077 -0.56202435 0.55438483 -0.61382902 0.10918212
0.17789434 -0.22066163 0.68742031 0.99988484 0.006016064 0.013931331 0.0028278166
0.17844588 -0.262687 0.67421997 0.99405986 -0.010943664 -0.10828335 0.016824642
0.17428602 -0.19238305 0.72684956 0.98434484 0.15904811 0.07595329 0.016158029
0.01834197 -0.12305067 0.67471474 -0.057259239 0.9947145 -0.085231431 0.010833004
-0.048804596 -0.13916822 0.67775369 -0.75675708 0.65368247 -0.004229595 0.063914463
0.023743156 -0.12411205 0.64706767 -0.044865496 0.95970201 -0.2774148 0.031893078
0.17483778 -0.25958905 0.72301418 0.99715054 0.0073068584 0.075081699 0.00020288593
0.16982819 -0.42549083 0.8182289 0.10146338 -0.98924208 0.10538115 0.114902
0.17118274 -0.34073809 0.79548329 0.87914604 -0.032988232 0.47540945 0.046215285
0.021195654 -0.13292594 0.61133373 -0.055790622 0.74256516 -0.6674462 0.068957701
0.17527369 -0.39908463 0.78096437 0.89352393 -0.40565491 0.19250755 0.098527618
0.16572325 -0.2065983 0.8182478 0.53001535 0.0056625442 0.84796917 0.068563521
0.17713703 -0.34755269 0.7238608 0.9983874 -0.010770592 0.05573789 0.003724009
0.17530341 -0.29864189 0.71931159 0.9977597 0.016954191 0.064714871 0.00025106085
0.1715543 -0.30716276 0.77271748 0.96613526 -0.0010168813 0.25803414 0.017859254
0.16449282 -0.12770502 0.70723104 0.45418859 0.8899194 0.041906144 0.067642964
0.16007192 -0.12717874 0.65781003 0.3657738 0.90856475 -0.20179121 0.070179775
0.015540801 -0.13262907 0.81576025 -0.023404257 0.83272356 0.55319405 0.054845363
0.13486826 -0.35244238 0.83570051 0.20538963 0.054040667 0.9771871 0.027751749
-0.0035718158 -0.12308098 0.67527622 -0.22543383 0.97076309 -0.082453303 0.030653594
0.1348839 -0.23342061 0.83256179 0.23595595 -0.0022877203 0.97176105 0.0334788
-0.043452859 -0.23751561 0.82156253 -0.6855194 0.059812088 0.72559339 0.072781011
-0.017999768 -0.27662626 0.82917809 -0.24557465 0.047617789 0.96820742 0.020077974
0.098580517 -0.30331489 0.83596307 0.045986172 0.048440754 0.99776691 0.0060143657
0.014750786 -0.17127766 0.82766193 -0.035082325 0.31010041 0.95005637 0.036085032
0.053956572 -0.13632281 0.81900197 -0.033660505 0.78510028 0.61845326 0.070989102
0.10235237 -0.4183574 0.83950675 0.031402584 -0.59335971 0.80432469 0.084836625
0.00061676867 -0.15182477 0.82302487 -0.13860711 0.62383282 0.76916879 0.066947192
0.10494075 -0.13489699 0.8262676 -0.011509307 0.63808209 0.76988232 0.077564977
0.068021469 -0.18201223 0.8286283 -0.029692873 0.21490633 0.97618318 0.021822609
0.10801649 -0.3270677 0.83647019 0.10497132 0.048641577 0.99328494 0.01606223
0.021282349 -0.39083177 0.83526582 -0.028113134 -0.15945661 0.98680454 0.070795618
0.045433525 -0.16001111 0.82732534 -0.0046222587 0.48597786 0.87395889 0.060449902
0.14104882 -0.30542165 0.83319587 0.34163716 0.050232697 0.93848854 0.051858228
0.14265579 -0.38410026 0.83613455 0.32800606 -0.070122875 0.94206947 0.1139307
-0.022329081 -0.31525904 0.83045971 -0.32013634 -0.0065448047 0.94734889 0.03717494
0.10723041 -0.22878267 0.8340705 0.054248165 0.036165543 0.99787235 0.0068987133
-0.01920161 -0.42298114 0.83179086 -0.072153978 -0.97362512 0.21644378 0.071543202
0.089488082 -0.22123361 0.83251798 0.0085317949 0.043201797 0.99902999 0.0021582758
0.03468449 -0.24722706 0.83026946 -0.048498265 0.036144845 0.99816906 0.00028461855
0.035811279 -0.37441787 0.83622837 -0.036508836 -0.072879247 0.99667233 0.038489603
0.11254077 -0.2962136 0.8358978 0.11852372 0.024702748 0.99264395 0.019202648
0.061755538 -0.16825292 0.82770258 -0.03920259 0.38088024 0.9237929 0.0524114
0.018585293 -0.27613032 0.83075571 -0.080737002 0.037320431 0.99603659 0.0015773171
0.12158005 -0.37769389 0.83872265 0.12112372 -0.055038549 0.99111038 0.06127448
0.14735948 -0.29035586 0.83105427 0.4697144 0.019220138 0.88260913 0.055554405
0.10137267 -0.12631787 0.63924611 0.042282198 0.9613018 -0.27223375 0.039871491
0.0065579661 -0.30203712 0.83126605 -0.1413641 0.024362357 0.98965782 0.0072090793
-0.029071826 -0.23490633 0.82756758 -0.44238663 0.077115595 0.89350277 0.065644786
-0.0037116492 -0.38353395 0.83347464 -0.13695052 -0.048005544 0.98941398 0.040324721
-0.036238492 -0.15525502 0.8233164 -0.48774484 0.42450038 0.76282668 0.091364473
-0.030726753 -0.14888793 0.82316357 -0.4067263 0.53244251 0.74234682 0.085927904
-0.049246691 -0.1427386 0.81488651 -0.5947538 0.58509988 0.55129486 0.10094824
0.060337298 -0.34512815 0.83535528 -0.037743341 0.028954994 0.99886787 0.0012653879
0.14274105 -0.18163311 0.83046603 0.29631463 0.22411038 0.9284246 0.069410734
-0.048641525 -0.29803926 0.82230872 -0.66588664 0.03428201 0.74526483 0.066690467
-0.023938036 -0.42420053 0.83132416 -0.083935663 -0.97548759 0.20341778 0.079725288
0.012480877 -0.18137197 0.82839698 -0.085662931 0.1861902 0.97877216 0.016543018
0.093175232 -0.13348916 0.82536465 -0.035003275 0.68143642 0.7310397 0.068820335
-0.012364655 -0.25501522 0.82945251 -0.23125306 0.058185883 0.97115213 0.017960412
0.043922376 -0.1289406 0.8144787 -0.037249137 0.85595369 0.51570904 0.062937662
0.088247105 -0.20757265 0.83136564 -0.00048579578 0.060013879 0.99819744 0.001957682
0.12227674 -0.12408543 0.6758408 0.13576995 0.98602307 -0.096565887 0.019159272
0.13765492 -0.26170442 0.83337802 0.3311615 0.015478083 0.94344705 0.041276123
-0.040762588 -0.16396783 0.82378554 -0.54686612 0.33500713 0.76727289 0.090849966
-0.023920249 -0.27234906 0.82929349 -0.26108399 0.037818793 0.96457499 0.020534649
0.020032175 -0.36632869 0.83550519 -0.05893039 -0.045508284 0.99722427 0.025918672
0.13398793 -0.12370748 0.71671849 0.21132503 0.97673529 0.036467914 0.033597607
0.10496871 -0.37753117 0.83900476 0.013831475 -0.055480767 0.99836397 0.046230398
0.067086875 -0.1298629 0.81145203 -0.037790366 0.8472634 0.52982706 0.067136377
0.086370714 -0.12451269 0.75048149 0.023846608 0.99795043 0.059381563 0.0024107418
-0.023413436 -0.31442857 0.83033407 -0.3223488 -0.013118205 0.94653004 0.037222102
0.13483927 -0.30170289 0.83413023 0.27566034 0.03465962 0.96063006 0.037679736
-0.011930642 -0.32081798 0.83219355 -0.25579536 0.010632253 0.96667242 0.02886669
0.060070861 -0.12568559 0.79063952 -0.038911868 0.94155735 0.33459783 0.041319471
-0.04499213 -0.15158159 0.82099557 -0.55704904 0.45005861 0.69795674 0.099717051
0.10945283 -0.12512594 0.78482205 0.079515576 0.96356755 0.25537202 0.042811122
0.091003597 -0.35070679 0.8368938 0.024658959 0.0026307679 0.99969244 0.008856087
0.15472987 -0.1444768 0.82581836 0.41887283 0.44802484 0.7898224 0.11411177
-0.04419075 -0.13144748 0.65816993 -0.61366987 0.77108282 -0.16982512 0.083597608
0.11814836 -0.30502865 0.83640349 0.15380681 0.027274968 0.98772442 0.022867465
0.15060364 -0.33633742 0.83256829 0.44867617 0.020745765 0.8934536 0.061901171
-0.00035804554 -0.12331111 0.69580579 -0.23625289 0.97169149 -0.00045969957 0.028313303
0.0043006237 -0.19343622 0.82849932 -0.12426795 0.13680319 0.98277277 0.016857168
0.064317413 -0.22100927 0.83088821 -0.032304481 0.048420016 0.99830449 0.00041755268
0.019626737 -0.19634458 0.82868493 -0.048753105 0.12743358 0.99064821 0.0068874396
0.068379663 -0.27938226 0.83384842 -0.031489596 0.033937387 0.99892777 0.00013131113
-0.041889057 -0.12901422 0.78734237 -0.54473591 0.81362534 0.20316643 0.078958631
-0.033028465 -0.12548123 0.7321797 -0.44833606 0.89386511 -0.00014517094 0.053811196
-0.045035776 -0.16081049 0.82186753 -0.57873768 0.35689873 0.73327076 0.096675456
-0.021072142 -0.30001137 0.83028519 -0.32773054 0.010790023 0.94470954 0.039619852
0.10069343 -0.12427012 0.74614936 0.058471885 0.99750704 0.039505504 0.0042313272
0.026112128 -0.12829879 0.81273669 -0.02047848 0.8479051 0.52975231 0.058780991
-0.033998504 -0.13047081 0.80375224 -0.38069746 0.81190675 0.44257963 0.082949474
-0.013207286 -0.21739796 0.82836229 -0.28600323 -0.0017089943 0.9582271 0.038114715
-0.02027701 -0.12721749 0.79472363 -0.25117341 0.89794636 0.36139199 0.059871506
-0.052034479 -0.12997802 0.78663105 -0.68524718 0.70740968 0.1732278 0.078030899
0.048681781 -0.12401291 0.74574101 -0.00049143919 0.99896419 0.045502212 0.00089247816
0.044756766 -0.12478421 0.77781928 -0.025263537 0.96402627 0.26460359 0.031393617
0.13824123 -0.13115606 0.81679213 0.23493852 0.76024783 0.60566247 0.11382207
0.14030854 -0.21802488 0.8308692 0.30389214 -0.039623156 0.95188212 0.058730353
0.062893249 -0.12385592 0.73225433 0.0079510603 0.99983978 0.016039476 0.00014488323
0.064035729 -0.20451048 0.83013064 -0.035780109 0.089705452 0.99532545 0.0019419555
0.051954951 -0.12432824 0.76770675 -0.010968668 0.98387599 0.17851512 0.020079209
0.03038913 -0.12399779 0.75559646 -0.021402255 0.99537838 0.093615524 0.0061690984
0.019700652 -0.12327443 0.73119879 -0.047574159 0.99840152 0.03051514 0.0024251651
0.14924346 -0.13751167 0.82228494 0.36621633 0.59807956 0.71287191 0.12836863
0.050402891 -0.13191715 0.81690079 -0.027031235 0.81483346 0.57906455 0.069480076
0.074487485 -0.13030829 0.81790435 -0.054581974 0.80637491 0.5888806 0.070005998
0.10610072 -0.20416303 0.83224952 0.04746047 0.056940682 0.99724889 0.0098572494
0.14358133 -0.12616277 0.77388865 0.3082976 0.93904686 0.15213029 0.047178522
0.034680471 -0.13110919 0.81350696 -0.03441849 0.84566301 0.53260618 0.060783133
0.095432565 -0.32991031 0.83610916 0.055475369 0.03268839 0.99792475 0.006744267
-0.027425412 -0.12421494 0.70696002 -0.43107039 0.90209955 0.019865358 0.04837298
0.0068946513 -0.12739804 0.62753528 -0.10959455 0.85904276 -0.50003457 0.072834164
-0.032102305 -0.12607051 0.74708778 -0.4382194 0.89875478 0.014271562 0.049309481
-0.026156733 -0.12520918 0.6572814 -0.44806293 0.86920536 -0.20909753 0.076250665
0.0021941203 -0.32647294 0.83295023 -0.16787946 0.030929251 0.98532224 0.0098018562
0.10182339 -0.12632969 0.79347664 0.020660225 0.92777312 0.37257245 0.05196872
0.029290345 -0.14412639 0.82159525 0.0051784129 0.73230326 0.68095887 0.062786378
0.066526808 -0.32996336 0.83497858 -0.026078787 0.038315482 0.99892527 0.00035200137
0.15430021 -0.19962186 0.82763278 0.45405489 0.06646847 0.88849086 0.064080916
0.1541203 -0.30459601 0.82878882 0.57123762 0.014378221 0.8206588 0.065334238
0.07014823 -0.12407631 0.75142348 0.0078891488 0.99794424 0.063600816 0.0031745955
0.019104244 -0.12352464 0.75228012 -0.050662585 0.99547303 0.080416553 0.0052825967
-0.062283669 -0.28836396 0.81519198 -0.79088551 0.031741068 0.61114049 0.061867476
-0.058065042 -0.36994705 0.82349718 -0.69341838 0.029384574 0.71993577 0.10269009
0.1071409 -0.1337225 0.82458043 -0.014336468 0.66687047 0.74503571 0.081878059
0.16244294 -0.13366283 0.73626411 0.47066155 0.87969196 0.067969672 0.07154195
0.11866527 -0.12612239 0.79778057 0.096963525 0.91462177 0.39251125 0.07041847
-0.0096031716 -0.1233742 0.7372126 -0.30198088 0.95295906 0.026011838 0.04040271
-0.047740296 -0.13279262 0.64789754 -0.63846874 0.7301749 -0.24331512 0.092197709
-0.046430979 -0.13003132 0.74737811 -0.68117452 0.73211628 -0.0026523632 0.066840298
-0.060262561 -0.28218678 0.81673354 -0.7975027 0.022825208 0.60288352 0.059805762
-0.058546573 -0.15765524 0.81382555 -0.77569747 0.37177771 0.50997525 0.099527545
-0.020683935 -0.28626835 0.82996476 -0.29700693 0.033824414 0.95427603 0.032615386
-0.062795803 -0.39023393 0.63722163 -0.95300353 -0.14633568 -0.26527351 0.12773629
0.099813886 -0.12428685 0.69391495 0.038536962 0.99917221 -0.013031762 0.0019803415
0.04935113 -0.12415212 0.75861758 -0.0075210473 0.99154061 0.12957884 0.012255199
0.14515018 -0.12754008 0.79266852 0.3572329 0.89036596 0.28219345 0.08259555
0.15003307 -0.17088532 0.83036125 0.33350331 0.26294273 0.90533787 0.080785744
0.12504302 -0.42333639 0.84316254 0.065531574 -0.88056314 0.46937636 0.099853195
-0.010417444 -0.12362568 0.75208402 -0.28168768 0.95840561 0.045943365 0.03951605
-0.050106939 -0.13334608 0.80543381 -0.61839122 0.679259 0.39522079 0.091485403
-0.031111252 -0.38538373 0.82950294 -0.36195809 -0.068255126 0.92969215 0.11228785
-0.069512136 -0.40951535 0.82016397 -0.74078798 -0.49388632 0.45531243 0.17017625
-0.070085704 -0.41905859 0.6512267 -0.88858181 -0.44428745 -0.11415317 0.096307166
0.039543442 -0.12414084 0.76326233 -0.020562254 0.98653895 0.16222849 0.01686148
0.16299611 -0.1625628 0.82980078 0.47452095 0.27450702 0.83634663 0.090687282
0.14475162 -0.16291569 0.82983315 0.25761205 0.31324428 0.91406459 0.083410956
-0.048784923 -0.13034783 0.76331723 -0.64751494 0.75911856 0.066807903 0.06768088
-0.015419601 -0.12391226 0.64932901 -0.35368532 0.90089035 -0.2516014 0.070869118
0.013644988 -0.12752043 0.80647576 -0.039660197 0.88176137 0.47002548 0.04878439
-0.0053163292 -0.1232916 0.72470331 -0.27261177 0.96145123 0.035975918 0.036166809
-0.048344951 -0.14734946 0.61023194 -0.61811322 0.47027376 -0.62990373 0.10352556
0.078843646 -0.12386885 0.68332934 0.012927404 0.99926913 -0.035975318 0.0011186914
0.036705453 -0.31871259 0.8336609 -0.045206182 0.037940793 0.99825692 0.00021409517
0.08440645 -0.19673808 0.83033925 -0.015025046 0.1140274 0.99336398 0.0052146069
0.081572197 -0.13061891 0.61240447 0.026570445 0.85538018 -0.51731879 0.050265759
-0.012138197 -0.13233493 0.81032109 -0.21616153 0.82714385 0.51875544 0.06824962
-0.064892143 -0.32939544 0.73165375 -0.99852997 0.045929316 -0.02878144 0.00025276202
-0.014318267 -0.29853109 0.83097994 -0.25160211 0.010143552 0.96777761 0.027137807
-0.055515058 -0.20701136 0.81675917 -0.82104713 0.06637308 0.56698871 0.072330199
-0.054059554 -0.15517621 0.81605178 -0.7016778 0.41307971 0.5805285 0.10315524
-0.056011923 -0.2101946 0.81756073 -0.82697242 0.057950974 0.55924797 0.070024252
-0.06885656 -0.35973546 0.784145 -0.99734247 0.030581143 0.066127606 0.029295068
-0.058415245 -0.26310477 0.81665921 -0.83224696 0.060024552 0.55114609 0.05446991
-0.014726433 -0.12341055 0.70046592 -0.35329351 0.93494475 0.032589979 0.042488292
0.026794113 -0.12458469 0.78295851 -0.031177023 0.95455158 0.29641077 0.032274041
0.099842481 -0.12460642 0.67474121 0.042301092 0.99547189 -0.085124873 0.0069967853
-0.041129518 -0.14131054 0.8164717 -0.49554634 0.63440847 0.59326196 0.096676849
-0.064708531 -0.25527173 0.7827276 -0.95686096 0.044863537 0.2870616 0.036783472
0.1244164 -0.21157297 0.83223307 0.11425927 0.014280262 0.9933483 0.020873299
0.0021090715 -0.12355459 0.74400562 -0.1553911 0.98643374 0.052934188 0.018055193
0.077297062 -0.12466004 0.64224774 0.01424639 0.95916063 -0.28250298 0.037442479
-0.0087144636 -0.12679851 0.79543412 -0.20306912 0.90364832 0.37707126 0.055084869
-0.061677046 -0.3443093 0.81920451 -0.83659577 0.17781846 0.51815832 0.048973761
-0.062978365 -0.2610397 0.74885309 -0.99807125 0.052203316 0.033595737 0.0034840482
0.051940892 -0.24344903 0.83128905 -0.039682172 0.038467783 0.99847156 0.0002092236
0.10826463 -0.12400313 0.70319986 0.065210477 0.99784636 0.0070951427 0.0050875177
-0.066147 -0.39969349 0.72615635 -0.9621256 -0.27015176 -0.036499757 0.074799165
-0.055648588 -0.13302605 0.77273607 -0.73673528 0.66764289 0.10711636 0.069534287
-0.061865501 -0.30982074 0.81536084 -0.78430361 0.050732225 0.61829942 0.070320778
-0.061892346 -0.18236884 0.79963732 -0.92938209 0.16509175 0.33014187 0.057594258
-0.061629463 -0.19329964 0.80435765 -0.91837484 0.11735781 0.3779085 0.058967136
-0.041596103 -0.13119805 0.62955719 -0.55918026 0.73577291 -0.38204145 0.09933693
-0.031521618 -0.12553318 0.64498955 -0.47080597 0.84354961 -0.25839069 0.08390715
-0.029118143 -0.23667516 0.8276177 -0.42553926 0.085597061 0.90088266 0.062835015
0.060153071 -0.12406331 0.7481392 0.0028980465 0.99866521 0.051569622 0.0012603351
0.049170274 -0.12421247 0.76667666 -0.010319219 0.98527533 0.17066364 0.018957166
0.029724898 -0.12284376 0.68968374 -0.0093415091 0.99954343 -0.028731806 0.0017157483
0.018096471 -0.1232914 0.70897233 -0.037733342 0.99922305 0.011381004 0.0020604986
-0.0021287529 -0.12373794 0.73807114 -0.24554591 0.96882492 0.032945681 0.034954488
-0.03389921 -0.12470905 0.66836095 -0.51591569 0.85020626 -0.10478727 0.067044929
-0.038455158 -0.20345245 0.82534587 -0.62450653 0.068075597 0.77804708 0.075239405
0.0029866302 -0.32369235 0.83292562 -0.16729167 0.029369848 0.98546994 0.0098486654
-0.05950287 -0.18395725 0.74557555 -0.98083854 0.19411823 -0.016548818 0.022488719
-0.028723072 -0.35268712 0.83003914 -0.34796712 0.065079041 0.93524522 0.036538299
-0.063191026 -0.31268564 0.67322576 -0.99232805 0.024768239 -0.12112671 0.0052360799
0.067639112 -0.12533213 0.7858361 -0.042327553 0.95722544 0.28623044 0.035355434
0.10184032 -0.12771499 0.8160854 -0.0074093943 0.82762742 0.56122887 0.071462199
0.081829093 -0.12429909 0.74560714 0.011292397 0.99907053 0.041599486 0.0012466346
0.12046425 -0.12514132 0.77330858 0.14195813 0.97914261 0.14535321 0.031227114
0.1087031 -0.1825096 0.83041316 0.041043323 0.21853182 0.97496629 0.030624848
0.042872872 -0.15078096 0.82522315 0.0017935752 0.62131101 0.78356189 0.064619318
0.072123393 -0.29456726 0.83419132 -0.024277773 0.035330743 0.99908078 0.00033471695
0.047779456 -0.12387525 0.74246305 -0.00033056951 0.99927509 0.038069312 0.00066227035
0.12536392 -0.22486641 0.83322847 0.15812907 -0.0019770032 0.98741651 0.027939923
0.15099443 -0.23267046 0.82881719 0.39372748 0.00036666181 0.91922724 0.048437197
-0.057916582 -0.22433807 0.62996334 -0.89033031 0.085358858 -0.44724235 0.052942187
0.11900377 -0.42168257 0.84905964 0.07748659 -0.63301826 0.77024919 0.093637809
0.0091298595 -0.12332386 0.70132738 -0.12798378 0.99177152 0.0030843215 0.014958067
-0.053184241 -0.13365021 0.80203742 -0.66052359 0.67068666 0.33747289 0.086803332
-0.059430052 -0.21761547 0.67650062 -0.99497223 0.037483145 -0.092871815 0.0089275064
-0.063148282 -0.15637562 0.81036723 -0.850429 0.35313737 0.38995454 0.087811455
-0.058407202 -0.1938851 0.66404587 -0.97794282 0.12924226 -0.16408578 0.027872942
-0.056477316 -0.24884354 0.61943066 -0.79562968 0.059559539 -0.60284835 0.057984088
0.12011769 -0.12966698 0.62413996 0.1734041 0.8709631 -0.45973286 0.077706575
-0.05531358 -0.37791005 0.61327004 -0.84611571 -0.057303596 -0.52990991 0.13552342
-0.048937086 -0.28206167 0.60244465 -0.60908395 0.033202894 -0.79241043 0.057877757
0.01504634 -0.12442596 0.64071637 -0.07836096 0.93930739 -0.33400783 0.044929903
0.069567278 -0.12789606 0.6156131 0.0067142579 0.81849051 -0.57448071 0.059360322
0.037647333 -0.1238772 0.76705235 -0.027006339 0.98137009 0.19021924 0.020921061
-0.049629338 -0.1800945 0.6127097 -0.72238684 0.22390096 -0.65423673 0.074339196
0.10620232 -0.13112314 0.61913353 0.097389668 0.83896625 -0.53539783 0.067713559
-0.051814485 -0.29780346 0.60908282 -0.75915945 -0.0046144864 -0.65088832 0.057200391
-0.05468772 -0.42292842 0.6079424 -0.21452238 -0.96510416 -0.15018013 0.12078784
-0.053052776 -0.35771167 0.60984254 -0.83888316 0.042248387 -0.54266948 0.060249731
0.009333957 -0.12394089 0.64199656 -0.10592281 0.94750017 -0.30170155 0.044326402
0.10212142 -0.22563691 0.60511714 0.055802725 0.01664032 -0.99830312 0.0016335557
0.058194906 -0.12693317 0.61922878 -0.039604064 0.85482562 -0.51740181 0.054422926
-0.044767953 -0.14604032 0.61085576 -0.58817965 0.51271391 -0.62543511 0.10760549
0.016121922 -0.12300418 0.68630481 -0.055014681 0.99749297 -0.044508886 0.0057448572
-0.040913761 -0.12935053 0.63660675 -0.56510526 0.76466268 -0.30975318 0.095106885
0.094994545 -0.22672649 0.60509259 0.04995789 0.016806351 -0.99860996 0.0015037727
-0.050190847 -0.31070992 0.60735202 -0.75756997 -0.02154487 -0.65239835 0.060434699
0.055389542 -0.2587629 0.60417485 0.027418122 0.014681714 -0.99951619 0.00032565303
0.00014853913 -0.1687717 0.60449076 -0.19874258 0.33949414 -0.91937214 0.064933047
0.028611664 -0.36314267 0.60251284 0.0024626548 -0.057294663 -0.99835426 0.045956179
0.13218576 -0.31117114 0.60692978 0.30976337 0.017098725 -0.95065993 0.032597069
0.0048762616 -0.29953244 0.6001215 -0.11788269 0.0064285877 -0.99300671 0.01590661
-0.02252155 -0.15505925 0.60442442 -0.37756929 0.43264583 -0.81869346 0.09090814
0.070513979 -0.26282963 0.60457563 0.034598622 0.0055995681 -0.99938554 0.00027117104
-0.041062951 -0.127928 0.66296023 -0.56922019 0.81179076 -0.13032331 0.076190919
0.046248328 -0.21634342 0.60484958 0.0076608001 0.029633783 -0.99953151 0.00034791077
-0.036762826 -0.19137163 0.6063863 -0.59245014 0.15033881 -0.79145503 0.064625248
0.053307444 -0.21490742 0.60445368 0.016950859 0.031579118 -0.99935752 0.00034110883
0.11852769 -0.31847861 0.60714287 0.21599939 -0.0091696233 -0.97635043 0.019501511
-0.0065241265 -0.20175621 0.60433674 -0.25552821 0.024684999 -0.96648639 0.046175409
0.073960602 -0.27793509 0.60339034 0.039872963 0.0028374307 -0.9992007 0.00028413485
0.11285648 -0.40256682 0.60868663 0.11050707 -0.44838744 -0.8869819 0.10555315
0.12164804 -0.28529143 0.60689151 0.22930135 0.011872727 -0.97328305 0.020607688
0.020970726 -0.21240738 0.6036973 -0.042963307 0.025401663 -0.99875367 0.003422694
0.11594504 -0.27126709 0.60531598 0.17028475 -0.0085223792 -0.985358 0.013567938
0.040304106 -0.36928183 0.60318232 0.021790413 -0.077748604 -0.99673486 0.056068406
-0.048828516 -0.38302824 0.60596746 -0.71829993 -0.063173428 -0.69285959 0.15599154
0.028531797 -0.19492836 0.60458338 0.0058765314 0.10215135 -0.99475151 0.007128132
0.14577354 -0.28178877 0.60741115 0.34745231 0.024367468 -0.93738103 0.034065954
0.062540106 -0.13170221 0.60851091 -0.016227616 0.78496236 -0.61933088 0.056423265
-0.032292653 -0.14134334 0.61097229 -0.45028266 0.57624733 -0.68204439 0.098661266
-0.0065449113 -0.26809609 0.60177797 -0.18806246 0.043473795 -0.98119444 0.026223969
-0.023842286 -0.18219788 0.60494173 -0.4330354 0.22794831 -0.87207788 0.072441712
0.15941441 -0.32178193 0.61104721 0.53730464 -0.0064664488 -0.84336346 0.045721598
-0.016191848 -0.4240225 0.60785818 -0.039816059 -0.98678106 -0.15709177 0.089736432
0.0031035147 -0.12312563 0.69288301 -0.20127811 0.97943032 -0.014263215 0.025116792
0.12286822 -0.13448375 0.61506861 0.19093625 0.78571767 -0.58837998 0.091950744
-0.048662178 -0.26316532 0.60871959 -0.6171512 0.037425969 -0.785954 0.059675958
-0.048319045 -0.20816758 0.60950029 -0.65989804 0.069406129 -0.74814254 0.067222722
-0.044527635 -0.19895011 0.6065008 -0.63162255 0.091847621 -0.76981622 0.065774821
-0.044525318 -0.35690284 0.61150885 -0.68000734 0.055320334 -0.73111534 0.073094554
0.09041936 -0.25791246 0.60435206 0.046062984 0.0012604836 -0.99893779 0.00079620042
0.064384967 -0.40579209 0.60546535 0.047502741 -0.5583722 -0.82822937 0.091048844
-0.028829329 -0.22848493 0.60599732 -0.44234303 0.08290989 -0.89300537 0.062650114
0.1241806 -0.20625912 0.60615683 0.19936135 0.014420598 -0.97981995 0.018789763
0.037832607 -0.408586 0.60465389 0.010853251 -0.80803043 -0.58904088 0.10073341
0.084831178 -0.31713846 0.60484463 0.054754946 -0.0097611984 -0.99845213 0.0002160634
