# .PCD v0.7 - Point Cloud Data file format
VERSION 0.7
FIELDS x y z
SIZE 4 4 4
TYPE F F F
COUNT 1 1 1
WIDTH 1410
HEIGHT 1
VIEWPOINT 0 0 0 1 0 0 0
POINTS 1410
DATA ascii
0.17783751 -0.42214119 0.80068451
0.18225621 -0.14062271 0.6225059
0.1753792 -0.1819064 0.7192719
0.065754592 -0.1264032 0.70686221
0.1744418 -0.4188205 0.70025218
0.1806408 -0.3945123 0.73397958
0.1803136 -0.3574172 0.67415208
0.12750369 -0.129245 0.72227442
0.088912189 -0.1260355 0.61591637
0.093595617 -0.1250706 0.68641961
0.17959771 -0.3202323 0.6283313
0.1821949 -0.28744739 0.63913882
0.1822532 -0.33025691 0.65217388
0.1759336 -0.17141519 0.71593177
-0.033097029 -0.1245778 0.7474848
0.044312119 -0.12660161 0.72869593
0.006754518 -0.1292275 0.75099123
0.168806 -0.2088258 0.6249637
0.17263991 -0.2599231 0.62669522
0.17933971 -0.2952444 0.65171778
0.1804349 -0.2076848 0.64721489
0.034473721 -0.1282482 0.6344865
0.1747473 -0.12562899 0.67829078
0.1791224 -0.1661761 0.65939009
0.1775368 -0.2036313 0.69661081
0.1715412 -0.2408292 0.7998848
-0.41751611 -0.47838911 1.157927
0.18029089 -0.4299463 0.76262122
0.1691591 -0.2141986 0.80655551
-0.027831079 -0.12596001 0.73205042
-0.47543749 -0.49595931 1.249347
-0.45481709 -0.4895471 1.248878
0.16818459 -0.13008741 0.76475018
0.1106055 -0.1234826 0.74857801
0.157856 -0.2182336 0.82808208
0.17271911 -0.3518669 0.77104121
0.17195579 -0.28178921 0.79757208
-0.030746819 -0.1247595 0.69837511
0.1243017 -0.12504929 0.63401538
0.14499199 -0.1254884 0.67203963
0.027715329 -0.1307523 0.61514533
0.071092248 -0.1258425 0.6508069
0.17073511 -0.2156747 0.82065731
0.17955241 -0.13009121 0.62443489
0.17203601 -0.2138807 0.78640211
0.1754095 -0.1355533 0.74784458
0.1811624 -0.3280887 0.67008048
0.1770955 -0.3839508 0.79774541
0.1735758 -0.1504939 0.62488902
0.17935599 -0.2206748 0.65311879
0.1292565 -0.1283133 0.64982992
0.1833494 -0.31295729 0.62541687
0.18073951 -0.32610649 0.65091813
0.17701019 -0.2339693 0.68955338
0.1658254 -0.3202208 0.83737642
0.0129481 -0.1274534 0.68675113
0.1599042 -0.1244341 0.67251867
0.079541363 -0.1217371 0.74967831
0.1757964 -0.28320691 0.73606789
0.18381891 -0.37008381 0.66321909
0.093913376 -0.1205391 0.70730811
0.1754673 -0.1305667 0.70509177
0.1757517 -0.15879311 0.7094301
0.1753855 -0.2010092 0.71887851
0.17984121 -0.31904769 0.71238393
0.17900001 -0.40361321 0.74899262
0.18000109 -0.2238508 0.67427868
0.1758707 -0.2253577 0.7167275
0.1800835 -0.204494 0.68157601
0.1694888 -0.195545 0.82130837
0.18492509 -0.25247881 0.63967729
-0.046983059 -0.1321789 0.60470378
0.177163 -0.2206824 0.68736207
0.17865381 -0.26268971 0.67424119
0.1761913 -0.1924579 0.72708452
0.018481251 -0.1296258 0.67487532
-0.05207533 -0.1373625 0.67812288
0.02370441 -0.1272023 0.64724588
0.17410991 -0.25958601 0.72298193
0.16903131 -0.4489907 0.81780088
0.177688 -0.34106281 0.79644918
0.022145869 -0.12685861 0.59723443
0.1770132 -0.3994399 0.78106439
0.1694283 -0.2068318 0.82242101
0.1837503 -0.34810159 0.72502363
0.17638449 -0.29859909 0.71936989
0.17529079 -0.3071903 0.77306181
0.1666172 -0.1219763 0.70785469
0.16050521 -0.12582619 0.65770352
0.01424232 -0.12520321 0.82264322
0.13447881 -0.35246921 0.83386618
-0.00357303 -0.123354 0.67527658
0.1350251 -0.2333266 0.83431041
-0.046341691 -0.2377111 0.82594931
-0.01775324 -0.27675259 0.82647252
0.098487914 -0.30324361 0.83903068
0.01480103 -0.1713887 0.82634717
0.054983139 -0.13193171 0.8267957
0.1023446 -0.4174794 0.83863997
0.00066429382 -0.15135039 0.82404548
0.1044979 -0.12824219 0.83043432
0.068035416 -0.1820325 0.8282088
0.1080132 -0.32706371 0.83701408
0.02125114 -0.39089969 0.8359338
0.045448691 -0.16007259 0.82648718
0.14084131 -0.30557641 0.83199447
0.14237189 -0.38415399 0.83457762
-0.022019271 -0.31535539 0.82763201
0.107125 -0.22906481 0.83062601
-0.019266279 -0.41945529 0.83112669
0.089465529 -0.221173 0.83315098
0.034481201 -0.2472668 0.83258623
0.03583568 -0.37444499 0.8359105
0.1125547 -0.29627711 0.83492291
0.061729249 -0.1682619 0.82670552
0.018599451 -0.27622989 0.82714391
0.1216668 -0.3776693 0.84053749
0.14728869 -0.29038259 0.83077377
0.1013061 -0.1285242 0.6394363
0.0066067581 -0.3022261 0.82748401
-0.02917796 -0.2348848 0.82817447
-0.003649652 -0.38354 0.83288127
-0.036628839 -0.1549771 0.82566881
-0.03090119 -0.14777011 0.8258729
-0.054422379 -0.1381553 0.82396102
0.060342912 -0.345211 0.83396423
0.1428403 -0.1816514 0.83210188
-0.051162779 -0.29852059 0.8284111
-0.023900419 -0.42614079 0.83138192
0.01253349 -0.18151221 0.82621562
0.093143247 -0.1331864 0.82550049
-0.01253206 -0.2549684 0.83193332
0.044098139 -0.1211018 0.82140142
0.088276543 -0.2076709 0.83057219
0.1222957 -0.1246832 0.67586851
0.13775881 -0.26168141 0.83432168
-0.041765869 -0.16391779 0.82658678
-0.023642329 -0.272396 0.82735628
0.02019486 -0.36637619 0.83227718
0.1339879 -0.1241295 0.71670008
0.1049592 -0.37763351 0.83746362
0.067120187 -0.1264039 0.81320429
0.086329073 -0.1279794 0.75044829
-0.02317917 -0.3144922 0.82821548
0.1349874 -0.3016164 0.83524382
-0.01180276 -0.3208653 0.83095181
0.0600411 -0.127194 0.79058337
-0.04563421 -0.15129159 0.82236558
0.1094558 -0.1257779 0.78479809
0.091079712 -0.3507815 0.8356809
0.15573759 -0.1402154 0.83388001
-0.047289882 -0.1260418 0.65836042
0.118037 -0.30494711 0.83088273
0.1502483 -0.33627999 0.83137101
-0.0003529191 -0.1238965 0.69581479
0.0045337081 -0.1936262 0.82613289
0.064240038 -0.22093409 0.83156592
0.019625509 -0.1963367 0.82942468
0.068464577 -0.27942619 0.83289409
-0.042641461 -0.1250385 0.78744042
-0.03317678 -0.1241678 0.73220062
-0.04626235 -0.1608341 0.82470942
-0.020930201 -0.30006051 0.82895148
0.1007001 -0.123998 0.74614918
0.02454826 -0.123256 0.81720263
-0.034614351 -0.1267381 0.80587971
-0.01294142 -0.21753819 0.82581598
-0.02029717 -0.12683859 0.79482502
-0.059671849 -0.1241295 0.78742421
0.048692171 -0.1230615 0.74574292
0.044814851 -0.1306949 0.77739042
0.1390155 -0.1277229 0.81870872
0.1405509 -0.2179479 0.83258611
0.062891781 -0.1230186 0.73224938
0.064460397 -0.205119 0.82303911
0.051859919 -0.1308196 0.76736748
0.030384749 -0.1258902 0.75555778
0.019693339 -0.12710591 0.73116428
0.15232261 -0.13026971 0.82816309
0.051740829 -0.125247 0.82692212
0.074471347 -0.1257211 0.81914687
0.1061878 -0.2043076 0.82963729
0.1436813 -0.124906 0.77389318
0.03409702 -0.1282385 0.81681788
0.095536172 -0.32989541 0.83339888
-0.027522551 -0.1222969 0.70701838
0.0070775752 -0.1294632 0.62809038
-0.0325284 -0.1226772 0.74712878
-0.025811199 -0.1270607 0.6572414
0.002199769 -0.3264817 0.832807
0.1018602 -0.12920991 0.79320711
0.029293001 -0.1441306 0.82158363
0.066706181 -0.330259 0.8277539
0.1551258 -0.1997637 0.83028883
0.15407909 -0.30461809 0.82868111
0.070212513 -0.1217675 0.75151861
0.01912329 -0.1202714 0.7523638
-0.065326899 -0.2886503 0.81724262
-0.061136901 -0.3693271 0.8271783
0.10688 -0.1285578 0.8272624
0.1644019 -0.1300084 0.73682767
0.1186764 -0.12799031 0.79763538
-0.0096521378 -0.120839 0.73727018
-0.053332869 -0.1251846 0.64881498
-0.050900489 -0.12382 0.7469539
-0.062604249 -0.28222659 0.81804138
-0.062567353 -0.1577183 0.82028699
-0.02046388 -0.28630391 0.82813787
-0.064515352 -0.39032781 0.63689661
0.099805683 -0.12514751 0.69393063
0.049301181 -0.1262183 0.75853902
0.1451281 -0.12780561 0.79265141
0.15030649 -0.1709749 0.83442068
0.12501539 -0.42892489 0.84375739
-0.01041949 -0.1233233 0.75207353
-0.056352761 -0.1219483 0.81436181
-0.03066266 -0.38527751 0.82713431
-0.072521299 -0.41179329 0.82167172
-0.072639883 -0.42431089 0.65114993
0.03952891 -0.1299278 0.76287448
0.1630277 -0.1625566 0.83099371
0.1447542 -0.1629006 0.82999432
-0.05385524 -0.1249082 0.76240778
-0.01542369 -0.1229981 0.64927101
0.01351607 -0.12686411 0.80685139
-0.0053173299 -0.1225703 0.72471821
-0.057563871 -0.14420369 0.60287583
0.078719467 -0.12846801 0.68349218
0.036756579 -0.31891099 0.83070803
0.084665358 -0.1970951 0.82660532
0.081555843 -0.13081279 0.6124633
-0.01244369 -0.1299049 0.81180263
-0.069030613 -0.32917881 0.73155117
-0.01436287 -0.29850811 0.83155382
-0.059934381 -0.2072598 0.82096112
-0.0569841 -0.1547329 0.82073551
-0.063780487 -0.2105163 0.82438779
-0.073126704 -0.35943899 0.78395098
-0.064635068 -0.26207849 0.82098931
-0.01468515 -0.125266 0.70043212
0.02677089 -0.12809069 0.7828055
0.099872351 -0.1230611 0.67466283
-0.043633759 -0.1373304 0.82176292
-0.064499348 -0.25530839 0.78274119
0.1241033 -0.2117579 0.82692349
0.002168179 -0.1261608 0.7439729
0.077225357 -0.1257135 0.6422981
-0.008647114 -0.1274901 0.79528868
-0.063759863 -0.34408021 0.8201896
0.51049232 -0.44672671 0.77798402
-0.063937798 -0.2610305 0.74886411
0.051985979 -0.2434489 0.83092868
0.1082951 -0.12605619 0.70322013
-0.072439954 -0.4006584 0.7257548
-0.06332159 -0.1288802 0.77176142
-0.064713657 -0.3097207 0.81685591
-0.065464817 -0.18238559 0.80002898
-0.06659165 -0.193746 0.8053292
-0.043741912 -0.1257512 0.6285122
-0.032439649 -0.1206301 0.64459193
-0.028990779 -0.2367014 0.82692093
0.060157631 -0.1236949 0.74814898
0.049212161 -0.119561 0.76692718
0.02972907 -0.12748951 0.68963969
0.018075939 -0.1243049 0.7089619
-0.0020887849 -0.12670749 0.73803961
-0.035018031 -0.1146564 0.66881531
-0.038829859 -0.2034511 0.82623088
0.0029785631 -0.3236787 0.83312857
-0.065008759 -0.18405131 0.74503398
-0.0282447 -0.35271949 0.82734221
-0.064515769 -0.3126789 0.67321068
0.067589007 -0.13292301 0.78545779
0.1011528 -0.1172614 0.81719768
0.081868559 -0.1223279 0.74559551
0.1204818 -0.1235663 0.77337909
0.1088379 -0.18260591 0.82742667
0.042995129 -0.1514107 0.82237422
0.072494 -0.29470459 0.82958508
0.047814131 -0.1217722 0.74248791
0.12513401 -0.2252741 0.82966739
0.15233821 -0.2324903 0.832901
-0.061484721 -0.2239013 0.62926888
0.1189863 -0.4264504 0.84989887
0.0091084242 -0.1213244 0.70134783
-0.059098039 -0.1242524 0.80849481
-0.064282916 -0.21730579 0.6764037
-0.069363609 -0.1565436 0.81808108
-0.061666671 -0.1937778 0.66390491
0.54984063 -0.44606239 0.69718212
-0.062546127 -0.2482947 0.6173017
0.1204564 -0.1221913 0.62129468
-0.067046352 -0.3787826 0.60591573
-0.055107161 -0.2821826 0.59887159
0.01515415 -0.1209295 0.64047611
0.069644153 -0.1201146 0.61348158
0.03791235 -0.1160713 0.76764083
-0.052684162 -0.1800067 0.61043078
0.1066189 -0.1290675 0.61815321
-0.05921552 -0.2974402 0.60490239
-0.05468652 -0.42290431 0.60794318
-0.051458031 -0.35771739 0.6106962
0.0093403757 -0.1225373 0.64195371
0.1021506 -0.2255877 0.60304463
0.05803154 -0.1174457 0.61682451
-0.050326791 -0.1417955 0.59908348
0.016096409 -0.1198217 0.68622953
-0.044020921 -0.1208033 0.63527763
0.095020682 -0.2267009 0.60404551
-0.055506501 -0.31013259 0.603899
0.055336419 -0.258847 0.60733873
0.0001199841 -0.16879269 0.6055069
0.02853987 -0.36307079 0.60427862
0.1317897 -0.31128779 0.60242528
0.0046095252 -0.2994341 0.59582227
-0.02260557 -0.1549889 0.6010173
0.070523888 -0.26284921 0.60496312
-0.047642171 -0.1144534 0.66282552
0.04625592 -0.2163785 0.60393548
-0.03835791 -0.1909928 0.59921157
0.053197559 -0.21495 0.59794581
0.1185251 -0.3184838 0.60730308
-0.0065331459 -0.20175271 0.60456812
0.073946118 -0.2780636 0.60566431
0.1130396 -0.40277001 0.6031785
0.1217482 -0.28528231 0.60788238
0.0209741 -0.2124074 0.60382348
0.1158203 -0.27185929 0.60253239
0.040261328 -0.3689467 0.60780042
-0.052244931 -0.38313961 0.60353518
0.028538611 -0.1950212 0.60618627
0.1463118 -0.28192931 0.60129368
0.062428631 -0.1269765 0.60593808
-0.031661808 -0.1333766 0.60350949
-0.006486326 -0.268388 0.60392922
-0.023927961 -0.1821274 0.60418057
0.1627771 -0.32156181 0.60480511
-0.016165489 -0.4170177 0.60826862
0.0030299721 -0.1194851 0.69284159
0.1229422 -0.1287936 0.61068851
-0.05169642 -0.26290631 0.60429931
-0.052331548 -0.2082675 0.60593802
-0.047933009 -0.19933429 0.6016013
-0.03559747 -0.3580606 0.62629032
0.090415947 -0.25790519 0.60545337
0.064529717 -0.40600941 0.60251749
-0.02881822 -0.2284822 0.60606438
0.1241833 -0.20636959 0.60855049
0.03782621 -0.4086405 0.6041258
0.085013211 -0.31732419 0.60080743
0.1015377 -0.2129392 0.60666299
0.0085237324 -0.37268329 0.60171962
0.04390147 -0.17228229 0.60686898
-0.047540162 -0.31042969 0.60429859
0.063262098 -0.181679 0.60509992
0.14858221 -0.25283089 0.60235941
-0.050809681 -0.1249091 0.66136521
0.128172 -0.1786066 0.6105969
0.0060921609 -0.40752941 0.60212952
0.1356214 -0.1919065 0.60376662
0.1424192 -0.35191199 0.59926021
0.1140859 -0.1197247 0.68561089
0.03816643 -0.1266579 0.60635942
0.074303687 -0.28247991 0.59995478
0.064033143 -0.122524 0.79381979
0.085535139 -0.2183443 0.60835379
0.088459551 -0.1196575 0.62752372
0.1167937 -0.1385095 0.60588419
0.04319391 -0.18126871 0.60541672
0.07214722 -0.23380551 0.6065197
0.124793 -0.26776829 0.60936302
-0.002106491 -0.1233727 0.7803635
-0.01710644 -0.1222909 0.66140068
0.1128188 -0.40393889 0.61228812
0.1711435 -0.25396189 0.61348891
0.069531739 -0.36378121 0.60218161
-0.04045853 -0.28578359 0.6034314
0.097257636 -0.1209567 0.70710057
0.02972874 -0.1205678 0.62964451
0.1208532 -0.1503582 0.60704583
0.0095455647 -0.3544125 0.60052383
0.1683557 -0.1954111 0.60579443
0.051110148 -0.38555679 0.60314029
0.1429904 -0.40410429 0.60741979
-0.01472529 -0.1213783 0.64261079
0.065822929 -0.21936379 0.60666412
0.040672019 -0.16013341 0.60751188
0.040953759 -0.2471704 0.60581768
-0.045829751 -0.27711329 0.60630012
0.1224571 -0.1221576 0.66740429
-0.028852019 -0.2302072 0.60603392
-0.075482041 -0.42116389 0.65787178
0.062116709 -0.1222467 0.66545463
-0.0046416302 -0.1575904 0.60039037
0.01056325 -0.1357435 0.60027403
0.04910022 -0.4276416 0.6060161
0.046603411 -0.1241267 0.63247168
-3.8459901e-05 -0.1220866 0.67540687
0.13792489 -0.1463913 0.6029461
0.01775318 -0.16238751 0.60442758
0.16876359 -0.29029781 0.6123535
-0.01725948 -0.33814681 0.60378921
-0.04030611 -0.1181335 0.67338532
0.11942 -0.36234531 0.60772371
0.022481151 -0.36425701 0.60132122
-0.05584335 -0.18599831 0.60544032
0.046631839 -0.196041 0.60298061
0.088790521 -0.1244975 0.6648258
-0.05088729 -0.3256453 0.60169703
0.079982437 -0.12933099 0.75660539
0.13401949 -0.31108591 0.60580879
-0.01232574 -0.1576544 0.60645998
0.1367784 -0.27304581 0.6078862
0.1162778 -0.3219628 0.60524869
0.0091003161 -0.1242483 0.61158478
0.091055073 -0.40004969 0.60939342
0.1486619 -0.35642669 0.60491908
0.0628618 -0.1239187 0.68991357
0.162173 -0.3450743 0.61314791
0.034864839 -0.1316409 0.60814118
0.069008313 -0.25429749 0.60440278
0.0058607012 -0.23866341 0.60428667
-0.048142761 -0.14351951 0.60283232
-0.01450712 -0.33348989 0.60358483
-0.037469041 -0.39782339 0.60869259
0.15370511 -0.19545861 0.59935617
0.1257232 -0.16247749 0.60778081
0.1194985 -0.2078075 0.60456562
-0.0085792691 -0.2252354 0.60574943
0.1222605 -0.1769589 0.60677451
0.1374933 -0.22186729 0.60736418
0.0265509 -0.2318088 0.6037215
0.03393019 -0.1551398 0.60565341
-0.40537119 -0.48667791 1.16793
0.056393798 -0.34835759 0.6081351
0.02762123 -0.19426531 0.60647029
0.068573222 -0.40836811 0.60451531
0.017986421 -0.27010971 0.60462332
-0.0463669 -0.1320512 0.6348384
0.089437589 -0.1219745 0.75582361
0.1532124 -0.28423259 0.6035673
0.156222 -0.21967611 0.60411727
-0.040440019 -0.1205275 0.71578962
-0.037779119 -0.26384169 0.61093068
0.1628527 -0.26790491 0.60598427
-0.020995229 -0.2471541 0.60960269
-0.045811929 -0.4260726 0.60653168
0.1079487 -0.1382176 0.6065917
-0.42807671 -0.48973471 1.187579
0.003418006 -0.1585238 0.60775769
0.1439843 -0.15500391 0.6056295
-0.0045963768 -0.2327473 0.61022198
0.044807691 -0.13715281 0.60724002
0.12602679 -0.1185357 0.64261341
-0.006985053 -0.41580999 0.6003812
0.070769638 -0.1210676 0.67831129
0.062346339 -0.37658149 0.60197967
0.1341055 -0.1401456 0.6081863
0.02001394 -0.2515077 0.60530639
0.048228022 -0.3634035 0.60476208
0.075924799 -0.4272204 0.60933161
0.0098930094 -0.1195214 0.60630381
0.09252362 -0.1227451 0.81393272
-0.01889726 -0.1186873 0.74724728
0.081044897 -0.12547819 0.79935998
0.02939491 -0.1264313 0.74771678
0.1146827 -0.1246501 0.83837372
-0.01122474 -0.2720108 0.60475391
-0.05512492 -0.1229884 0.79426461
-0.024309151 -0.1669299 0.61093479
0.065653071 -0.1806716 0.6083501
-0.50536013 -0.4873282 1.365602
0.1089787 -0.128824 0.6366719
0.1329764 -0.1241545 0.6958288
0.15047941 -0.1877941 0.60622871
0.04745163 -0.17712 0.60659128
-0.51185501 -0.41753241 1.481787
0.1176376 -0.1484523 0.60657191
0.004133509 -0.1242928 0.80864191
0.1432144 -0.37283659 0.60504019
-0.057173248 -0.31973499 0.6085695
-0.060263202 -0.1666147 0.69620007
-0.062699787 -0.42814419 0.61310321
-0.070933983 -0.32353801 0.76013792
-0.060744721 -0.2458681 0.6368714
-0.06133702 -0.23328041 0.64002663
-0.062942527 -0.190772 0.65629452
-0.063008577 -0.22239061 0.76355922
-0.06040144 -0.17672279 0.72822309
-0.07351096 -0.39868629 0.78413379
-0.061506361 -0.2007934 0.71877712
-0.063996732 -0.35024261 0.67443889
-0.065191656 -0.40875211 0.62673938
-0.057028189 -0.33933139 0.60900569
-0.075902581 -0.3947607 0.82699913
-0.063207917 -0.40650299 0.63536721
-0.069315217 -0.3793647 0.7268002
-0.072443977 -0.3859759 0.75693488
-0.061865989 -0.2157737 0.64246088
-0.06039688 -0.2060411 0.67067391
-0.064338952 -0.38786241 0.62720221
-0.06213516 -0.2548753 0.67819852
-0.065795541 -0.2102467 0.80266029
-0.064962529 -0.2431923 0.7942555
-0.061677311 -0.21998461 0.73980218
-0.066883028 -0.321253 0.73048109
-0.065178894 -0.1473085 0.7532931
-0.073364347 -0.41108409 0.70653391
-0.065710098 -0.34141359 0.66366148
-0.068647191 -0.40859461 0.72419327
-0.059494302 -0.2279049 0.61103129
-0.069669902 -0.4261696 0.65355688
-0.058394611 -0.17234211 0.72825348
-0.068737537 -0.34327909 0.75283903
-0.06065312 -0.28521401 0.62779069
-0.068838269 -0.35819891 0.71818781
-0.072370261 -0.41482899 0.6580568
-0.069061637 -0.37252581 0.69247311
-0.066724151 -0.36904269 0.73137152
-0.067682557 -0.3764863 0.75028819
-0.068659604 -0.37290609 0.68362498
-0.065204352 -0.2950789 0.76365399
-0.060642961 -0.2031163 0.76784861
-0.061642889 -0.29631019 0.64238602
-0.075323373 -0.342116 0.80927968
-0.062341779 -0.21802589 0.76186681
-0.065336019 -0.26177761 0.74928302
-0.064769574 -0.30301571 0.68716532
-0.067212671 -0.40781471 0.67121029
-0.066850327 -0.36023191 0.68017751
-0.066687226 -0.35210219 0.74465239
-0.070997387 -0.36295369 0.78609931
-0.063554637 -0.34755749 0.67944759
-0.064183056 -0.4032892 0.67870897
-0.058852669 -0.2435246 0.61199367
-0.069696903 -0.40383491 0.72895342
-0.070512533 -0.3912724 0.73607308
-0.072570197 -0.36226469 0.79796809
-0.063619971 -0.33451 0.69740242
-0.063224137 -0.30359551 0.67790997
-0.06005878 -0.2190097 0.63216299
-0.06751889 -0.3113561 0.79740769
-0.05959937 -0.1866176 0.68863583
-0.065127432 -0.2288688 0.75192893
-0.070685834 -0.30700961 0.81137568
-0.06140339 -0.2078113 0.72873628
-0.061699718 -0.15928739 0.77096993
-0.063640893 -0.17442361 0.76703233
-0.061738279 -0.2037261 0.76370281
-0.067936242 -0.33600599 0.80260968
-0.06081523 -0.1487463 0.77036601
-0.064003289 -0.39953291 0.62715262
-0.069885671 -0.35181561 0.75898802
-0.070216604 -0.3608045 0.75380349
-0.063643627 -0.1818918 0.80190802
-0.069167048 -0.31894809 0.79811341
-0.060658399 -0.2292583 0.67513567
-0.07621479 -0.43194631 0.81224871
-0.068563037 -0.3387607 0.78612471
-0.059818119 -0.17895129 0.73791021
-0.065135866 -0.25396109 0.79381692
-0.057564851 -0.1595443 0.70236671
-0.065712847 -0.2811524 0.82509851
-0.064998627 -0.2445064 0.79600948
-0.07281974 -0.3658106 0.80060709
-0.065866858 -0.1998792 0.81424898
-0.060391489 -0.2264377 0.80071658
-0.057095502 -0.1769834 0.64461911
-0.057074279 -0.1673052 0.67027003
-0.068510473 -0.4068518 0.64433342
-0.062992223 -0.32518879 0.73233777
-0.065451682 -0.2393472 0.81197309
-0.063398123 -0.3199136 0.64121062
-0.059438881 -0.25311029 0.606938
-0.064788014 -0.1659178 0.81735092
-0.061423209 -0.2162765 0.71642268
-0.063574672 -0.33410889 0.6727488
-0.058458239 -0.1367954 0.6346001
-0.067985773 -0.36028859 0.6701842
-0.064818263 -0.1905513 0.80237782
-0.060719792 -0.35053989 0.61310321
-0.063030958 -0.1234434 0.7697053
-0.063619196 -0.37354749 0.63249058
-0.060270671 -0.1380298 0.74558151
-0.068696141 -0.36472309 0.70003623
-0.053072449 -0.1647335 0.72901732
-0.074556828 -0.3732723 0.81284177
-0.05912691 -0.18081801 0.69427252
-0.0600456 -0.1904293 0.64961058
-0.070224941 -0.34938899 0.79461348
-0.066891283 -0.33079001 0.74630737
-0.065492958 -0.2160314 0.80673891
-0.058940232 -0.26024869 0.62535179
-0.058141351 -0.2379901 0.62102139
-0.061299771 -0.29571709 0.66866452
-0.059477121 -0.1674033 0.69687313
-0.062907368 -0.1330936 0.75823808
0.1392606 -0.1223845 0.77825999
-0.05393723 -0.1353692 0.62749022
-0.072155952 -0.41591179 0.72631449
-0.065264307 -0.17547791 0.8209995
-0.064917773 -0.15861151 0.82253629
-0.063072167 -0.1547958 0.8182705
-0.063115418 -0.34010041 0.64930838
-0.071527757 -0.1741437 0.76628602
-0.06152058 -0.1844739 0.76057792
-0.062174652 -0.13815071 0.73649299
-0.063354462 -0.1508344 0.77484882
0.12724289 -0.1192541 0.74365121
-0.048968431 -0.1177483 0.74814439
-0.06338191 -0.37403569 0.6357621
-0.060618822 -0.2257145 0.61772752
-0.063433833 -0.1529092 0.75040609
0.00031065941 -0.1194804 0.75223792
0.023570061 -0.1215238 0.7054069
0.098277994 -0.1230372 0.79164213
-0.022968501 -0.1197133 0.65129328
0.042723179 -0.1184076 0.75485802
0.020910529 -0.1201106 0.82116342
-0.046365619 -0.1235807 0.80643308
-0.015985191 -0.1228107 0.79501653
-0.063929439 -0.1803025 0.80895942
-0.071575522 -0.39214459 0.71469909
-0.066905558 -0.31596169 0.80621511
-0.063049354 -0.2302399 0.79799372
-0.066116691 -0.2439374 0.80006337
-0.064364217 -0.34197611 0.82520199
-0.058171391 -0.18892661 0.63379598
-0.065627933 -0.36889911 0.8269347
-0.04135409 -0.1256298 0.82243818
-0.057461798 -0.15479641 0.65755939
-0.062205579 -0.13982479 0.76948953
-0.059032232 -0.2243723 0.81590521
-0.0047087972 -0.1247965 0.70256889
-0.058683041 -0.1451409 0.6642856
-0.060273621 -0.22210529 0.6552133
-0.060871691 -0.1972737 0.70847279
-0.065416247 -0.23911791 0.69775349
-0.024698289 -0.1193902 0.75779182
-0.060295049 -0.1995803 0.65821958
0.08065784 -0.1237362 0.7759071
-0.05753405 -0.1692383 0.66862482
-0.071977228 -0.39070269 0.7374478
0.1125984 -0.125351 0.83121002
-0.065461308 -0.3116501 0.75509959
-0.05974108 -0.22731879 0.64759338
0.048457209 -0.1241219 0.77599949
-0.062657118 -0.30519181 0.67823178
-0.061809812 -0.25069499 0.70289749
-0.0216594 -0.4251644 0.83508229
0.028747501 -0.1236521 0.80660498
0.073012829 -0.1230506 0.64553851
-0.065485358 -0.37674981 0.67881548
-0.067965612 -0.22359 0.75571901
0.1516479 -0.4269616 0.84668678
-0.066720366 -0.3605417 0.82585877
-0.063163057 -0.33383009 0.82361197
-0.05928373 -0.35524371 0.61264032
0.0888924 -0.1251695 0.74816221
-0.06312561 -0.31138861 0.81448942
-0.064170241 -0.33382139 0.80317909
-0.067331024 -0.37801489 0.79860222
-0.095442243 -0.42753339 0.85614932
-0.066672087 -0.34436521 0.74023807
-0.075820148 -0.44752091 0.68760908
-0.057482209 -0.1947836 0.69807971
0.0074869692 -0.1208105 0.70799989
0.022687141 -0.1246071 0.61950558
-0.05494028 -0.20810769 0.64659309
-0.059432659 -0.2435676 0.67936128
0.045608729 -0.1228446 0.72407508
-0.042886909 -0.1215062 0.63424671
-0.06005859 -0.2364023 0.61203378
0.030525239 -0.1235484 0.75697237
-0.06165731 -0.1590502 0.75341767
-0.071103223 -0.42137501 0.73476762
-0.074207664 -0.36850709 0.82920623
-0.057587389 -0.15905561 0.68739462
-9.6917152e-05 -0.1207553 0.68962878
-0.047879402 -0.1214351 0.6557821
-0.060223158 -0.2955007 0.6818893
-0.06183058 -0.33332261 0.7062754
-0.069445848 -0.38091519 0.71719313
-0.060180899 -0.37236679 0.62495649
-0.06012756 -0.18407939 0.64874321
0.01943326 -0.1222516 0.62657481
-0.0079957247 -0.1230437 0.65821832
-0.062026829 -0.28863871 0.63663119
-0.067405701 -0.40592 0.78533101
-0.071714401 -0.32689509 0.75866741
-0.05481464 -0.19586609 0.72580642
-0.068900943 -0.3878518 0.76502359
-0.076623797 -0.4304724 0.64399678
-0.054801229 -0.2242157 0.62209523
-0.067189813 -0.3818346 0.63988853
-0.05816564 -0.2777704 0.63207012
0.1729383 -0.40954581 0.35013121
-0.065177098 -0.3994334 0.76625139
0.0043058102 -0.1974698 0.83060652
0.02164638 -0.2787917 0.83051878
0.034068231 -0.43987209 0.82067043
-0.037256841 -0.13541511 0.82835978
0.100845 -0.29953721 0.83906323
-0.002604783 -0.40763181 0.83899909
0.04375416 -0.24137311 0.83397722
0.1123905 -0.22335429 0.83844262
0.052373771 -0.1622491 0.82997727
0.030102789 -0.143675 0.82878399
0.097595751 -0.1888933 0.83503407
0.059227619 -0.32999969 0.84161949
0.037778229 -0.1849687 0.83510977
0.091287307 -0.217632 0.83785713
0.13872141 -0.23598009 0.83346212
0.020329511 -0.27491811 0.83288121
-0.02179265 -0.26931009 0.83421463
-0.0265547 -0.28852391 0.83573961
-0.050040659 -0.2996245 0.82996148
0.098138571 -0.32656589 0.83958489
0.1179355 -0.37049741 0.84136879
0.1561255 -0.1890973 0.83851153
0.091374427 -0.206945 0.83440858
-0.034580082 -0.1544265 0.8319478
0.1240178 -0.236211 0.8276844
0.066211157 -0.33924729 0.83936942
0.064961791 -0.32024291 0.83980769
0.01503545 -0.1876165 0.83141959
-0.02155775 -0.3105047 0.83484399
0.1196088 -0.30056211 0.84034532
0.038588461 -0.24506789 0.83529037
0.03668547 -0.3942059 0.8432315
-0.035181131 -0.24013489 0.83310843
6.3240528e-05 -0.1810303 0.82953608
-0.03848717 -0.2027135 0.83323997
0.069224387 -0.2759777 0.83846933
-0.037030701 -0.234919 0.82804477
0.035357479 -0.37330419 0.83840418
-0.021619139 -0.13219181 0.82747209
0.064904213 -0.1233793 0.80345482
0.053648591 -0.1554262 0.82576472
0.088583767 -0.29597491 0.84396982
0.073076457 -0.2454838 0.83978432
0.070869863 -0.2573818 0.8331188
-0.032374501 -0.2995595 0.83452868
0.01078814 -0.37169069 0.83815259
0.061830372 -0.36654571 0.84231162
0.1152715 -0.29161069 0.8388201
-0.01761362 -0.4173733 0.83565372
0.1418841 -0.34923241 0.84119678
0.1005529 -0.41600919 0.84541053
0.044821169 -0.30881709 0.83762282
0.003618449 -0.39882559 0.83820403
0.06055361 -0.39174259 0.84241033
0.1303606 -0.1432489 0.83356929
0.09258011 -0.3467004 0.84129041
0.15412951 -0.42384189 0.83445311
0.105484 -0.3801564 0.84484011
0.1105535 -0.2065804 0.83301759
0.066433847 -0.42900029 0.84764642
0.067231573 -0.2417843 0.83340001
0.108614 -0.1300676 0.83308172
0.0024112761 -0.32336459 0.83775198
-0.003148139 -0.35436991 0.8364619
0.1432531 -0.1827644 0.83482718
0.1085651 -0.2229822 0.83828032
0.1329615 -0.35058391 0.8428458
0.05088228 -0.25632441 0.83435613
0.045719441 -0.2331965 0.83338898
0.04659057 -0.15585969 0.82852149
0.001314491 -0.1533554 0.82999587
0.055935651 -0.1302273 0.83534551
0.1387953 -0.33143529 0.83894122
0.13869379 -0.42218509 0.84135813
0.1467979 -0.30323571 0.84334141
0.1119567 -0.21277191 0.83558148
-0.002721637 -0.29359069 0.83610928
0.062816381 -0.2224894 0.83776712
0.085229039 -0.205009 0.83304048
0.063370287 -0.31338209 0.84048569
-0.028141139 -0.34961981 0.83403897
0.1308251 -0.29857731 0.83669162
0.1052888 -0.32222009 0.83971077
0.038598601 -0.3008346 0.8319754
0.108963 -0.29449779 0.83787447
0.090490878 -0.30702731 0.83837283
0.1064368 -0.204212 0.82981139
0.040466961 -0.27572739 0.83421057
0.1163383 -0.329905 0.84200507
0.1032382 -0.4051477 0.8489024
-0.048346341 -0.1966656 0.82928121
0.042507019 -0.35257781 0.84010398
-0.001391798 -0.229118 0.83075082
0.13796949 -0.2619814 0.83569348
-0.0050861542 -0.1968767 0.83315033
-0.01532888 -0.1396603 0.82339138
0.130859 -0.21535531 0.84034932
0.1604199 -0.2349329 0.83670032
-0.06030643 -0.35188839 0.82399368
0.14145809 -0.1259084 0.81905007
0.06611979 -0.43136749 0.84348202
0.1198237 -0.34751409 0.8407228
0.092543453 -0.1938908 0.83635259
0.1313891 -0.4122555 0.83910799
-0.062323451 -0.27640539 0.82924151
-0.049613029 -0.24289291 0.82188523
-0.070278108 -0.35891971 0.82234567
-0.066839188 -0.2223645 0.82424659
0.1168065 -0.15227699 0.8366487
-0.0029144881 -0.1239182 0.81317472
0.14667369 -0.3289071 0.83998889
0.1005533 -0.22982921 0.83782572
0.027382551 -0.1735125 0.8347137
0.01351386 -0.1289573 0.805668
-0.074464947 -0.38769609 0.82741499
0.096720457 -0.1289416 0.81566739
-0.021123109 -0.1250302 0.65832239
0.077002473 -0.41997331 0.84536719
0.1646271 -0.4362531 0.8001734
-0.0181261 -0.43201321 0.83710217
0.090607233 -0.2936064 0.83647442
0.13561609 -0.40972039 0.83003223
0.097560637 -0.31447849 0.83956027
0.1457392 -0.31445459 0.84211242
0.01431727 -0.29746199 0.83679891
0.1357086 -0.2353382 0.83618343
0.090662837 -0.2188412 0.84455383
0.1218556 -0.1239266 0.81352758
0.1290928 -0.13444389 0.83134311
0.101666 -0.12513749 0.74801832
0.1370519 -0.21078479 0.8363024
0.160053 -0.29712051 0.82914668
0.1097939 -0.17888869 0.8323285
-0.01752001 -0.31186229 0.83596963
0.1567059 -0.1227669 0.71472359
0.1611933 -0.1242908 0.70150721
0.073151588 -0.1219048 0.63691813
0.1155091 -0.1272001 0.83727068
0.149203 -0.41598141 0.84317839
-0.056451742 -0.31600699 0.82739222
0.13395441 -0.32021669 0.83817393
0.162288 -0.4223454 0.79712248
0.1639355 -0.12610941 0.72618538
0.15472271 -0.1219844 0.80076402
-0.053560909 -0.26517439 0.82838267
0.15884399 -0.1201677 0.69302988
0.16794901 -0.1311034 0.69185847
0.143739 -0.1250897 0.81079012
0.138512 -0.2196945 0.83434582
0.03762221 -0.30529621 0.83388811
0.1498557 -0.2893768 0.83960879
0.01098847 -0.1231976 0.78937489
0.1574183 -0.37090269 0.82164592
0.1436305 -0.2321737 0.82936043
-0.033811718 -0.4269757 1.007645
-0.064039707 -0.20152371 0.82680869
0.0085748434 -0.4068554 0.83763528
-0.0064102109 -0.42728809 0.84716922
-0.03703237 -0.2263943 0.83015901
0.070631742 -0.1258475 0.78494108
0.153473 -0.1416343 0.83362168
-0.070660293 -0.42938191 0.82393879
-0.01337463 -0.2533589 0.83063918
0.1665694 -0.1248181 0.7429806
0.039002001 -0.1257318 0.82591331
-0.049494419 -0.43156251 0.84860408
-0.054988321 -0.1210966 0.79117632
0.1615489 -0.2053522 0.82462442
0.118304 -0.1254081 0.7295835
0.037754331 -0.1292356 0.77044177
-0.053255439 -0.32451239 0.82971507
0.1619477 -0.1309354 0.75283682
0.12515169 -0.2171191 0.83889508
0.15263949 -0.242447 0.8407383
0.13549709 -0.1806951 0.83758652
0.017574221 -0.42563581 0.84452248
-0.0165461 -0.35502881 0.83839941
0.02625287 -0.15900651 0.82846779
-0.05238235 -0.1272528 0.78609139
-0.026126269 -0.31621861 0.83984578
0.1710882 -0.12581711 0.62064439
0.02422655 -0.126294 0.76090401
0.00080657011 -0.1264464 0.67292219
0.1531978 -0.1964822 0.83915418
0.1601353 -0.29042119 0.82592601
0.160258 -0.1416218 0.82282442
0.1305255 -0.30893809 0.84419239
0.16214439 -0.13421839 0.7592755
0.16132911 -0.2512337 0.82568347
0.1619629 -0.1262206 0.79129738
-0.01810148 -0.1216444 0.83273977
0.1167845 -0.221893 0.83598709
0.1645108 -0.3520866 0.76786578
0.1526853 -0.32675281 0.84178281
0.1710766 -0.42606571 0.69257849
0.1691318 -0.1706325 0.65621549
0.087032966 -0.40366089 0.84472942
0.076365799 -0.1201857 0.75676322
0.16417059 -0.26580369 0.77588987
0.1547607 -0.33652401 0.84028339
0.1116509 -0.17086489 0.83359629
0.16153149 -0.1557737 0.82451409
0.1681997 -0.3624115 0.71682793
0.1565108 -0.3543008 0.8037532
0.1709308 -0.4190971 0.69815898
0.1257544 -0.16463479 0.82161331
0.1307136 -0.398307 0.84354591
0.1436004 -0.36279431 0.84004599
0.1628343 -0.1269066 0.83142978
0.1641006 -0.4302336 0.81295389
-0.027415629 -0.1418855 0.83070803
0.039106611 -0.17580581 0.82931578
0.01183847 -0.16362339 0.82879078
-0.028440271 -0.23327389 0.83139873
0.084776908 -0.12548579 0.75232029
0.1555274 -0.2181731 0.82728791
0.14559659 -0.3706052 0.84247851
0.1033179 -0.19865599 0.83262807
0.1441976 -0.22908249 0.83348048
-0.04949683 -0.43131879 0.83205771
0.1114179 -0.18976299 0.83505082
0.1674452 -0.39434239 0.7117247
-0.023986161 -0.2251173 0.82938999
0.1634187 -0.1998474 0.76309389
0.1635596 -0.189219 0.75421047
0.1450081 -0.17807169 0.828614
0.1714668 -0.36270529 0.68182927
0.1625223 -0.29647741 0.76253468
0.1620582 -0.42558581 0.79727018
0.17028511 -0.1280438 0.66578168
0.1706074 -0.2950269 0.68403763
0.128483 -0.1221443 0.83635509
0.1075737 -0.1239608 0.63394183
0.16996101 -0.41522789 0.79050148
0.1690598 -0.27712739 0.69982719
0.1572628 -0.244973 0.84182239
0.062038299 -0.4023391 0.84455889
0.1328606 -0.1277869 0.79502112
0.05787405 -0.2084517 0.82529807
-0.053267721 -0.1243884 0.74051279
0.16718639 -0.1313643 0.70369959
0.095123529 -0.1288349 0.77190161
0.1171913 -0.17707109 0.83733481
0.0204469 -0.1232687 0.647488
0.1218653 -0.1271276 0.62897462
0.1361213 -0.125863 0.811032
0.084413953 -0.1251107 0.68140757
0.1703866 -0.2099859 0.68121022
0.16763701 -0.28830969 0.73398381
0.1218809 -0.2076886 0.82525772
0.151482 -0.1876867 0.8204695
0.1682705 -0.4270401 0.82119262
0.1721749 -0.32179981 0.69380301
0.1445632 -0.3819311 0.84230077
0.16160379 -0.28381619 0.7936784
0.1726824 -0.31579101 0.63980782
0.1653392 -0.2892319 0.74870747
0.1047801 -0.4174886 0.84875131
0.088982344 -0.37307921 0.84272611
0.1627405 -0.25147149 0.77526492
0.15694129 -0.1286411 0.83623099
0.17117859 -0.3500424 0.62738091
0.16295721 -0.29863861 0.78232092
0.17005371 -0.30984959 0.62390321
0.1684223 -0.36118239 0.75917029
0.1508889 -0.15238041 0.83329117
0.16413461 -0.3474136 0.80762452
0.1735252 -0.1525207 0.65872699
0.1681778 -0.35659379 0.74727648
0.17042691 -0.40536001 0.68042678
0.1610544 -0.29876319 0.80758822
0.1719353 -0.3651655 0.6389609
0.1603259 -0.25377089 0.83429348
0.16051979 -0.1420155 0.84787083
0.16613141 -0.26429451 0.74322969
0.1640972 -0.1489614 0.76785052
0.1709702 -0.41528949 0.66281492
0.1621093 -0.15973669 0.83989298
0.1619409 -0.18277159 0.76594532
0.1644014 -0.4207769 0.72579807
0.066185921 -0.1364522 0.83111191
-0.0073041022 -0.1323846 0.80524778
0.164233 -0.1746373 0.82602727
0.16383649 -0.1259436 0.72576731
0.1416534 -0.130046 0.81404233
0.01494136 -0.1305289 0.8008855
0.1020813 -0.1255063 0.74544191
-0.03953895 -0.2454451 0.8220346
0.1625364 -0.29299101 0.82617152
0.1541127 -0.2041451 0.8266651
0.1532122 -0.3921971 0.83175647
0.074061573 -0.1253043 0.62388402
0.1553219 -0.128324 0.70100069
0.1285651 -0.1307289 0.61046487
0.060261991 -0.44215971 0.83746558
-0.035766039 -0.2479112 0.82367408
0.018486319 -0.1294062 0.82050842
0.1357684 -0.3615931 0.83371812
0.13361961 -0.39378929 0.8341949
-0.02208269 -0.29952759 0.82471818
0.1493101 -0.22102889 0.83150512
0.1424993 -0.24037831 0.83080488
0.079461627 -0.3238731 0.83346027
-0.075666822 -0.3930009 0.82002813
0.1368847 -0.4134258 0.83901459
-0.04141311 -0.2100289 0.82251042
0.1054375 -0.4255839 0.83755529
0.069518983 -0.35327131 0.83192909
0.14429811 -0.22142109 0.8306337
0.12891281 -0.1372076 0.82421821
-0.02742717 -0.14163481 0.82056463
-0.047377329 -0.3819783 0.82752287
-0.022118419 -0.1289202 0.74212831
0.081638791 -0.127817 0.73711538
0.04969221 -0.2661033 0.82411289
0.1106231 -0.23097549 0.83398181
0.1362927 -0.42736319 0.83953321
0.1562023 -0.2225845 0.82506281
0.1517715 -0.25027069 0.8329522
0.048609231 -0.41799909 0.84145927
0.14986271 -0.1790437 0.82360548
0.045885529 -0.1256599 0.62565088
0.1052256 -0.31323841 0.83882618
0.1183294 -0.1270597 0.65787488
0.1268283 -0.2050056 0.82890213
0.0049848561 -0.13073011 0.79489589
-0.022978161 -0.1269889 0.65031552
0.02174641 -0.12845659 0.67582017
-0.01269454 -0.4260419 0.8285886
0.1081732 -0.2288655 0.83219141
0.060955789 -0.3745667 0.83686721
0.1368961 -0.35397181 0.83760607
-0.04962869 -0.2450601 0.82350028
0.1225737 -0.38049629 0.83918768
0.1109946 -0.1256081 0.6851548
0.1463566 -0.23198649 0.8311469
-0.055404201 -0.2272978 0.82617801
0.05833951 -0.3987973 0.83907318
0.1460533 -0.38067511 0.83525109
0.1154836 -0.29869911 0.83306211
-0.064334869 -0.2023672 0.82497358
0.14522161 -0.26928851 0.82929081
0.09732978 -0.31986451 0.83501983
-0.02110846 -0.1417592 0.82372773
0.1445204 -0.32426351 0.83378398
-0.072060108 -0.43543801 0.82041568
-0.046005432 -0.1259274 0.70706987
-0.042865161 -0.14314561 0.82423311
0.1517249 -0.42177111 0.83964127
0.1101956 -0.3371402 0.83817571
0.061930511 -0.32272729 0.83305562
0.097064853 -0.30121931 0.83621901
0.069000363 -0.33309191 0.82882333
0.15889999 -0.1219437 0.68168372
0.1628724 -0.1265163 0.69265169
0.1465625 -0.31070781 0.83612508
-0.038166791 -0.15729231 0.82542992
0.1169262 -0.33663511 0.8362456
0.1098538 -0.2994689 0.833763
0.1657355 -0.4239372 0.7948398
-0.04304168 -0.12915669 0.61918378
-0.02445903 -0.317366 0.82962638
0.092320323 -0.35420689 0.83614492
-0.01287994 -0.43088999 0.83162951
-0.01693064 -0.43049279 0.83618712
-0.04827404 -0.30629659 0.8245244
0.1192662 -0.37616819 0.8383128
0.12828019 -0.30221161 0.83484453
0.075332686 -0.3573609 0.83569467
0.16311871 -0.12669609 0.74178791
0.1625924 -0.13031229 0.751472
0.12807059 -0.1247668 0.68449157
0.1493506 -0.129904 0.80933428
0.1126732 -0.3340649 0.83505142
0.1200543 -0.30834389 0.83475131
0.042380512 -0.2466771 0.82887542
0.16389181 -0.2526311 0.82369941
0.1246655 -0.2208309 0.83274448
0.041806892 -0.2415531 0.82867908
0.0089031607 -0.3773188 0.83298391
0.042508099 -0.3582634 0.8366484
0.071556561 -0.42595431 0.83846742
0.007084161 -0.41590801 0.83348757
0.044028308 -0.1237571 0.72472417
-0.03107552 -0.14491799 0.8246721
-0.02221374 -0.1270877 0.79802352
-0.057163179 -0.1273745 0.76107651
-0.042098612 -0.1637603 0.82593828
-0.046350021 -0.153561 0.82382369
0.1334759 -0.12506869 0.71462989
0.1647023 -0.1275896 0.6490773
0.1499074 -0.133241 0.83076048
0.1575271 -0.2434583 0.8302024
-0.054879218 -0.1294229 0.78129482
0.15239 -0.1536182 0.83078098
-0.00047504899 -0.12630831 0.69260412
-0.05717903 -0.1419047 0.82208848
0.1615846 -0.30566779 0.83174211
0.1568383 -0.1500521 0.83366191
-0.049547698 -0.1635533 0.82326502
0.13105141 -0.1498716 0.83068269
-0.0046499069 -0.4165487 0.83334482
0.16140389 -0.37443659 0.8172676
0.001742125 -0.40729871 0.83225232
0.1055289 -0.38708669 0.83931059
0.057952669 -0.33781269 0.83450693
-0.055128511 -0.15590531 0.8206563
-0.0166198 -0.124848 0.70499051
-0.058579031 -0.1279445 0.82326567
-0.003015921 -0.39079031 0.8318488
-0.03268978 -0.38768011 0.82899761
-0.00059886283 -0.3888863 0.83257902
0.1055059 -0.1287145 0.63581032
0.1235061 -0.13381261 0.65871179
0.1265267 -0.12515479 0.82674932
0.1576298 -0.1426255 0.82516301
0.31705689 -0.42177901 0.25038901
0.1555005 -0.2062486 0.8298595
0.14009631 -0.12909479 0.8272388
-0.050076131 -0.13650119 0.63537508
0.018485719 -0.3995235 0.83022922
0.1022005 -0.4170703 0.84053928
0.1489654 -0.30095521 0.83524942
0.15526851 -0.3443853 0.83356398
0.09134981 -0.31110501 0.83552039
0.1559781 -0.37690729 0.83481228
-0.02296564 -0.28809839 0.82863641
0.13948961 -0.1393 0.8274461
0.084696516 -0.30451751 0.83509213
-0.023289889 -0.3060635 0.82574022
-0.02940185 -0.12891769 0.66523099
-0.01805079 -0.4388018 0.83405697
0.1211147 -0.35224459 0.83750868
0.157884 -0.2635521 0.83470482
0.118069 -0.22363649 0.83321738
0.049882989 -0.33552659 0.8350873
0.2167668 -0.43435571 0.71400398
0.069680497 -0.36093009 0.83628267
0.052134749 -0.43406659 0.83724678
0.09660814 -0.33418649 0.83328497
0.15614229 -0.1966581 0.82953513
-0.04488248 -0.1927812 0.83861482
0.097100846 -0.1930692 0.82961732
0.13781381 -0.1257429 0.80520672
0.1614646 -0.29515269 0.82321209
0.1064895 -0.1235662 0.78748947
0.1369542 -0.12539721 0.78138793
0.049983621 -0.1231205 0.74870628
-0.01025777 -0.1287204 0.65341687
0.028977159 -0.1245224 0.61430728
-0.042848349 -0.1247009 0.81982762
-0.063235581 -0.18258619 0.65717691
-0.068497002 -0.34909651 0.80803251
-0.062527597 -0.24167889 0.60958058
-0.06129628 -0.1384819 0.63369381
-0.043628812 -0.1240885 0.70912629
-0.061582029 -0.14092921 0.7448073
0.088937163 -0.1298503 0.61127228
-0.059034079 -0.1661713 0.66743523
-0.062976837 -0.2927027 0.63401252
-0.056336042 -0.1890154 0.65328282
-0.065829992 -0.3750785 0.63106751
-0.061307009 -0.22776119 0.63242477
-0.064729869 -0.23763061 0.64190882
-0.063569367 -0.2278897 0.61682332
-0.070245408 -0.39680979 0.82378948
-0.059315119 -0.32482639 0.63990831
-0.062924981 -0.260975 0.62490737
0.12943991 -0.1231046 0.74437457
-0.06252712 -0.22608779 0.65424669
0.045464162 -0.1270861 0.77468717
-0.061601941 -0.2396947 0.62059242
-0.066462517 -0.42955181 0.82270372
-0.060584191 -0.2087591 0.64827412
-0.05583718 -0.1538765 0.65788388
0.1339628 -0.1233577 0.72021621
-0.056234062 -0.1859154 0.62517852
-0.074002557 -0.40938959 0.81587619
-0.054266151 -0.1911774 0.64897293
0.051594499 -0.1226389 0.7472797
-0.067752481 -0.37404171 0.63568962
0.1536672 -0.1241371 0.80425811
-0.074415863 -0.34856969 0.79261708
-0.063877583 -0.244647 0.62560511
0.12174 -0.1253026 0.66196293
-0.061896261 -0.25526911 0.60633218
-0.052722011 -0.1323501 0.62625211
-0.0419209 -0.1236508 0.71794641
-0.060074929 -0.1277137 0.66116053
-0.035106778 -0.1219888 0.71084809
-0.059068799 -0.18501671 0.62801403
-0.060967982 -0.2239226 0.61054409
-0.065822601 -0.2977075 0.64248443
-0.062268611 -0.28500611 0.62450969
-0.05585593 -0.22184549 0.64022398
0.1482304 -0.1245921 0.74846607
0.1372731 -0.12689769 0.77786881
-0.0612824 -0.20780291 0.61338967
-0.069120467 -0.1544874 0.8162207
-0.054977719 -0.1357006 0.68700498
-0.06137019 -0.22372299 0.62430382
-0.071013868 -0.43000871 0.8164264
-0.078992493 -0.36729309 0.79837042
0.01284826 -0.12813599 0.78794318
0.1179008 -0.122099 0.70453608
-0.075213552 -0.36335301 0.79575229
-0.060582042 -0.1477892 0.66266149
-0.0056734681 -0.1231239 0.66548067
-0.060134351 -0.14374159 0.61087197
-0.016839091 -0.1235815 0.71594381
-0.050417311 -0.17567 0.60307062
-0.062419001 -0.24557699 0.61210102
-0.022303279 -0.12879831 0.67918313
-0.065628953 -0.3541553 0.82534599
-0.0587859 -0.34918779 0.60661209
-0.06296277 -0.2102309 0.65399158
-0.060900811 -0.2288076 0.60638881
0.1320665 -0.1233356 0.70649427
-0.07201618 -0.42338911 0.8357681
0.16133121 -0.12667841 0.61669791
-0.073207676 -0.3358666 0.80150181
-0.059230689 -0.138815 0.61707312
-0.030552691 -0.1218883 0.66123992
-0.05664587 -0.12691019 0.60961819
-0.063983738 -0.1803358 0.63488913
-0.069174707 -0.40933099 0.62642711
0.081053853 -0.127452 0.78835499
-0.01110512 -0.127369 0.82407367
-0.075556457 -0.3947286 0.82269871
0.01995039 -0.1229549 0.82003772
0.062624343 -0.12564699 0.70497251
-0.06275326 -0.30192161 0.61317039
-0.067837119 -0.1697682 0.80305022
-0.066720493 -0.30742419 0.65490752
0.088068493 -0.1270389 0.68696421
-0.080587387 -0.43236491 0.81097192
-0.063735433 -0.2010438 0.65736687
-0.058359209 -0.1707498 0.60577428
0.01833111 -0.1198979 0.69991869
0.1245458 -0.1239964 0.82772303
0.1555946 -0.1239245 0.6799109
0.096821487 -0.1224357 0.69667339
0.1259975 -0.1253894 0.6167295
0.1584802 -0.1307552 0.61870021
0.01165658 -0.1233446 0.67518222
0.1433357 -0.124278 0.67271638
0.09157002 -0.1262598 0.66080379
-0.003071666 -0.1217967 0.71059418
0.081864603 -0.12757149 0.70654768
-0.064868867 -0.29105619 0.63527721
0.14041109 -0.1238204 0.79702729
0.1036346 -0.122473 0.80055928
0.053960379 -0.1290042 0.61975038
-0.063453443 -0.2260465 0.6339485
-0.066757619 -0.13504881 0.7995131
-0.06448561 -0.2649709 0.61197668
-0.054633319 -0.13182551 0.61754477
0.027821779 -0.1208396 0.71102917
-0.061639961 -0.18629581 0.60582411
-0.059032381 -0.1515034 0.67181689
-0.058765829 -0.34532931 0.64214098
-0.068196483 -0.1418331 0.79273528
0.096473932 -0.126341 0.63229573
0.15403961 -0.126269 0.65367568
0.1654142 -0.1248753 0.7833429
0.087107003 -0.124673 0.74250913
-0.03495181 -0.1238189 0.74895507
0.16207869 -0.12654591 0.63763613
0.078306884 -0.1273931 0.62411869
-0.05791384 -0.32694241 0.61689001
0.151208 -0.1309559 0.61053228
-0.048282679 -0.20077179 0.60104382
-0.04735139 -0.31058639 0.60216182
0.1093691 -0.132836 0.63074869
0.032284532 -0.2602047 0.60745698
0.021946341 -0.2171389 0.61336732
0.065403707 -0.1803685 0.60630977
0.076248169 -0.2894066 0.60756129
-0.022742691 -0.1667895 0.60794067
0.09103623 -0.25924289 0.60773039
0.1187513 -0.3237085 0.60825801
-0.0072983499 -0.2011188 0.60386091
-0.05360036 -0.41817319 0.61020237
-0.02322498 -0.1788827 0.60076398
0.095737293 -0.23375671 0.60804611
0.06826508 -0.2200473 0.60964382
0.08770445 -0.32545769 0.61165482
0.049994379 -0.38718241 0.60336328
-0.063336574 -0.38918179 0.62256658
-0.061953899 -0.32889271 0.67359358
0.138294 -0.1514439 0.60635632
-0.035694491 -0.34114251 0.61237812
0.1685804 -0.39484429 0.62314397
-0.061139081 -0.34631529 0.81887501
0.14240479 -0.4037385 0.61800492
-0.03731608 -0.1268201 0.72408563
0.1404628 -0.2345199 0.61405331
-0.026377009 -0.23625641 0.62355918
0.01489602 -0.1267848 0.64244199
-0.05505259 -0.1693992 0.64948171
-0.028632419 -0.28545621 0.60490739
0.067518622 -0.3819465 0.61458981
0.0068098311 -0.1255143 0.80627263
-0.06210874 -0.35674101 0.67630732
-0.051411539 -0.26198971 0.60715097
-0.045708358 -0.25741291 0.60085791
-0.020232201 -0.1560168 0.60147488
-0.050114632 -0.1929294 0.59906942
-0.05103296 -0.30880129 0.6014812
-0.057312369 -0.1913676 0.64996529
-0.057208478 -0.30117261 0.61216623
-0.055164341 -0.18373761 0.60350782
0.036984921 -0.1266553 0.60455251
0.001919448 -0.1657237 0.60557967
-0.066719472 -0.32396069 0.77828842
-0.057367381 -0.32402179 0.61068398
-0.053091351 -0.35574999 0.60897112
-0.05434018 -0.17692821 0.60599291
0.15311 -0.1228165 0.60528862
0.01162469 -0.1211713 0.6059829
0.0099413991 -0.1229185 0.68124592
-0.03059208 -0.1301575 0.601412
0.1203714 -0.27909639 0.60641313
-0.020380139 -0.118363 0.6526497
-0.057617281 -0.23580129 0.6403091
0.027139541 -0.36011401 0.60036939
-0.04851735 -0.1380727 0.59754223
-0.05272254 -0.2039749 0.59945112
0.124467 -0.1225135 0.62483537
-0.031293839 -0.1897828 0.60161328
-0.05858269 -0.2025312 0.66732693
-0.055946469 -0.1712293 0.72629201
0.1150582 -0.31208801 0.60337692
-0.05962598 -0.4307507 0.82273078
0.02730733 -0.1903359 0.60213548
0.018945809 -0.121409 0.64363343
0.1237575 -0.1267257 0.6100654
-0.055842459 -0.1409926 0.60992038
-0.062260538 -0.35457581 0.75672632
-0.0648399 -0.40806839 0.62442547
-0.063757122 -0.29902911 0.67136359
-0.05451059 -0.178178 0.72770143
-0.058257639 -0.4299193 0.61137372
-0.050927941 -0.15866759 0.61577511
0.1540682 -0.189849 0.60171288
-0.0485374 -0.1391004 0.63374019
-0.0716573 -0.39894441 0.6654104
-0.067185998 -0.34471259 0.67003107
-0.05387393 -0.19841629 0.70643783
-0.058825251 -0.1534531 0.66558141
-0.06210703 -0.28879291 0.81460232
-0.063278317 -0.2402634 0.61607349
-0.062081691 -0.16526011 0.69428658
-0.056110442 -0.2011452 0.7157805
0.0348351 -0.1192002 0.66857833
-0.054570761 -0.18903831 0.64677399
0.0086250901 -0.119409 0.64386213
-0.05655849 -0.41329789 0.6068967
-0.0061565642 -0.19632719 0.60160619
-0.05402315 -0.1970572 0.74273372
-0.064119518 -0.31262729 0.80316818
-0.05633444 -0.2050672 0.76331347
0.03101361 -0.33488539 0.59985852
-0.068096578 -0.40136409 0.78693831
0.1605113 -0.1215567 0.70879692
0.13554931 -0.1240266 0.70278561
0.06028777 -0.2203356 0.60197109
0.1512994 -0.28067109 0.60232103
0.1688481 -0.17490929 0.60655248
0.15150701 -0.1211383 0.81196749
0.03084624 -0.1219814 0.76171339
0.03944445 -0.1192661 0.75555032
0.04504991 -0.1198459 0.77256572
-0.0599817 -0.2449135 0.79626077
-0.057048619 -0.2212255 0.76254499
-0.064306863 -0.32562989 0.75826818
-0.07025063 -0.34671801 0.79300702
-0.06205127 -0.1826205 0.81234992
0.002384007 -0.29598689 0.5964781
-0.060935561 -0.26323429 0.74785298
-0.06201661 -0.36058429 0.66499758
-0.05837572 -0.1358714 0.73396742
-0.07135427 -0.39691189 0.8255223
0.1196488 -0.1225915 0.69344842
0.1304532 -0.1273811 0.74290037
-0.05825812 -0.1238878 0.76757652
-0.070561558 -0.37813789 0.72911829
-0.059161309 -0.2882531 0.63242757
-0.058305681 -0.16092931 0.69418979
-0.04106259 -0.38988799 0.60001391
-0.054772619 -0.1439043 0.64666092
-0.057570759 -0.1504042 0.7504009
-0.032836679 -0.1222916 0.63660723
-0.049115632 -0.1310371 0.62879062
0.1509932 -0.12850951 0.82314432
0.1728863 -0.4042446 0.6038543
0.1224777 -0.1512143 0.60536993
-0.05887261 -0.22398899 0.62997818
-0.057446241 -0.2355359 0.60985577
-0.06353271 -0.3692548 0.62807971
-0.069549888 -0.37038091 0.72143698
-0.068329327 -0.38850069 0.75483823
-0.054415759 -0.1815377 0.73800713
-0.06021231 -0.2366468 0.79006582
-0.05612177 -0.22228441 0.73823673
-0.055266261 -0.29898229 0.60620087
-0.062012199 -0.37737229 0.61170208
-0.063795298 -0.2428976 0.81735879
-0.059147421 -0.2098683 0.80215871
0.083845317 -0.1207851 0.6101467
-0.054010659 -0.2184522 0.64089549
-0.065854073 -0.2505022 0.62010002
