# .PCD v0.7 - Point Cloud Data file format
VERSION 0.7
FIELDS x y z
SIZE 4 4 4
TYPE F F F
COUNT 1 1 1
WIDTH 1391
HEIGHT 1
VIEWPOINT 0 0 0 1 0 0 0
POINTS 1391
DATA ascii
-0.1025735 -0.50736892 0.67377979
-0.01956543 -0.30333129 0.72958022
-0.13480119 -0.4863764 0.65273768
-0.076184928 -0.30891359 0.69029212
-0.05489105 -0.52783382 0.71339852
-0.02724212 -0.33850431 0.73267341
-0.0048154891 -0.322925 0.74668127
-0.08166942 -0.44572821 0.6949355
0.052371439 -0.4576304 0.78644657
-0.1108639 -0.2726382 0.66821432
-0.05012786 -0.30598339 0.71524292
-0.094505072 -0.5559389 0.69035858
-0.1142617 -0.5116297 0.66709173
0.001004398 -0.2467526 0.74556202
-0.098610997 -0.39205769 0.67853999
-0.027662519 -0.4943648 0.73410779
-0.1169657 -0.35620829 0.66435158
0.026424229 -0.42793491 0.7662763
-0.00068515539 -0.44828829 0.75478292
0.033385102 -0.35171399 0.77866131
-0.1268536 -0.39868101 0.64827162
-0.04306281 -0.52790803 0.73934251
0.0011527539 -0.52996808 0.75883502
-0.1207593 -0.42113739 0.66201842
-0.096135497 -0.42105269 0.68119162
-0.0248161 -0.28355321 0.72843921
-0.0032581091 -0.3385888 0.74927092
0.044647992 -0.50640422 0.78332239
-0.1146738 -0.48191661 0.61430782
-0.046377242 -0.42592189 0.52625787
0.02284801 -0.25667459 0.77119738
-0.062805772 -0.39483419 0.70365119
-0.1044828 -0.26304239 0.67181021
-0.01010585 -0.31132811 0.74294567
-0.031316519 -0.3160181 0.72836161
-0.1028044 -0.4126828 0.67591769
-0.1154029 -0.28043479 0.66609311
0.044115011 -0.2861152 0.78813308
-0.070377588 -0.53335643 0.70391917
-0.028659459 -0.45656919 0.7289027
-0.05546296 -0.50013387 0.71720302
-0.061185241 -0.38231781 0.70341837
-0.097830407 -0.3569431 0.68241739
-0.13125139 -0.37900141 0.64944661
0.01059264 -0.4478775 0.7644847
-0.12889069 -0.24322531 0.65526778
0.039514061 -0.2393509 0.73865497
-0.0041937232 -0.2430291 0.71327877
-0.03097159 -0.2474556 0.72340649
-0.02721238 -0.34551221 0.7283507
-0.028052149 -0.46553299 0.73444521
-0.050905172 -0.36643931 0.71592659
-0.083778739 -0.50699419 0.69684148
0.052467171 -0.3108044 0.7863422
0.022362409 -0.49998611 0.7750808
-0.02460802 -0.4467594 0.73417312
-0.065251172 -0.31395409 0.70697808
-0.069957078 -0.30153471 0.69884849
-0.064785123 -0.51461941 0.70450348
-0.066967897 -0.30627891 0.69967848
-0.1350465 -0.53566498 0.64463067
-0.070107698 -0.49597639 0.70115459
-0.096768677 -0.37880489 0.6807636
-0.0083085299 -0.53055549 0.75335568
-0.1188319 -0.31668499 0.65904713
-0.1038584 -0.2417518 0.60868299
-0.1212457 -0.27591711 0.6649183
-0.1242099 -0.2366356 0.64781451
0.044413328 -0.2504715 0.79137188
0.0031904581 -0.23407941 0.53990781
-0.1288214 -0.26871499 0.65445608
-0.1325711 -0.2709409 0.65090668
-0.1002201 -0.241965 0.65436077
-0.0032579901 -0.2373983 0.66580248
-0.05443662 -0.44107661 0.71662551
-0.01907355 -0.2984927 0.73206139
-0.062401291 -0.4909679 0.70883942
-0.093438208 -0.54295492 0.68605942
-0.018327709 -0.26643661 0.73196161
-0.054439779 -0.27487001 0.70547879
0.096625268 -0.2322454 0.69786471
-0.053202391 -0.2408971 0.70757031
-0.02451181 -0.25178409 0.72981668
-0.1174762 -0.36791721 0.66860569
-0.1041855 -0.55869383 0.67879331
-0.062684298 -0.27824041 0.70535642
-0.1201254 -0.44138041 0.66442353
-0.1276252 -0.40500969 0.66051608
-0.01473045 -0.2412021 0.66368109
-0.024857281 -0.49158061 0.73583829
0.009036541 -0.2953479 0.75814468
0.03361446 -0.4205687 0.77996951
-0.092076242 -0.334097 0.68584371
-0.1176189 -0.57022709 0.67199743
-0.1123202 -0.25928041 0.66170359
-0.0068885679 -0.42121851 0.74586779
0.0052201152 -0.5417546 0.76426119
-0.033596098 -0.51661962 0.7358433
-0.027798001 -0.37577921 0.73797172
-0.1068066 -0.4239859 0.67275828
-0.1282817 -0.56022263 0.66293138
-0.04833347 -0.51891178 0.72462982
-0.1271621 -0.45239979 0.65164793
-0.1222907 -0.38718301 0.66044497
-0.1238958 -0.50885671 0.65382391
-0.1227496 -0.43060669 0.66013223
0.034809709 -0.37798649 0.77967823
-0.097143047 -0.3038356 0.67136538
-0.092685938 -0.53751212 0.68664128
-0.1116641 -0.36025789 0.67141378
-0.1133232 -0.36838439 0.61999142
-0.02775782 -0.24075329 0.6838783
-0.09862715 -0.43512201 0.67923528
-0.044552211 -0.53500092 0.70316797
-0.055676699 -0.2938132 0.70241523
-0.07342577 -0.27836359 0.70142049
-0.054847959 -0.51672792 0.71534091
-0.051039811 -0.49772739 0.72185141
-0.078380227 -0.49553499 0.67268097
-0.01731563 -0.47589561 0.74377388
-0.0079188943 -0.34384161 0.74543828
-0.008130908 -0.2379279 0.63248801
0.050467908 -0.44958711 0.78603327
-0.089578032 -0.49456599 0.68228388
-0.038112938 -0.35445079 0.71768409
-0.042291582 -0.3580583 0.71638739
-0.029975589 -0.56070483 0.73748171
-0.1224806 -0.40675831 0.66043162
0.02260435 -0.51874799 0.77809179
-0.03021759 -0.4072465 0.73440671
-0.1369025 -0.55589253 0.77229989
0.0033267741 -0.3742727 0.76215458
-0.1316217 -0.55539662 0.84215242
-0.138106 -0.55199301 0.842794
-0.04885143 -0.237773 0.56698209
-0.1027072 -0.2540977 0.67389089
-0.066249013 -0.2413753 0.67121118
-0.05685937 -0.2369772 0.6161927
-0.1151103 -0.32174081 0.66841477
0.047040518 -0.31425819 0.78644931
-0.066953659 -0.39593419 0.70676959
-0.025541721 -0.3965916 0.73896402
0.0044488311 -0.45058629 0.76848757
0.01555896 -0.41264269 0.76582092
-0.016385909 -0.32577121 0.7328366
0.050149322 -0.47496659 0.78691107
-0.079833448 -0.54412138 0.70122743
-0.02164346 -0.40270999 0.73842138
-0.078880914 -0.52246791 0.69916618
-0.0078815818 -0.49660021 0.75464571
0.046605531 -0.48973131 0.78842038
-0.1080554 -0.57044452 0.84313351
-0.18867549 -0.55658162 0.84706932
-0.25982949 -0.5672549 0.44622591
-0.074538291 -0.55418068 0.93882602
-0.015716139 -0.2400189 0.57209361
-0.1163421 -0.25307831 0.6612348
-0.094536841 -0.39376721 0.67949432
-0.1032382 -0.3557283 0.67387122
-0.087606549 -0.44325289 0.68734378
-0.0069760079 -0.240904 0.69889551
0.022457119 -0.29899999 0.75827181
-0.016418461 -0.2574569 0.73526561
0.01811463 -0.2392747 0.728701
-0.0036553741 -0.4718034 0.75420058
-0.040319979 -0.37787911 0.7206552
-0.05851024 -0.54571837 0.71706432
0.0103457 -0.4842653 0.76281267
-0.088430353 -0.37338039 0.68683678
-0.04320246 -0.43055049 0.72671968
-0.01012361 -0.2407283 0.64775002
-0.028613091 -0.36062929 0.73294967
-0.023741011 -0.53909498 0.74630821
-0.00028693679 -0.2350978 0.56858969
-0.01206064 -0.5625031 0.75488728
-0.032862481 -0.2412971 0.65598452
0.1095361 -0.23489051 0.6366263
-0.1504879 -0.5571512 1.014904
-0.035498802 -0.24196281 0.65491498
0.0053146482 -0.2435091 0.61377919
-0.1088098 -0.39021859 0.66876709
0.05986774 -0.2347894 0.66216612
-0.1102248 -0.51480567 0.61376852
0.051830228 -0.2338555 0.68347192
-0.087663174 -0.23758399 0.65779293
0.00064188242 -0.2356412 0.69441712
-0.043017149 -0.27331081 0.72163421
-0.034688771 -0.28982219 0.73134339
0.1004278 -0.23629449 0.70532852
0.044014219 -0.54075032 0.78972709
-0.027145561 -0.43580851 0.73552102
0.021199111 -0.3201426 0.76843488
-0.02881008 -0.49310559 0.74713188
0.0046665668 -0.5015859 0.76486361
-0.002851546 -0.45380259 0.76390791
-0.034658369 -0.55451751 0.72860909
-0.079333253 -0.53760308 0.69417077
-0.1111766 -0.41696161 0.6151309
-0.034496188 -0.35400751 0.73720062
-0.032927219 -0.45444149 0.72635549
-0.021272421 -0.50053811 0.74581182
0.04739511 -0.36612719 0.78575349
0.052650928 -0.54087502 0.79983479
-0.03182685 -0.41951779 0.73303932
0.034133259 -0.34221771 0.78360879
-0.09503454 -0.52127218 0.68842131
0.0024236441 -0.38903841 0.75680321
-0.092841633 -0.45445409 0.68601501
0.5170424 -0.55165511 0.7629987
0.067430139 -0.44151571 0.79267991
-0.14150061 -0.55056733 0.75893003
-0.1200594 -0.5619421 0.77616137
-0.1189976 -0.55088431 0.84511888
-0.05216283 -0.2385956 0.59566033
0.1213551 -0.24243639 0.55259031
-0.083657503 -0.47685841 0.69519901
-0.1245595 -0.28097111 0.65368491
-0.109793 -0.3100816 0.67113262
-0.082622409 -0.3462806 0.69461709
-0.102285 -0.55077738 0.58247137
0.040824771 -0.2397036 0.78663301
-0.04286861 -0.2369771 0.67501259
0.16508929 -0.224997 0.59850419
-0.017514169 -0.3658534 0.73575968
-0.053619679 -0.2457262 0.7144044
-0.069297969 -0.23806199 0.70271611
-0.01655495 -0.2366598 0.57550412
-0.05884904 -0.2425241 0.6719147
-0.02061367 -0.242928 0.686234
-0.044743899 -0.2379189 0.56750762
0.019571129 -0.23808511 0.60409832
0.028616849 -0.2383108 0.62537551
0.0064685941 -0.2356766 0.64685792
-0.0090230107 -0.2402503 0.65054297
-0.056099709 -0.2385101 0.71339571
-0.056230661 -0.2401605 0.68476212
-0.035450399 -0.23226871 0.61144781
0.006044447 -0.2372409 0.54728538
-0.025598761 -0.23815741 0.53150338
-0.084374547 -0.24644449 0.66405928
-0.1027845 -0.353324 0.67994207
-0.107803 -0.26348081 0.67793733
-0.1014795 -0.43183741 0.68898928
-0.067574143 -0.38542059 0.71372819
-0.1078649 -0.32291541 0.6675992
-0.089392602 -0.39425549 0.67915982
-0.093233347 -0.39238799 0.67789543
-0.07260555 -0.26777279 0.68892157
-0.057908121 -0.39930099 0.70372331
-0.072782703 -0.4484404 0.69719273
-0.1137651 -0.26724231 0.66057777
-0.1088412 -0.32323161 0.66566187
-0.070419192 -0.31041241 0.69402862
-0.1064726 -0.50036567 0.68401921
-0.097929478 -0.25536481 0.67282939
-0.097205102 -0.41299981 0.67559278
-0.095977068 -0.4762021 0.67523187
-0.1115319 -0.35643879 0.66383451
-0.1142602 -0.42295691 0.66048908
-0.044303361 -0.3672972 0.71472019
-0.063733518 -0.28738061 0.70100099
-0.043455958 -0.4986932 0.72065771
-0.070750892 -0.31654611 0.69338381
-0.046621021 -0.52702749 0.71743917
-0.1052766 -0.2733933 0.66774571
-0.050894499 -0.29349169 0.7018472
-0.057886358 -0.4263719 0.72587442
-0.062847853 -0.28119001 0.69868541
-0.1191306 -0.255934 0.65561348
-0.08702004 -0.54301047 0.68594801
-0.090236314 -0.55224669 0.68082178
-0.04437387 -0.4263629 0.71627438
-0.1062557 -0.2603727 0.65988731
-0.072539151 -0.54641402 0.6995948
-0.063056827 -0.30601591 0.69830269
-0.051704232 -0.51461262 0.71554321
-0.083770163 -0.44211239 0.68720341
-0.1097921 -0.28203499 0.66412008
-0.075197883 -0.30061331 0.69034308
-0.066350222 -0.53182012 0.70409882
-0.12775441 -0.55262381 0.64281321
-0.072058618 -0.52480203 0.69702083
-0.091414928 -0.42167121 0.6799041
-0.03795642 -0.36176559 0.71702993
-0.05075467 -0.49934751 0.71708113
-0.088054538 -0.55607861 0.68994218
-0.086639337 -0.37383971 0.6867497
0.0045360331 -0.2356284 0.76337719
-0.0080053806 -0.2381053 0.69917071
0.02216661 -0.2407846 0.71251029
0.096200109 -0.2315561 0.67950398
0.1009963 -0.23580649 0.58971792
0.07352823 -0.2364573 0.7385211
0.1176234 -0.23817991 0.6903969
-0.0264017 -0.2474525 0.72142392
0.025970999 -0.2388434 0.73435682
-0.02093458 -0.23621351 0.7206732
0.047276381 -0.23996089 0.73442638
0.080864549 -0.24074049 0.77686077
0.1140566 -0.2368843 0.71397328
0.052909728 -0.2335041 0.75179303
0.1010721 -0.2317663 0.60194379
0.04538494 -0.2309985 0.68865758
0.03870815 -0.2412103 0.75594932
0.042534109 -0.2373502 0.7903347
0.027817311 -0.23739161 0.67502302
-0.0063610082 -0.240842 0.75261259
0.054239631 -0.54538178 0.7860474
-0.023965601 -0.48928991 0.73601192
-0.001411617 -0.32308441 0.74659657
-0.01415175 -0.29930621 0.73013473
0.043312792 -0.2960701 0.78011358
-0.01086026 -0.31972349 0.75878853
0.0040242081 -0.41887069 0.75743192
-0.022170721 -0.4953458 0.73211819
0.028114799 -0.50043678 0.77384758
-0.02271932 -0.46612039 0.73279458
-0.026190219 -0.34351051 0.72866273
0.0082864761 -0.34018239 0.76681042
0.0023907421 -0.47141981 0.75262421
0.0036015511 -0.44752589 0.75384271
-0.01915014 -0.29860729 0.74013948
0.038237449 -0.3509388 0.77729738
0.02292967 -0.29702261 0.75826931
-0.023777841 -0.33702281 0.73457402
0.01516485 -0.45502901 0.76482528
0.01743412 -0.34317151 0.7557748
0.0230611 -0.4936395 0.77230388
0.054323319 -0.3159436 0.78238028
-0.01035535 -0.40723801 0.76465261
-0.01710552 -0.39929801 0.73573917
0.038398981 -0.47081879 0.77866238
-0.03387922 -0.37849349 0.7187891
0.03840417 -0.47787651 0.77754402
-0.044177592 -0.2714403 0.72586352
-0.01626903 -0.26486519 0.73137021
-0.021984881 -0.44497719 0.73382849
0.02160937 -0.41309869 0.76381058
0.039246742 -0.42086479 0.77827638
0.05462515 -0.25177631 0.78819418
0.0494023 -0.42701659 0.78076148
0.055159271 -0.30924019 0.78561598
0.04194719 -0.3312088 0.78170061
-0.02963376 -0.28151891 0.73535389
-0.03294671 -0.2760646 0.7172544
-0.02744508 -0.2910291 0.7287395
0.0524658 -0.4085252 0.78275073
0.026346499 -0.4240866 0.7668916
0.0068538189 -0.43995121 0.77337182
-0.01370019 -0.47449741 0.74363089
-0.01202959 -0.25875661 0.73345262
-0.040357769 -0.41628841 0.7242732
-0.01579022 -0.3231777 0.73329878
0.009270072 -0.54014802 0.76346868
0.052891191 -0.4475812 0.78560781
-0.02682507 -0.51845407 0.7338953
0.04787153 -0.4128623 0.79486018
0.044514831 -0.44374669 0.77787429
-0.02726138 -0.4534184 0.7293905
-0.0057604308 -0.3348099 0.75668722
-0.0047397022 -0.4185403 0.74601263
-0.068208747 -0.29939249 0.6985544
-0.065469801 -0.42381829 0.69328779
-0.086588077 -0.53774458 0.68429661
-0.086098246 -0.3354136 0.68328887
-0.098193817 -0.30108011 0.67500561
-0.040134609 -0.4289282 0.72700608
-0.01876569 -0.2673707 0.7291373
-0.02880132 -0.36249661 0.72310102
0.03642213 -0.3890124 0.77011842
-0.030426141 -0.53606498 0.7329635
0.0065200329 -0.53131592 0.75715733
-0.0034623151 -0.2425278 0.53958571
0.01286089 -0.50440228 0.76213902
0.049314622 -0.50650752 0.78233331
0.05782878 -0.36950979 0.78230888
-0.089989074 -0.48977891 0.68447948
-0.038040821 -0.3579978 0.71572381
-0.047240671 -0.3878299 0.71080571
-0.02480215 -0.56020522 0.73712128
-0.02809787 -0.2411021 0.65413028
-0.051428139 -0.3732343 0.71298838
0.020550489 -0.2547549 0.77765697
-0.03092164 -0.55462158 0.72716308
-0.1155638 -0.31664139 0.65772521
-0.02500486 -0.30240721 0.72623348
-0.106289 -0.36107481 0.66975862
-0.027197899 -0.35639361 0.73373449
-0.1049449 -0.40420029 0.67134678
-0.016765241 -0.4997029 0.74247772
-0.1019134 -0.424799 0.6712684
0.038596269 -0.52736151 0.77305871
-0.00062471628 -0.49802011 0.75257552
-0.01162249 -0.38365361 0.74052161
0.018252971 -0.25306469 0.75732499
-0.003162503 -0.52994949 0.75218302
-0.083222806 -0.39534131 0.686867
0.05170387 -0.48934051 0.78725052
-0.019577149 -0.25197381 0.72836822
-0.021371661 -0.3769193 0.73610479
0.03935283 -0.37694791 0.7793777
-0.028411809 -0.41890219 0.73251271
0.0059024692 -0.38645551 0.75531173
-0.094975352 -0.2426009 0.652439
0.060584899 -0.4017854 0.79436839
0.02592003 -0.3028003 0.76674688
0.0113821 -0.3762379 0.75913823
-0.068564057 -0.2663025 0.69685042
-0.02310681 -0.2430158 0.70668072
-0.02179545 -0.43831781 0.73366952
0.054229859 -0.45521161 0.78555268
-0.094515383 -0.4032329 0.6806705
-0.094936609 -0.41033301 0.68775082
-0.1233147 -0.245288 0.65097088
-0.1281161 -0.4882749 0.6575526
-0.043469369 -0.311921 0.71142578
0.0451262 -0.2394014 0.67371053
0.002895772 -0.4732821 0.75211859
0.029036971 -0.23503719 0.76344562
0.03542316 -0.32550949 0.76245737
0.1011393 -0.2383499 0.62029958
0.092451327 -0.2345597 0.64269269
0.01433849 -0.2447049 0.54571903
0.1605569 -0.2342573 0.60500938
-0.04457007 -0.32292521 0.521101
0.0350531 -0.2384399 0.72857028
0.1324729 -0.2389421 0.59196568
0.1322777 -0.23335271 0.65392649
0.1275674 -0.2362086 0.6735785
-0.03139222 -0.2424691 0.51657528
-0.0094260573 -0.235486 0.53078997
0.02447203 -0.24040011 0.52051717
0.1211194 -0.23575909 0.59817088
0.162103 -0.2342331 0.62172037
-0.04186666 -0.28393301 0.52365011
0.023950741 -0.2381274 0.60386372
0.1536718 -0.2372334 0.64008051
0.1102623 -0.23842131 0.55592352
0.078278303 -0.2414421 0.57586741
-0.035418611 -0.46167701 0.51707071
0.00092354789 -0.23764621 0.50237399
-0.033970069 -0.27191371 0.51453698
-0.03061346 -0.30933729 0.51529813
-0.001905356 -0.48132691 0.48475119
-0.002148807 -0.33760431 0.47293991
0.076855332 -0.23751231 0.60153598
-0.03780438 -0.3445932 0.51128149
-0.032240439 -0.2399213 0.56063378
0.0692693 -0.2368114 0.65598953
-0.0090310872 -0.239417 0.67873001
-0.0023550731 -0.24109299 0.51124281
-0.028048901 -0.3088868 0.50999928
-0.095253773 -0.3374607 0.60777259
-0.0053295488 -0.24060699 0.51499718
-0.01120859 -0.34860581 0.49543259
-0.003663087 -0.29995081 0.47735691
-0.01112309 -0.41590011 0.50008649
-0.038897201 -0.33020899 0.52588087
-0.022812581 -0.49533111 0.4948031
-0.01608743 -0.3597095 0.50401938
-0.076490283 -0.32399529 0.59172672
-0.05343819 -0.30112749 0.55751288
-0.063105211 -0.34224409 0.56530142
-0.01126808 -0.3476097 0.4966819
-0.066588938 -0.27952081 0.57776922
-0.102951 -0.32120481 0.61487788
-0.083501697 -0.35792121 0.59552568
-0.1154037 -0.25076231 0.6335513
-0.01959151 -0.43870381 0.49540639
-0.089945354 -0.34814411 0.60856658
-0.077685028 -0.2950964 0.57554883
-0.043552581 -0.52217662 0.51786047
-0.02000102 -0.50974661 0.48972881
-0.076569691 -0.29060251 0.57272238
-0.072798617 -0.31746319 0.5622133
-0.02683688 -0.34161291 0.50614578
-0.045432109 -0.2382607 0.6522646
-0.064736068 -0.32901651 0.57057709
-0.03435269 -0.2370093 0.64910322
-0.01157179 -0.29968691 0.49676579
-0.01996709 -0.53512692 0.49216649
-0.0072248969 -0.45076689 0.4783276
-0.039263438 -0.4748233 0.529989
-0.030553309 -0.54641807 0.51356483
-0.01212653 -0.39228699 0.48151949
-0.063800499 -0.31585509 0.55781877
-0.03846699 -0.52827787 0.52821898
-0.094539464 -0.37960109 0.58961773
-0.060683381 -0.28634119 0.54553783
-0.0080398321 -0.25874329 0.4978978
0.052093212 -0.24179851 0.70446938
0.1308378 -0.24271449 0.59445173
0.114773 -0.2395938 0.60979599
0.14113 -0.23789041 0.6236673
-0.033564329 -0.53067487 0.50363958
-0.007629693 -0.380934 0.48796231
-0.084448129 -0.38550401 0.59219837
0.003746897 -0.36427599 0.47778419
-0.092118472 -0.41947481 0.60636538
-0.0078118439 -0.36541319 0.48850971
-0.1235261 -0.2616142 0.65208268
-0.1213323 -0.40467149 0.63960099
-0.01585798 -0.30009139 0.48558879
-0.029542761 -0.49145809 0.5167644
0.1754645 -0.2406078 0.59618908
0.002595365 -0.55573118 0.48205101
-0.0072189872 -0.34835219 0.48812351
-0.05021368 -0.28341931 0.54700679
-0.1272708 -0.2396186 0.65266317
-0.1285236 -0.2569117 0.65680343
0.1157753 -0.23694099 0.65311629
-0.053375009 -0.23746499 0.57466269
0.066230789 -0.2384368 0.53588241
0.045886278 -0.2423633 0.55014241
0.026364259 -0.240637 0.5433659
-0.054112568 -0.24424151 0.61668658
0.074884832 -0.2413016 0.53254408
-0.09275955 -0.2372997 0.63664907
-0.1282174 -0.4277578 0.65997481
-0.1290212 -0.4186314 0.66306287
-0.12510499 -0.3182326 0.64434731
-0.04104197 -0.37959149 0.51373988
0.042455081 -0.23699071 0.5787971
-0.1194335 -0.41837499 0.64744753
-0.080402963 -0.2577523 0.58638602
-0.1404611 -0.53725982 0.6599592
-0.051584329 -0.3179757 0.55965853
-0.0042231572 -0.40347189 0.47584331
0.0066656172 -0.2440563 0.47787711
-0.00866789 -0.34310001 0.47069901
-0.029417541 -0.26511741 0.5209446
-0.0047025378 -0.36797261 0.484658
0.025341479 -0.23743691 0.57427448
-0.04252496 -0.2377768 0.61285049
0.111872 -0.24374729 0.56146282
0.060697701 -0.2375582 0.6938647
0.019901279 -0.24291091 0.58866048
0.1588342 -0.23575699 0.63294858
-0.01223455 -0.2379512 0.65954852
-0.051738828 -0.37854341 0.55780768
-0.054962929 -0.38779369 0.55876082
-0.0095863044 -0.24010991 0.70725608
-0.079879269 -0.35882169 0.60887867
-0.00044631961 -0.27162209 0.47898769
-0.065367341 -0.23916779 0.58226871
-0.016217601 -0.44119531 0.47711131
-0.1023493 -0.44024619 0.61280799
-0.1137937 -0.38590261 0.61185151
-0.1108019 -0.40930551 0.62304002
-0.03570554 -0.2694419 0.52445042
-0.1002084 -0.34392789 0.60714531
-0.1012374 -0.38169301 0.62205219
0.0075957179 -0.30738819 0.47322619
-0.0254706 -0.44007561 0.51508731
-0.036381889 -0.41680199 0.52288049
-0.066367783 -0.3322669 0.57810497
-0.077268541 -0.29920781 0.58111852
-0.044482108 -0.28919709 0.54341269
-0.01816671 -0.46526599 0.50864619
-0.046120722 -0.3334209 0.54525292
-0.021621609 -0.32789671 0.5078826
-0.021076631 -0.35192299 0.50874752
-0.01495606 -0.5270555 0.49557769
0.00061687827 -0.25872371 0.4838219
-0.0038312969 -0.37049651 0.46973059
0.0081884563 -0.46359551 0.47884709
0.0078417063 -0.2607657 0.47334799
0.006218642 -0.42253229 0.47529629
-0.04487339 -0.3028132 0.54811752
0.033215169 -0.24198879 0.59843469
-0.0083023012 -0.2376162 0.59470332
0.090951681 -0.234736 0.66241628
-0.02353847 -0.2481032 0.59118718
0.038945731 -0.2372615 0.57263249
-0.035700139 -0.38060039 0.53591728
-0.075402409 -0.3435328 0.58619082
0.0033370261 -0.26288429 0.47868469
-0.086645067 -0.2391208 0.61567622
-0.079261363 -0.2377501 0.624093
-0.072844706 -0.24078541 0.60114509
-0.092293188 -0.2459877 0.61164182
-0.1229124 -0.2456101 0.65638602
-0.087244481 -0.25325009 0.60931438
-0.1160474 -0.3605808 0.62554288
-0.090362787 -0.29014909 0.60593629
-0.1200367 -0.53817248 0.64722961
-0.1227675 -0.3023816 0.64177912
-0.1174555 -0.43905321 0.64729232
-0.1101576 -0.484519 0.62143278
-0.077643558 -0.28073511 0.59890658
-0.1249519 -0.42919999 0.64783978
-0.1134721 -0.52075362 0.61640781
-0.1217799 -0.47310239 0.64326751
-0.087094679 -0.47439301 0.59858972
-0.090299226 -0.51918298 0.60250843
-0.1151276 -0.3313165 0.63833863
-0.1238469 -0.28801939 0.65065533
-0.1181963 -0.4356496 0.63586509
-0.1246886 -0.54163933 0.65643418
-0.090287432 -0.4496021 0.60410982
-0.08288531 -0.2712014 0.59682709
-0.1102623 -0.35373491 0.62478513
-0.1035573 -0.26686189 0.60768092
-0.09664759 -0.32484499 0.61479712
-0.1243754 -0.46218139 0.65385658
-0.1227881 -0.41338861 0.64988369
-0.1224076 -0.4933446 0.62780619
-0.1003849 -0.46805149 0.61192709
-0.1358988 -0.52378488 0.6559934
-0.12984329 -0.40623689 0.65925598
-0.097123712 -0.26895979 0.60987163
-0.089357972 -0.48163399 0.60347909
-0.1180265 -0.29966691 0.63291699
-0.1291713 -0.55467522 0.65401483
-0.097247504 -0.27685651 0.61055863
-0.090812013 -0.2635428 0.61521518
-0.092118651 -0.32440329 0.60516262
-0.1256554 -0.34125 0.64860862
-0.12914871 -0.29617441 0.65351307
-0.084024042 -0.42744121 0.59622377
-0.1048349 -0.53794187 0.60725129
-0.1265521 -0.3181515 0.66121542
-0.1192875 -0.4861522 0.6287232
-0.1123652 -0.3492814 0.63379872
-0.13001271 -0.4736709 0.65674043
-0.100804 -0.35571581 0.61612833
-0.1158642 -0.28929421 0.64228082
0.085616983 -0.2409009 0.69768739
-0.082078099 -0.45652819 0.58967608
-0.059345812 -0.41731429 0.56785232
-0.085817114 -0.25528541 0.60139477
-0.1160479 -0.37345359 0.64205521
-0.1084805 -0.27306989 0.61892009
-0.09893626 -0.50435919 0.61204481
-0.1238514 -0.2742058 0.65046322
-0.1251352 -0.3758125 0.66525292
0.0087738037 -0.238006 0.62239039
-0.127059 -0.27811709 0.65449011
-0.073855042 -0.44064799 0.57236731
0.1259746 -0.2305551 0.69887751
-0.017787309 -0.47454739 0.50624001
-0.13509721 -0.2713756 0.65338469
0.05746359 -0.23421849 0.63290358
-0.1117001 -0.25794959 0.62692928
0.01450542 -0.26093379 0.47078699
-0.01673181 -0.2366226 0.60207027
-0.12822179 -0.44541979 0.65961319
-0.079892017 -0.43716869 0.58755839
-0.020397561 -0.4666613 0.51091939
-0.1260149 -0.50450778 0.64790499
-0.1004425 -0.42459199 0.62375128
-0.039551198 -0.3365168 0.53982931
0.0001520216 -0.3008517 0.48280811
-0.1349466 -0.50922209 0.66075051
-0.086107582 -0.50274241 0.59526122
-0.072972491 -0.25587279 0.58189338
0.1469675 -0.25196579 0.5713743
0.01469374 -0.31672329 0.4739905
-0.0094838738 -0.34003499 0.4826912
-0.0069361329 -0.35560751 0.47810689
-0.1100174 -0.3585864 0.61454409
-0.1068885 -0.35043779 0.61008859
0.0048589711 -0.5318678 0.47150961
-0.1217855 -0.398352 0.62821323
-0.1268073 -0.4211255 0.64708269
-0.00041860339 -0.4413594 0.4724423
-0.00019901989 -0.54230922 0.46840051
-0.091254123 -0.43833399 0.58411467
0.0059608822 -0.4545694 0.47186151
-0.1319941 -0.50947249 0.63102019
0.0034062271 -0.43630099 0.46807089
0.0060358639 -0.29551461 0.46669921
-0.0043321848 -0.25142881 0.48143649
0.0001732707 -0.2376219 0.48138139
0.0013523099 -0.26103669 0.46695009
-0.0048496719 -0.29970601 0.4751904
0.0037098529 -0.3022134 0.46670279
-0.00085306168 -0.49176151 0.4695144
-0.1269643 -0.53718293 0.63200432
0.0022129421 -0.4680416 0.469814
-0.090847373 -0.33702901 0.59098089
-0.1276852 -0.36952731 0.6476531
0.0037872789 -0.27382681 0.4701634
-0.089882307 -0.31974661 0.59090388
-0.096236773 -0.26942661 0.60223109
-0.087246299 -0.42352071 0.58309507
-0.1072652 -0.4050346 0.60893828
0.03513765 -0.2390658 0.53304273
-0.093415678 -0.26641181 0.59566277
-0.1188995 -0.29756421 0.62822098
-0.113432 -0.32545021 0.62247759
-0.001182795 -0.29670179 0.4739798
-0.092690349 -0.2415673 0.59504181
0.059193969 -0.23877691 0.53763169
-0.090853751 -0.2856403 0.58976167
-0.1145627 -0.28446481 0.62332797
-0.1218389 -0.51847339 0.62374812
-0.121643 -0.3150104 0.63117528
-0.1264239 -0.52307057 0.63264269
-0.12621111 -0.42095631 0.63264769
-0.1103154 -0.3447578 0.61944687
0.022885799 -0.24092899 0.65049613
0.003459573 -0.24287879 0.47156361
-0.122157 -0.28389549 0.63381201
0.16535529 -0.23910069 0.60078681
0.1135746 -0.24002311 0.55429298
0.1577162 -0.2351225 0.60826951
-0.02377617 -0.24446809 0.50524122
-0.1188348 -0.42614561 0.62751287
-0.098463483 -0.31133619 0.60545909
-0.1111656 -0.25685719 0.61674279
-0.12978239 -0.2887249 0.63419849
0.1285996 -0.23657081 0.64107579
0.1295028 -0.2364413 0.63740182
0.1453886 -0.2352937 0.62490147
0.1264904 -0.23568019 0.60464633
0.040320411 -0.2327977 0.66395372
0.090079777 -0.2348074 0.7013005
-0.084806196 -0.23684829 0.60210133
-0.0237788 -0.23748849 0.62209159
-0.1226791 -0.46135721 0.6247589
-0.1027573 -0.53012121 0.59352118
-0.092129648 -0.40954161 0.59068912
-0.1253287 -0.46869749 0.64642751
-0.087182671 -0.25052771 0.58798277
-0.1047447 -0.27516529 0.60971111
-0.13680489 -0.46129021 0.65716207
-0.1047665 -0.2379241 0.61801869
-0.12586381 -0.25392139 0.62978297
0.099808507 -0.2297257 0.67203361
0.062613606 -0.2355309 0.71778041
0.045552429 -0.2407496 0.68843043
0.1088735 -0.2385404 0.5973174
-0.1132661 -0.2974678 0.62322599
-0.034121841 -0.2395737 0.6275754
-0.091784827 -0.25723311 0.59648448
-0.109579 -0.47581851 0.60626948
-0.099630892 -0.37701619 0.60143119
0.0043981671 -0.28453219 0.46701121
-0.02865338 -0.2409429 0.51941288
-0.001820147 -0.2381575 0.49890569
0.1201547 -0.2370353 0.61570227
0.098015606 -0.236863 0.60491282
0.006831646 -0.2379397 0.52617979
0.1433721 -0.2297706 0.64915401
-0.0084824562 -0.2399341 0.66460389
-0.0949108 -0.27465659 0.59814447
0.001711667 -0.32610989 0.4719789
-0.101007 -0.43710801 0.60252941
-0.0043483968 -0.45028719 0.47591579
-0.01262844 -0.30665681 0.48628491
0.052166641 -0.2374229 0.751881
-0.1227058 -0.39186889 0.63063961
-0.1317056 -0.50870502 0.63880092
-0.087959021 -0.4911311 0.58235091
0.1225677 -0.24227311 0.58251542
0.03140438 -0.2380022 0.70896208
0.043621778 -0.24299739 0.53614509
0.03762066 -0.23627549 0.56917578
-0.0084809056 -0.29928121 0.48450199
-0.016056539 -0.2507647 0.48463979
-0.049749609 -0.23796619 0.61061132
-0.081954896 -0.2363586 0.60528457
-0.090155087 -0.23805811 0.61484402
-0.045806289 -0.23793539 0.65321982
-0.1255457 -0.45745969 0.64937007
-0.1214843 -0.40931019 0.63127673
-0.0023067589 -0.43270829 0.47262961
-0.1140164 -0.30736741 0.62075073
-0.0028023119 -0.25443971 0.47395989
-0.1268754 -0.48833251 0.62709928
0.0108313 -0.49340701 0.47293961
-0.01533222 -0.3411369 0.48955879
0.01889676 -0.2405611 0.54769433
0.14139681 -0.236122 0.58016819
0.1112014 -0.2365161 0.6401428
-0.03186224 -0.2315075 0.70256698
-0.08812952 -0.2389612 0.62653333
0.037687719 -0.23639479 0.74765861
-0.054846101 -0.23067389 0.69762123
-0.085966706 -0.23238771 0.66014922
-0.07871297 -0.2392641 0.6647051
-0.084745347 -0.2406051 0.67114598
-0.1081516 -0.2406804 0.64937949
-0.0021907091 -0.2317414 0.62710619
-0.099642687 -0.2393 0.66575992
0.02203244 -0.2383033 0.68953812
-0.1072843 -0.45588401 0.60905051
-0.1189886 -0.45069981 0.62474102
-0.025370421 -0.2379214 0.72836697
0.082818151 -0.24086121 0.58604759
-0.12761991 -0.41176841 0.64951408
-0.1206988 -0.33135611 0.62655258
-0.1129881 -0.48436451 0.61053282
-0.1161066 -0.4346582 0.6176796
-0.0141651 -0.2405248 0.49598169
-0.0155462 -0.2891348 0.49187529
0.104835 -0.2424133 0.54764122
0.1301578 -0.2382005 0.59260178
0.062337279 -0.23353601 0.55605757
-0.016299959 -0.29594889 0.4881565
-0.027955949 -0.24153779 0.51012492
0.069395363 -0.23674311 0.71946287
0.061109189 -0.2363389 0.73997319
0.060893979 -0.2364395 0.73968542
-0.04948419 -0.2361754 0.63578719
0.068305023 -0.2300393 0.72851533
-0.1151279 -0.42466739 0.61694193
-0.1065043 -0.36827749 0.61183298
-0.1222617 -0.2445382 0.64197648
-0.1251363 -0.35003319 0.61198068
-0.109565 -0.51880342 0.58483553
0.082331002 -0.24198771 0.61104381
-0.086314052 -0.2370633 0.68414599
-0.1194944 -0.35745081 0.63238478
-0.1007914 -0.35257781 0.6049062
-0.1029761 -0.53259981 0.58906108
0.008882165 -0.53661108 0.4752261
-0.098572113 -0.24276049 0.60378069
-0.0099503882 -0.2289467 0.52836919
-0.1291738 -0.2360469 0.63926888
-0.1275458 -0.25458699 0.64277673
0.0252012 -0.23968069 0.56719279
0.047330741 -0.2403941 0.57651788
0.079432793 -0.2424704 0.61886662
0.023810269 -0.2368865 0.50944638
0.0033228991 -0.2376422 0.66507143
0.02872056 -0.23649891 0.69395512
0.01116222 -0.235815 0.68123341
0.01627754 -0.23141339 0.64688188
0.091180682 -0.2177503 0.69070792
-0.070840538 -0.23675931 0.60216528
-0.06430462 -0.23869289 0.64604938
-0.088888466 -0.239465 0.63102341
-0.088662297 -0.48390749 0.58105701
-0.12527511 -0.53761017 0.62293482
-0.007538795 -0.244314 0.54934859
-0.1146535 -0.4631635 0.61584532
-0.1252082 -0.29866889 0.62899679
-0.117327 -0.46450189 0.64935309
-0.1217929 -0.34118479 0.64006573
0.002791286 -0.23983289 0.75319159
-0.0044044852 -0.54132152 0.4755373
-0.12829921 -0.29267961 0.64199048
-0.1214629 -0.27253151 0.63860708
-0.098367482 -0.438021 0.59697092
-0.1052597 -0.33715561 0.61222661
-0.097289167 -0.28662461 0.60107517
0.076541759 -0.2272992 0.66392142
-0.03790522 -0.25240639 0.71949369
0.039441761 -0.52213567 0.76541841
0.03273347 -0.46259111 0.76501971
0.080173023 -0.2451413 0.69915241
-0.038155969 -0.2311644 0.52956742
0.042146351 -0.2260478 0.54571098
0.02913807 -0.23838361 0.64112139
0.045206789 -0.29142171 0.75019491
0.07554134 -0.36933079 0.72016692
0.05735524 -0.50538349 0.74901289
0.0385141 -0.25192201 0.75448912
-0.041049082 -0.22768471 0.49975479
0.02368325 -0.2304645 0.52949673
0.01050037 -0.42735139 0.74234968
0.046353031 -0.31448871 0.75347602
0.066007197 -0.23694821 0.73005629
0.048615269 -0.4445914 0.75261003
0.0203561 -0.52734292 0.73948509
0.099969253 -0.2282788 0.67406869
0.056216799 -0.34481299 0.74653637
0.06110229 -0.43402541 0.7429558
0.1171005 -0.43446231 0.67524719
0.02381289 -0.2942735 0.7704556
0.052719221 -0.52846998 0.74381149
0.078337342 -0.44998711 0.70883691
0.1049883 -0.2258144 0.650603
0.055444151 -0.37848839 0.73816949
0.0089975893 -0.2280046 0.69752967
0.1071084 -0.4506107 0.67424768
0.03699309 -0.35613009 0.75941968
0.12919401 -0.46365359 0.64927948
0.047007229 -0.44238541 0.75030619
0.1595156 -0.40997729 0.61689723
0.1128273 -0.2236291 0.63974983
0.04011938 -0.2884326 0.75572377
0.132241 -0.31996149 0.64468187
0.03996769 -0.31978831 0.75762713
0.1527869 -0.37303129 0.61171597
0.09100762 -0.4661178 0.69553709
0.05669418 -0.51065159 0.74398601
0.1157051 -0.23106641 0.6674521
0.091108769 -0.51380628 0.68560278
0.148286 -0.50844479 0.62018609
0.14958841 -0.45526549 0.62075919
0.1270662 -0.39509159 0.64859313
0.1397064 -0.51154637 0.63200712
0.14653189 -0.25563869 0.62753117
0.1535107 -0.30729279 0.59144688
0.1477426 -0.35806081 0.5995639
0.097448617 -0.22387651 0.67596608
0.08390677 -0.23964199 0.69830418
0.1092685 -0.28600311 0.66686308
0.01762375 -0.23006681 0.55586582
0.04530314 -0.35257941 0.75012219
0.067812063 -0.39729911 0.72808337
0.04608902 -0.27969939 0.75062472
-0.035950571 -0.22619221 0.51591003
0.046980679 -0.2263577 0.73127651
0.02264151 -0.2250403 0.53332943
0.056692749 -0.22710191 0.52485979
0.075902671 -0.2271495 0.59894598
0.129797 -0.30484691 0.64971077
0.1026844 -0.48459131 0.6765641
0.1561117 -0.33399379 0.62032849
0.063375004 -0.3104628 0.73144251
0.085773803 -0.5183928 0.69516581
0.05559295 -0.48027691 0.73957878
0.1397891 -0.26372111 0.63429141
0.1588127 -0.30465069 0.58855587
0.1222442 -0.41648391 0.66436368
0.1608641 -0.25605199 0.59128731
0.066429377 -0.26814011 0.72901487
0.12569921 -0.397668 0.64973271
0.1592292 -0.3503412 0.59274209
0.05624944 -0.3434872 0.73700953
0.15956371 -0.49492261 0.59696651
0.1265 -0.50538683 0.63742208
0.12805539 -0.26136249 0.64430171
0.1599672 -0.39894891 0.59372121
0.081624843 -0.26663461 0.6997354
0.062072221 -0.27077341 0.73024321
0.15745389 -0.4623996 0.59359759
0.085262664 -0.4971517 0.69999802
0.066213489 -0.49421769 0.72547728
0.13151801 -0.4273183 0.63687247
0.12849081 -0.2292482 0.64579129
0.119704 -0.3187826 0.65120322
0.086563863 -0.35815099 0.69105369
0.052744601 -0.4059436 0.73277253
0.03350997 -0.45000699 0.75816852
0.110708 -0.51238662 0.66643298
-0.022361901 -0.2280857 0.71386153
0.045451399 -0.2436408 0.76600671
0.036557321 -0.38818821 0.75534081
0.043884192 -0.38809729 0.763147
0.044132501 -0.32127181 0.74787599
0.04439998 -0.30753589 0.74862778
0.03989917 -0.29665679 0.75430518
0.092412323 -0.43035671 0.69249493
0.0613341 -0.4097386 0.72745389
-0.0049372022 -0.22730491 0.53671128
0.081336379 -0.22767989 0.6955505
0.071249068 -0.52007502 0.71457553
0.038573831 -0.39931041 0.74419463
0.061360121 -0.36614299 0.72585791
0.05593789 -0.44017479 0.73557192
0.04846251 -0.373669 0.75394768
0.05548206 -0.2861751 0.73621953
0.1523601 -0.44422629 0.60725069
0.06234771 -0.5257836 0.73403567
0.04581159 -0.50520241 0.74895442
0.1560033 -0.53726 0.60176432
0.15673681 -0.28423601 0.61158037
0.031594429 -0.2415264 0.75619853
0.075582653 -0.2209224 0.63267517
0.1222931 -0.49355999 0.65540701
0.1164787 -0.37588331 0.65839791
0.080500931 -0.29081631 0.70244288
0.077412777 -0.51060712 0.71477288
0.096069902 -0.52411538 0.67617577
0.1522575 -0.3624309 0.60218608
0.055925101 -0.2867707 0.73508
0.1730184 -0.3509106 0.58309388
0.041143421 -0.33910611 0.75664508
0.1324833 -0.26371449 0.63657087
0.066853523 -0.51991218 0.73684382
0.1572829 -0.42766669 0.59197122
0.1274973 -0.35474291 0.64020342
0.114276 -0.4741089 0.66298401
0.1524858 -0.35615301 0.58766502
-0.0042092502 -0.2341135 0.54834002
0.0094538033 -0.2312461 0.71049029
0.085207611 -0.2249576 0.64771521
0.04398784 -0.2351224 0.74841529
0.08400631 -0.44922751 0.70237511
0.087987691 -0.22812261 0.65561903
0.06522873 -0.2264114 0.63904792
0.056775659 -0.2263606 0.5974288
0.1429271 -0.284695 0.62353712
0.077576913 -0.47138029 0.7073459
-0.084015131 -0.53925753 0.69259191
0.07478103 -0.30350471 0.70758963
0.097680658 -0.4442701 0.68487102
0.139806 -0.49579379 0.63150138
0.163652 -0.44092119 0.58218592
0.2439208 -0.51782668 0.23228429
0.29561511 -0.40043941 0.2897296
0.2342788 -0.53135568 0.2351751
0.1531675 -0.4573068 0.60549849
0.06185421 -0.39819291 0.72519523
0.26231661 -0.52605373 0.3410984
-0.041402072 -0.49369079 0.72221988
0.01297662 -0.52037942 0.76118767
-0.053098351 -0.23342299 0.6882143
0.029709579 -0.44880331 0.77095997
0.02278671 -0.2274096 0.64979798
0.03553417 -0.3799344 0.76142049
0.027207971 -0.50985372 0.75859421
0.056932569 -0.227823 0.71218562
0.03338981 -0.32073641 0.76082361
-0.024479991 -0.25657779 0.71176451
0.01315784 -0.2300874 0.71637672
0.0050239558 -0.232287 0.73849928
-0.1136793 -0.30958539 0.6512242
-0.033117179 -0.47060931 0.71734208
0.04235274 -0.3024841 0.76299661
-0.0082553634 -0.45264831 0.73398829
0.034699678 -0.2860823 0.75936651
0.02879983 -0.33858749 0.75665492
-0.0059255362 -0.43073961 0.73417538
3.4570689e-06 -0.51915532 0.74399239
-0.057053629 -0.50466049 0.69976687
0.02658665 -0.45310429 0.75795293
-0.0160532 -0.23097821 0.70675957
-0.034605619 -0.23850361 0.7032128
0.0051723719 -0.4314737 0.74481398
-0.03215909 -0.44713619 0.71511662
0.0054887529 -0.30630979 0.73746753
0.0095015764 -0.24186429 0.73879999
-0.01426911 -0.33144629 0.72673202
0.0070647602 -0.33233151 0.73881292
-0.01013559 -0.40305161 0.7446897
0.0097890496 -0.2309397 0.69688988
0.040008839 -0.39080349 0.76128632
-0.02890569 -0.27174899 0.70902818
-0.02283746 -0.28800419 0.71479368
0.018832561 -0.48268339 0.75319958
0.041746799 -0.40007249 0.76483399
-0.020798679 -0.36956781 0.722085
-0.1215941 -0.30134481 0.64366561
0.030961329 -0.36466649 0.75803238
0.052389499 -0.52663529 0.77673692
-0.1034526 -0.2534135 0.65462548
-0.1169927 -0.3425937 0.64756292
-0.02373701 -0.45486501 0.72593778
-0.01633477 -0.4011856 0.72664881
0.095915318 -0.2285661 0.55224669
0.043750111 -0.30019441 0.76411241
0.01597512 -0.28804961 0.73573607
0.01091558 -0.3983072 0.74449039
-0.0289982 -0.25694209 0.70327061
0.036030531 -0.48413491 0.76203722
0.039341152 -0.23318259 0.76158988
0.041270319 -0.43089259 0.76378548
-0.02362895 -0.48049629 0.72500873
-0.03805631 -0.43421111 0.70976251
-0.079075098 -0.54957861 0.70635122
-0.0075733662 -0.39822799 0.73573661
-0.0090731978 -0.3100948 0.729339
0.02305555 -0.50364143 0.75578338
0.039638098 -0.52919823 0.99676043
-0.0093388557 -0.2987093 0.72280031
-0.01395035 -0.23199341 0.63136292
0.065966897 -0.23089831 0.63990122
0.055883769 -0.2273104 0.71487188
0.04509753 -0.37211049 0.77835298
0.02822018 -0.404511 0.75812721
-0.098127313 -0.52882117 0.66460741
-0.1101995 -0.2489267 0.64298469
0.093556583 -0.53414792 1.017691
-0.0071303248 -0.2355077 0.69192129
-0.1099334 -0.2633315 0.65083629
0.01962107 -0.53258222 0.98290408
-0.1232431 -0.2445188 0.64112568
-0.078720629 -0.2328869 0.6348542
-0.03247935 -0.2268002 0.56778938
-0.01246321 -0.2310686 0.6802249
-0.12599111 -0.2346081 0.63690197
0.03423417 -0.23100901 0.65772319
-0.049644951 -0.22972471 0.55189192
0.047724601 -0.2316079 0.51382607
0.008148253 -0.2272266 0.58417708
-0.00071054703 -0.22695599 0.63078552
0.0041666031 -0.23289099 0.5280962
-0.1151872 -0.24407791 0.64350289
-0.1178563 -0.2567499 0.64383012
-0.1208727 -0.40487349 0.64552492
-0.066496491 -0.52387953 0.69429088
-0.094737887 -0.51917827 0.66976231
0.055943429 -0.22663429 0.7456311
0.020182731 -0.2487376 0.75087702
0.037226919 -0.32943311 0.76664281
0.01468134 -0.32321319 0.75042152
-0.095007837 -0.51405221 0.66993731
-0.1143659 -0.2725257 0.64943528
-0.1145954 -0.2373545 0.64788443
-0.0098839998 -0.2353182 0.52187461
-0.07300204 -0.2286216 0.57068539
-0.1134709 -0.5395577 0.82066661
-0.0096820965 -0.22728419 0.49432781
-0.009834528 -0.2288949 0.71682823
0.02186143 -0.2325184 0.60661638
-0.1369721 -0.46599701 0.64812928
-0.125439 -0.25871611 0.63808417
-0.033023 -0.47362101 0.71575397
-0.1276722 -0.2610797 0.63415599
-0.01798874 -0.4121803 0.72417212
-0.080161631 -0.47430781 0.64752758
-0.1811969 -0.53713769 0.72365862
0.1727428 -0.47800031 0.2325158
-0.13243 -0.51728243 0.6282171
-0.076150946 -0.53037149 0.91313308
0.055444781 -0.2210459 0.50786352
0.006167829 -0.53003609 0.9682284
-0.1012565 -0.2325412 0.63903689
-0.03796893 -0.52725631 0.49119481
0.046553731 -0.54021829 0.98009461
0.2486846 -0.52844107 0.80296367
-0.1107358 -0.2268403 0.60762489
0.076776743 -0.22798429 0.62089813
-0.01602119 -0.2332705 0.64469302
0.02553409 -0.2358164 0.70230788
0.09486568 -0.2279655 0.68129528
-0.0051322579 -0.2260474 0.5551644
-0.052911099 -0.2294884 0.57941443
-0.1182638 -0.46047539 0.60297507
-0.1135766 -0.35345241 0.60593641
-0.101387 -0.45749369 0.65799379
0.0089762807 -0.3998954 0.74756128
0.03064674 -0.41726169 0.75511217
-0.093038797 -0.35331181 0.5650838
0.02462 -0.25581279 0.75832272
0.095565498 -0.2272125 0.67655891
-0.017319979 -0.2263363 0.61819309
-0.084969103 -0.29075259 0.56702089
0.041216671 -0.2262973 0.70065391
-0.08871752 -0.2439568 0.57295269
0.2285862 -0.53053671 0.2189462
0.028132319 -0.2268161 0.63787073
-0.068694353 -0.5177384 0.53016871
-0.049638629 -0.48135811 0.51158869
0.002674818 -0.23052961 0.57349068
-0.01766127 -0.231215 0.60261917
-0.022209169 -0.45073181 0.72487402
-0.1207789 -0.28632659 0.61540312
0.020114601 -0.2245259 0.60419422
-0.1303698 -0.53375661 0.62469822
-0.055663291 -0.53365731 0.9152081
0.02143538 -0.2276675 0.47688749
-0.081555493 -0.25720069 0.67374879
-0.068893731 -0.2309045 0.65559912
0.054773241 -0.229118 0.63831979
-0.022362851 -0.29295859 0.48516709
-0.01951468 -0.24083769 0.49447531
0.1025681 -0.2278014 0.66536969
-0.048051629 -0.27404171 0.51718098
0.14460041 -0.22971819 0.59678191
0.119771 -0.22893199 0.64341938
-0.09322875 -0.2447059 0.57676172
-0.05557606 -0.32001111 0.52864212
-0.01058386 -0.23124319 0.50328529
0.04844081 -0.22976419 0.67654419
-0.051298361 -0.3221496 0.51819241
0.082356542 -0.2324625 0.63598919
0.13609751 -0.2307055 0.62310803
-0.066687942 -0.2892693 0.54280591
-0.082012877 -0.28055799 0.58907461
0.1502616 -0.2324069 0.61160147
-0.01795329 -0.23319399 0.50357032
-0.034324091 -0.29761341 0.50908148
-0.029702481 -0.3400878 0.4931502
-0.040308449 -0.25832561 0.5092175
-0.094409369 -0.31809929 0.59789538
0.1127102 -0.2282754 0.65602279
0.1206537 -0.22548801 0.63342899
-0.03107986 -0.34515539 0.49017009
-0.037327949 -0.29843929 0.5151273
-0.1029506 -0.32331339 0.59831017
-0.057717841 -0.31955519 0.53949672
-0.080054551 -0.30881631 0.56438547
-0.069131963 -0.2818414 0.54746312
-0.02706374 -0.4002223 0.48778471
-0.026993331 -0.3674472 0.49258411
-0.02648695 -0.48196071 0.48549151
0.032689258 -0.23617271 0.53919381
-0.02232419 -0.35342899 0.47882131
-0.01283659 -0.34967029 0.46618539
-0.04340196 -0.47352949 0.50563478
-0.01146284 -0.3954469 0.47712889
-0.023578599 -0.4965308 0.48052731
0.1017449 -0.2327496 0.5958553
-0.031526521 -0.25751141 0.49854311
-0.0097093433 -0.4564057 0.48518741
-0.030657141 -0.43122569 0.49337071
0.099802911 -0.2319552 0.56085187
-0.01723117 -0.3771174 0.4832384
-0.0066207498 -0.28347999 0.48015171
-0.0160712 -0.25160581 0.47525629
-0.053008091 -0.51459533 0.51585817
0.1158461 -0.23592439 0.58158022
0.023646951 -0.22879919 0.57313782
0.0099476427 -0.23130859 0.50668442
-0.02440181 -0.33720559 0.48734969
-0.038420498 -0.33850491 0.50335509
-0.01345716 -0.34959951 0.48073271
0.084514543 -0.2287107 0.60342109
-0.00059774518 -0.2248615 0.55136472
-0.02201687 -0.2470516 0.48366109
-0.045329101 -0.36523899 0.51289493
-0.056786969 -0.23161811 0.56335402
0.02243327 -0.2331824 0.53296638
-0.077474311 -0.27069941 0.5661425
-0.01503047 -0.311589 0.46846819
-0.03807516 -0.426909 0.50942242
0.027252089 -0.2293777 0.56363142
-0.069165774 -0.30352169 0.55522692
-0.0115753 -0.43827951 0.4734093
-0.047905792 -0.26187971 0.51733887
-0.02129175 -0.34064469 0.48170671
-0.064001963 -0.36167371 0.54353708
-0.1005185 -0.27878049 0.59099132
-0.1334715 -0.41505659 0.63550991
-0.1177044 -0.3152765 0.61020029
-0.13895141 -0.38819671 0.65123069
-0.093485892 -0.2603634 0.58160907
-0.015642241 -0.26193199 0.4690721
0.01929331 -0.2435407 0.50497103
-0.05885582 -0.2444468 0.54389572
-0.1001988 -0.241384 0.59514511
-0.0071089421 -0.3923544 0.46472061
-0.132572 -0.27621561 0.63456541
-0.095209166 -0.3375217 0.58491731
-0.1262399 -0.29144329 0.62407839
-0.1072409 -0.2582829 0.59637129
-0.1072264 -0.2664828 0.59713632
-0.067605972 -0.27404621 0.54829103
0.04348499 -0.2330049 0.51110488
-0.050630242 -0.4637422 0.52487057
-0.04284345 -0.26927561 0.51740748
-0.01129551 -0.31808829 0.4734731
-0.01065624 -0.3327463 0.46815559
-0.025276201 -0.51625383 0.47909179
0.052907988 -0.2340485 0.62906522
-0.01184636 -0.41480011 0.47513711
-0.0054019392 -0.2380579 0.4707354
-0.0087164789 -0.3377125 0.4655534
-0.041786861 -0.2569696 0.51126039
0.1207057 -0.3366186 0.55035061
-0.005384028 -0.29742029 0.465123
-0.01157112 -0.2496538 0.47407171
-0.028695401 -0.50968289 0.4858807
0.1082776 -0.23112249 0.61271948
0.063798591 -0.2231444 0.53978539
0.0022111009 -0.24062011 0.46588191
-0.01290492 -0.51065212 0.48118639
0.105481 -0.4157702 0.55474442
-0.030487839 -0.2185722 0.58150738
0.071428962 -0.26687959 0.52652282
0.1336581 -0.30872911 0.5714525
0.042127602 -0.4021385 0.50603658
0.06029522 -0.46401331 0.52535123
0.016267169 -0.3381888 0.4849216
0.02400792 -0.2197935 0.53139532
0.0007058233 -0.48847201 0.48400471
-0.020214779 -0.4177942 0.4759475
0.13130111 -0.2403923 0.57150167
0.085487157 -0.3110052 0.52542073
0.0021255759 -0.21626429 0.54883611
0.01236184 -0.28803691 0.47445801
0.01475533 -0.23286749 0.4798176
0.092955917 -0.3537561 0.5440501
0.022273621 -0.2347658 0.5015884
-0.075537346 -0.26241499 0.57610208
-0.01428168 -0.33639279 0.47326249
-0.1159526 -0.40468621 0.60589582
-0.1298449 -0.341445 0.63356262
-0.083188877 -0.50106841 0.55286229
0.02822507 -0.2199146 0.57300532
-0.005029202 -0.2243188 0.50835669
-0.01087751 -0.38254529 0.47557089
-0.1109118 -0.29834899 0.61019999
0.068239547 -0.22175001 0.61287272
0.060465101 -0.29157111 0.51592869
-0.023119351 -0.21700279 0.61285472
-0.045654401 -0.25035349 0.52237648
-0.065416098 -0.29186001 0.55349469
-0.1002542 -0.3144531 0.60407817
-0.07742957 -0.30003059 0.56638318
-0.078076772 -0.27061379 0.57190448
-0.1299464 -0.434221 0.62591118
0.125388 -0.51139128 0.58946937
-0.059336752 -0.2289342 0.54680431
0.1028295 -0.2253266 0.55582893
0.03121661 -0.2166837 0.62511653
-0.01652897 -0.3676872 0.47999549
-0.023502979 -0.52560681 0.48826921
0.066213854 -0.3597042 0.53159583
-0.1084595 -0.4882783 0.60633051
-0.050647199 -0.43787429 0.52023429
-0.01692846 -0.2333339 0.49156919
-0.03953271 -0.32926399 0.51381779
-0.1452391 -0.51483649 0.64563692
0.16281921 -0.3885721 0.60149062
-0.1239745 -0.50486958 0.6091305
-0.091743156 -0.25423089 0.59553522
0.03282607 -0.3031877 0.50242603
-0.0786492 -0.3887451 0.56546873
-0.1406665 -0.42121789 0.64225131
-0.1512796 -0.4838967 0.65293062
0.1359881 -0.25316679 0.56812429
-0.1359341 -0.31221321 0.64674562
-0.01891291 -0.21988019 0.6762321
-0.02680286 -0.32623219 0.49645409
0.1295553 -0.22182681 0.58309102
-0.01649202 -0.3670797 0.48245329
-0.01296479 -0.30509141 0.48932189
-0.090775758 -0.27828991 0.59038877
-0.1254231 -0.29916751 0.63111728
0.1391084 -0.23490331 0.57969809
-0.022528229 -0.34997621 0.49887511
-0.060248751 -0.50439352 0.53523779
-0.066741377 -0.27801439 0.5561868
-0.056342199 -0.39888319 0.53031361
-0.1055947 -0.44609311 0.6016317
-0.09748362 -0.3258155 0.59622002
0.090624399 -0.50959551 0.55703127
0.02134129 -0.263805 0.49380931
0.1113205 -0.2266975 0.60823512
-0.031755898 -0.4754419 0.50509739
-0.0041996692 -0.41068801 0.48253071
0.1017102 -0.38779899 0.55969328
-0.098467201 -0.42861351 0.59438539
-0.037165809 -0.25100279 0.51330882
-0.1320632 -0.28153661 0.64836192
-0.1086771 -0.2437031 0.60554039
-0.046980109 -0.2926591 0.53915292
-0.039080359 -0.52473122 0.53217149
-0.01371722 -0.43748149 0.4884716
-0.100708 -0.40213531 0.60030562
0.077074848 -0.4687213 0.54880011
0.0099736154 -0.42532071 0.49316919
0.073974319 -0.2142047 0.71922541
0.1730486 -0.30906051 0.61672717
-0.00031714889 -0.30759609 0.48524979
-0.0132218 -0.3261157 0.48533869
-0.09486419 -0.50329822 0.58583951
0.094358511 -0.26088321 0.55620998
0.041920342 -0.37831929 0.50974101
-0.062343258 -0.2209149 0.69326347
-0.089654133 -0.2222895 0.67074043
-0.1711369 -0.50655419 1.292496
-0.1803019 -0.464414 1.207195
-0.18837459 -0.48690641 1.233104
-0.01181225 -0.27568021 0.48644611
-0.072510608 -0.2165 0.57964522
-0.28693351 -0.47530651 1.132459
-0.30145821 -0.48582569 1.174067
-0.38743511 -0.60273242 1.3844661
-0.089874618 -0.32020429 0.58898592
-0.051954921 -0.35642859 0.53630221
0.041144282 -0.50963712 0.51847029
0.0099835396 -0.2237584 0.63613212
-0.003505826 -0.52405918 0.48956111
-0.020850319 -0.219089 0.66928828
-0.1007821 -0.43091401 0.59233183
-0.13067929 -0.4310199 0.62003207
-0.05559935 -0.2190744 0.57018781
-0.1318258 -0.34102651 0.62868619
-0.068055943 -0.2737051 0.54982042
-0.1000222 -0.4746764 0.57601619
-0.0940869 -0.30667269 0.59208572
-0.098490641 -0.35219139 0.58288008
-0.13405059 -0.2778804 0.63698202
-0.09747719 -0.47239119 0.57570428
-0.1296946 -0.2181354 0.64717442
-0.13547771 -0.48733711 0.61995769
-0.080027118 -0.27454141 0.57588851
-0.1124778 -0.30063 0.60817111
-0.13479771 -0.4128069 0.64687449
-0.1323076 -0.2207339 0.66072428
-0.078576989 -0.3021211 0.56949753
-0.1026983 -0.32271141 0.61582989
-0.1091089 -0.486812 0.60079849
-0.1067676 -0.42495611 0.6075598
0.083350293 -0.230718 0.6583246
0.1255473 -0.2248874 0.57857072
-0.0053917239 -0.2201221 0.50419807
-0.0025837419 -0.22224461 0.51894939
-0.018200731 -0.2341788 0.49211591
0.02213092 -0.2245771 0.54546738
-0.033196062 -0.2864497 0.50068402
-0.03771105 -0.47160611 0.49785489
