# .PCD v0.7 - Point Cloud Data file format
VERSION 0.7
FIELDS x y z normal_x normal_y normal_z curvature
SIZE 4 4 4 4 4 4 4
TYPE F F F F F F F
COUNT 1 1 1 1 1 1 1
WIDTH 581
HEIGHT 1
VIEWPOINT 0 0 0 1 0 0 0
POINTS 581
DATA ascii
0.0061945152 -0.53129053 0.75791705 -0.42740658 -0.033817332 0.90342683 0.060650654
-0.0043001445 -0.2360802 0.53922617 -0.2691437 0.92249584 -0.27670053 0.067322426
0.013801883 -0.50438684 0.76018608 -0.40687922 -0.061765045 0.9113915 0.068280399
0.040122174 -0.50728273 0.7825312 -0.18130578 -0.19255957 0.96439046 0.12505181
0.046359099 -0.37134632 0.78637046 -0.44319966 0.005779061 0.89640433 0.092498496
-0.089766853 -0.48976931 0.68420559 -0.74818337 0.0086905705 0.6634351 0.028769443
-0.040276714 -0.35784781 0.71847928 -0.57458502 0.032157447 0.81781298 0.00024676698
-0.049592946 -0.38750118 0.71424174 -0.58533567 0.013692232 0.81067544 0.00030202253
-0.025261819 -0.56032848 0.73763573 -0.56572843 0.069770887 0.82163453 0.0050793155
-0.028549144 -0.23668863 0.65429354 -0.14957592 0.97592258 0.15875205 0.022659067
-0.050948117 -0.37327117 0.71234757 -0.58600652 0.023588555 0.80996293 0.00035579246
0.030293889 -0.25150788 0.76506293 -0.34891227 0.51649016 0.78198349 0.11692543
-0.034003876 -0.55506366 0.72982979 -0.59506238 0.067242227 0.80086154 0.0025877443
-0.11539867 -0.31663594 0.65767235 -0.97434151 -0.018395239 0.22432175 0.070149593
-0.025699949 -0.30233973 0.7271927 -0.51871264 0.15543476 0.84070045 0.017767519
-0.10552786 -0.36111021 0.66915888 -0.89230019 0.064280361 0.44684291 0.057877395
-0.024967181 -0.35655716 0.73121548 -0.52328151 0.040665306 0.85118896 0.0044379802
-0.10551739 -0.40417671 0.67194909 -0.86910844 0.047645051 0.49232137 0.061451554
-0.017025981 -0.49966905 0.74283636 -0.51311463 0.0080353534 0.85828245 0.018046005
-0.10356104 -0.42476609 0.67314613 -0.8734259 0.0019409609 0.48695311 0.07318528
0.032860167 -0.51522863 0.77120489 -0.24512886 -0.16485849 0.95537084 0.11063889
-0.0002306602 -0.49799502 0.75195259 -0.4704676 -0.022241844 0.882137 0.036748134
-0.012716229 -0.38370866 0.74182189 -0.49730521 0.019895419 0.86734748 0.017692059
0.017996093 -0.25082499 0.75882328 -0.36542693 0.50971222 0.77888167 0.099929288
-0.0034008194 -0.52991015 0.75262356 -0.46098655 -0.01844066 0.8872155 0.044418901
-0.084314965 -0.39545056 0.68832934 -0.71203005 0.026912635 0.7016331 0.022027232
0.052427676 -0.48933786 0.78612012 -0.029099148 -0.17485942 0.98416328 0.11672172
-0.016960612 -0.25394312 0.72581488 -0.4522168 0.56110835 0.69329458 0.070843577
-0.019995648 -0.37676778 0.73440433 -0.50811905 0.028533053 0.86081409 0.0085804621
0.043564081 -0.37682247 0.77652609 -0.42375112 0.013700119 0.90567505 0.076165907
-0.027633525 -0.41875669 0.73123813 -0.53646916 0.026642783 0.84349918 0.0038778454
0.0076766983 -0.38662207 0.75139314 -0.44194913 0.025776604 0.89666975 0.045510184
-0.094505392 -0.24373597 0.6520012 -0.61136502 0.766702 0.1959614 0.12155008
0.060193952 -0.40174556 0.79478621 -0.52957147 0.090298727 0.84344542 0.11353885
0.032437649 -0.30444619 0.76024085 -0.43580806 0.12065151 0.89191622 0.060480062
0.012850364 -0.37593439 0.75586361 -0.44468397 0.031057514 0.89514893 0.044511944
-0.066322893 -0.26671752 0.69470978 -0.51660645 0.49365681 0.69958603 0.04492601
-0.023145173 -0.2428976 0.70676363 -0.37322378 0.81243455 0.44794428 0.075966433
-0.022031182 -0.43832088 0.7340138 -0.51770979 0.031491511 0.85497653 0.0109272
0.052042145 -0.45482084 0.78711009 -0.43179935 -0.014958661 0.90184569 0.076452799
-0.094508484 -0.4032329 0.6806609 -0.78585315 0.059583854 0.61553609 0.042253055
-0.09140446 -0.41043058 0.6830619 -0.75712681 0.024144748 0.6528216 0.037216924
-0.1161252 -0.24883676 0.64652908 -0.83369905 0.54855418 0.063514665 0.13473928
-0.12363306 -0.48854414 0.65476072 -0.96299452 -0.022231244 0.26860249 0.063680068
-0.045000456 -0.31183082 0.71373904 -0.57141322 0.098505892 0.81472915 0.0032417504
0.044855416 -0.23454745 0.67397869 -0.02446579 0.99737126 0.068206087 0.0060604801
0.0019924638 -0.47330892 0.75362551 -0.47557545 -0.0026234097 0.87967104 0.032777648
0.030220745 -0.24315827 0.76143575 -0.29965267 0.61929518 0.72572839 0.11386364
0.035169147 -0.32549816 0.76266003 -0.43871656 0.030386955 0.89811152 0.071499795
0.10151271 -0.23370676 0.61981189 0.11499945 0.99167222 -0.057976108 0.044948217
0.092497244 -0.23258652 0.64245385 0.092362069 0.99560755 -0.015324415 0.035620503
0.014950437 -0.23462839 0.54385358 -0.066282131 0.97337103 -0.21944372 0.047101315
0.16023019 -0.23779687 0.60486162 0.18584049 0.98159432 -0.043998048 0.10756277
-0.040248547 -0.32292911 0.52332276 -0.78109074 0.044741955 -0.62281269 0.012669825
0.034921099 -0.23741436 0.7287268 -0.14235605 0.87066233 0.47083092 0.097374246
0.13262193 -0.2372842 0.59166849 0.17194258 0.98174393 -0.081331074 0.080704011
0.1274723 -0.23975798 0.65153503 0.24271722 0.96909124 0.044165272 0.068493858
0.12758179 -0.23614794 0.67357993 0.29039145 0.9520148 0.096646436 0.070302948
-0.027981579 -0.24731317 0.51723307 -0.54670483 0.66173744 -0.51304704 0.091666058
-0.0093460307 -0.23606598 0.53080601 -0.30567029 0.88496184 -0.35129514 0.084885873
0.024598677 -0.2361802 0.52010006 -0.054501481 0.91667628 -0.3958967 0.085791267
0.12115671 -0.23502205 0.59808254 0.15904725 0.98402792 -0.079956234 0.058580112
0.16142927 -0.2397887 0.62111473 0.3240037 0.94547182 0.0332358 0.13051824
-0.043208938 -0.28402048 0.52272522 -0.7592091 0.23920162 -0.60529667 0.037209593
0.024369888 -0.23442574 0.6039322 -0.012643075 0.99991614 -0.0028001803 0.0007428407
0.14300774 -0.23837252 0.62957925 0.24646488 0.96911597 -0.0083251009 0.088295467
0.1090887 -0.2442494 0.56165403 0.12909925 0.9874661 -0.090797387 0.03650222
0.078531615 -0.23703605 0.57538486 0.085317656 0.99367982 -0.072946079 0.015673758
-0.037988827 -0.46174896 0.51463616 -0.74898636 0.03314482 -0.66175592 0.0050957995
0.0011474852 -0.239804 0.50294304 -0.19732912 0.7880258 -0.58316088 0.11173926
-0.032931872 -0.27194211 0.51531368 -0.70680493 0.3832559 -0.59459376 0.066302776
-0.033551108 -0.30900344 0.51317322 -0.76404119 0.099417344 -0.6374616 0.015162984
-0.0055048461 -0.48034596 0.48098114 -0.70577687 0.0053009978 -0.70841438 0.0025808387
-7.4797322e-06 -0.33757928 0.47724968 -0.72498167 0.073320426 -0.68485445 0.02253959
0.076963015 -0.23443161 0.60115921 0.086268626 0.99477226 -0.054642569 0.020571856
-0.035460833 -0.34472099 0.51288897 -0.77549386 0.052113093 -0.6292007 0.014841667
-0.032316841 -0.23366012 0.56045473 -0.37249207 0.90229303 -0.21706465 0.052915178
0.068760611 -0.231739 0.65601587 0.038910508 0.99905461 0.019387303 0.018968046
-0.009194551 -0.23662722 0.67870998 -0.20128383 0.95623535 0.21236481 0.038278971
-0.0024693101 -0.24018507 0.51104146 -0.26126456 0.80719757 -0.52931362 0.10690849
-0.030267488 -0.30849159 0.50793493 -0.76069295 0.10893477 -0.63990587 0.01702901
-0.097962685 -0.33767968 0.60512722 -0.90435177 -0.003200287 -0.42677575 0.028019769
-0.0056276768 -0.23909797 0.51474619 -0.31145042 0.80755961 -0.50084531 0.10038012
-0.017051805 -0.34848258 0.48982882 -0.75058544 0.05936569 -0.65810126 0.019292042
-0.003495336 -0.29998919 0.47752392 -0.6868273 0.1317618 -0.71477759 0.025603961
-0.019095607 -0.41597986 0.4929485 -0.7562815 -0.013116631 -0.65411478 0.0016383849
-0.041469932 -0.33004561 0.52454305 -0.78269827 0.044278979 -0.6208244 0.013406363
-0.022678552 -0.49537981 0.49500662 -0.69485116 0.020459184 -0.71886247 0.0024356025
-0.024099471 -0.3599937 0.49674594 -0.76666689 0.050166477 -0.64008218 0.016689695
-0.083129063 -0.3250654 0.58663398 -0.83234012 0.0079142759 -0.55420882 0.0038974376
-0.060301084 -0.30250758 0.55223984 -0.80679452 0.09693674 -0.58282578 0.0089677023
-0.065522745 -0.34220779 0.56354493 -0.81480509 -0.0083007254 -0.5796755 0.0010018733
-0.01762617 -0.34765664 0.49056697 -0.75645059 0.059535462 -0.65133554 0.019129204
-0.07631845 -0.27908528 0.57185042 -0.79021978 0.23602529 -0.56554806 0.033021789
-0.10603368 -0.32125646 0.61255163 -0.92141438 0.00058930088 -0.38858104 0.028668579
-0.087444387 -0.35786766 0.59210289 -0.84972507 0.0014927274 -0.52722389 0.0097257467
-0.11114636 -0.25258765 0.63576007 -0.83871788 0.52384651 -0.14878574 0.12746385
-0.019751357 -0.43873271 0.49525616 -0.73855817 -0.012227042 -0.67407888 0.0022628442
-0.095759861 -0.34824207 0.60306734 -0.8958323 0.0086902399 -0.44430724 0.022749677
-0.077860579 -0.29511639 0.5754391 -0.80258548 0.16556354 -0.5731014 0.023126498
-0.044087421 -0.52213407 0.51742297 -0.69206381 0.045053411 -0.72042894 0.0042911666
-0.019599751 -0.50983655 0.49014574 -0.68918705 0.029562473 -0.72398019 0.0026258489
-0.076451637 -0.29059789 0.57279736 -0.8009674 0.18748398 -0.56859559 0.029050566
-0.068519652 -0.31605476 0.56556827 -0.81540185 0.022308836 -0.57846522 0.0018396096
-0.029023807 -0.34159225 0.50451952 -0.7720058 0.052759256 -0.63342202 0.015091128
-0.045471173 -0.23749791 0.65226853 -0.2246505 0.95989013 0.16775879 0.031591177
-0.068095446 -0.32933307 0.56749022 -0.8156423 0.00072266819 -0.57855606 0.0010263209
-0.034419835 -0.23638643 0.64911884 -0.1592712 0.9779675 0.13495263 0.019875346
-0.014924985 -0.29941174 0.49405849 -0.7299512 0.16344111 -0.66367024 0.030150412
-0.0049626529 -0.45020765 0.48066747 -0.71244508 -0.0024014583 -0.70172375 0.0023844284
-0.045544159 -0.47571805 0.52039391 -0.76158994 0.051640645 -0.64599848 0.0046962062
-0.011349436 -0.39236674 0.48252481 -0.74713653 0.00031194644 -0.66467047 0.005804114
-0.062273405 -0.31545576 0.55903393 -0.81807005 0.01863832 -0.57481647 0.0018395842
-0.047826309 -0.5244258 0.51927072 -0.69534463 0.044667646 -0.71728694 0.0044100001
-0.093360834 -0.37970677 0.59030324 -0.8481707 0.025831206 -0.52909285 0.0075283386
-0.059480563 -0.28620645 0.54642963 -0.77366775 0.22220892 -0.59334749 0.02661787
-0.01168092 -0.25704208 0.49529079 -0.5429467 0.53974897 -0.64333504 0.11000441
0.052355319 -0.23697747 0.70449173 -0.026813367 0.97538644 0.21886612 0.044796966
0.13135143 -0.23739637 0.59399724 0.17183776 0.98163414 -0.082862198 0.076654203
0.11457858 -0.23578759 0.60990185 0.15996841 0.98523712 -0.060973775 0.061416563
0.14115191 -0.23767902 0.62369037 0.24119976 0.97039843 -0.012229859 0.083274059
-0.029447071 -0.52815992 0.50697196 -0.69242823 0.043798134 -0.72015613 0.0037475175
-0.011919097 -0.38087898 0.48475477 -0.75370538 0.013696252 -0.65706968 0.0060105203
-0.089177325 -0.38507047 0.58887351 -0.84265399 0.018070808 -0.5381521 0.0061637154
-0.003221293 -0.36399525 0.47226533 -0.70576423 0.052037284 -0.70653301 0.019082757
-0.098301888 -0.41945115 0.60122013 -0.9277494 0.034634203 -0.37159333 0.034038372
-0.013125414 -0.36524627 0.4837395 -0.74501926 0.045771006 -0.66547084 0.017220445
-0.11832605 -0.26282835 0.64994979 -0.917772 0.36604899 0.15395677 0.1335704
-0.12076398 -0.40471753 0.63973391 -0.99923187 0.036834985 -0.013374093 0.05895672
-0.012753219 -0.30062282 0.48821387 -0.72348946 0.15061185 -0.67370546 0.027470455
-0.036028247 -0.49085653 0.51215112 -0.69921303 0.027844641 -0.71437097 0.0021993155
0.17247149 -0.24576055 0.59948748 0.22830653 0.9734959 0.013483174 0.13001256
-0.011484865 -0.34826279 0.48402846 -0.74443716 0.063113563 -0.66470295 0.020935649
-0.05550164 -0.28453171 0.54294026 -0.76585549 0.25664347 -0.58957571 0.032286905
-0.11857852 -0.24480262 0.64419067 -0.80792898 0.58884132 -0.022728773 0.13067545
-0.11967897 -0.25790608 0.65024626 -0.89172763 0.44634378 0.074826211 0.13642737
0.1160833 -0.23469757 0.65283877 0.20991968 0.97667968 0.045061667 0.060371622
-0.053511456 -0.23682354 0.57475293 -0.43079308 0.85949445 -0.27511212 0.058548942
0.066446908 -0.23705333 0.53556252 0.092293352 0.99058157 -0.10114407 0.013557907
0.046402991 -0.23501424 0.54994553 0.066658922 0.99377149 -0.089301556 0.013927297
0.026528388 -0.23442632 0.5429731 -0.0274121 0.97988951 -0.19764894 0.037082061
-0.054394059 -0.2391713 0.61629403 -0.29308942 0.94231296 -0.16169387 0.049704242
0.074168399 -0.24283974 0.53355378 0.13055569 0.96683842 -0.2194964 0.043029316
-0.091805838 -0.24079581 0.63665324 -0.54968888 0.83460891 -0.035637274 0.1117757
-0.12060362 -0.4283112 0.65516996 -0.98834223 0.016146898 0.1513899 0.068262227
-0.11967036 -0.41826174 0.65626228 -0.98344147 0.027914282 0.17906351 0.069460966
-0.11960898 -0.31754491 0.6446802 -0.99970043 -0.024245581 0.0033567722 0.06552007
-0.037724376 -0.37978515 0.51571167 -0.7996282 0.012755473 -0.60035986 0.0053592008
0.042544529 -0.23476721 0.57880336 0.054384261 0.99764585 -0.041775256 0.0084118824
-0.12098452 -0.41840583 0.64767873 -0.99659014 0.037303701 0.073596947 0.063688271
-0.080352858 -0.25776815 0.58642775 -0.71287203 0.47639355 -0.51464808 0.059190169
-0.12778178 -0.53668833 0.65845567 -0.92009014 -0.061764944 0.38680646 0.090542987
-0.059107672 -0.31912979 0.55416846 -0.81782246 0.0057518552 -0.57544196 0.0011671336
-0.0033737682 -0.4035418 0.47769493 -0.74913341 -0.013550799 -0.6622805 0.0030901169
0.0063723624 -0.25008044 0.48317766 -0.20243302 0.6314289 -0.74854428 0.12336771
-0.0037942673 -0.34308457 0.47728658 -0.72509986 0.073315077 -0.68473005 0.023764428
-0.032271605 -0.26380658 0.51954937 -0.69691569 0.43809706 -0.56778467 0.069053732
-0.0094965138 -0.36789048 0.47994667 -0.75344771 0.024337111 -0.65705717 0.0059493734
0.025701711 -0.2348336 0.57430196 0.035297427 0.99819773 -0.048531935 0.0098232543
-0.042736281 -0.23588586 0.61295497 -0.22507057 0.96579885 -0.12874672 0.035611425
0.11188444 -0.24223305 0.56112856 0.1274185 0.98777759 -0.089777008 0.038190529
0.060558628 -0.23472586 0.69387102 0.010334571 0.99107331 0.13291664 0.024235485
0.020026807 -0.23533948 0.58946788 -0.00054993859 0.99986404 -0.016481593 0.001595006
0.14691883 -0.23925899 0.62410617 0.2618016 0.9650864 -0.0082567148 0.09352266
-0.012482318 -0.23545441 0.65970409 -0.13107334 0.9794237 0.1534567 0.02184017
-0.059382856 -0.37775785 0.55161768 -0.8230592 0.017250884 -0.56769353 0.0011111461
-0.059641808 -0.38910732 0.5544892 -0.81970417 0.024234716 -0.57227427 0.0012709615
-0.0094748139 -0.24044669 0.70712739 -0.31888908 0.86589903 0.38539413 0.067584448
-0.090645209 -0.3581059 0.59838939 -0.88335717 0.021758463 -0.46819505 0.017169649
-0.0016107031 -0.27165085 0.4777298 -0.53154814 0.35017899 -0.77125299 0.093560867
-0.064364642 -0.24093036 0.5824995 -0.49475625 0.78427154 -0.37434515 0.062012255
-0.0083836969 -0.44022834 0.48349428 -0.73047429 -0.015852978 -0.68275619 0.0022440248
-0.10617374 -0.44016153 0.60956419 -0.95707422 0.057862274 -0.28400856 0.053171486
-0.10911828 -0.38594958 0.61471552 -0.97338957 0.028276699 -0.22740525 0.047869842
-0.11312626 -0.40915313 0.62167251 -0.98919803 0.029069591 -0.143674 0.055389818
-0.038333315 -0.26932636 0.52210814 -0.71201366 0.40457425 -0.57389557 0.062074959
-0.10040866 -0.34393585 0.60696763 -0.9142065 0.0012271603 -0.40524668 0.030773275
-0.10830893 -0.38089269 0.61709124 -0.97360647 0.02400001 -0.22696798 0.045504399
0.0013373794 -0.3083348 0.483197 -0.69787872 0.11198006 -0.70740777 0.022209046
-0.032215245 -0.44005519 0.50893337 -0.77028459 0.005448564 -0.63767695 0.0044063427
-0.040516425 -0.41656154 0.5195843 -0.79686791 -0.0086699827 -0.60409135 0.002867566
-0.072331935 -0.33272994 0.57256311 -0.8162843 0.00019588057 -0.57765025 0.0011980813
-0.079543978 -0.29947278 0.57945657 -0.81424457 0.12494822 -0.56691605 0.01586112
-0.051787052 -0.29031485 0.53784305 -0.77408564 0.21872407 -0.59409696 0.025087204
-0.02471712 -0.46608356 0.50170875 -0.71295106 0.0093329651 -0.70115167 0.0026858116
-0.053141546 -0.33311716 0.54187638 -0.81271887 -0.0003331812 -0.58265597 0.0020437783
-0.026885804 -0.32744265 0.50363111 -0.7660597 0.057961065 -0.64015085 0.015339765
-0.027753646 -0.35222363 0.5034439 -0.77457875 0.060634527 -0.6295644 0.016439784
-0.019426806 -0.52786475 0.4898743 -0.68743634 0.038211748 -0.72523868 0.0035749248
-0.0007463831 -0.25766101 0.48155034 -0.31890193 0.53087169 -0.78516036 0.12136476
-0.0047882153 -0.37053972 0.46926793 -0.72963381 0.02285802 -0.68345594 0.0060782228
0.0015591072 -0.46480399 0.47352216 -0.71055847 -0.0008461579 -0.7036376 0.002601715
0.0085287886 -0.26166311 0.47651026 -0.26494452 0.51553088 -0.81488168 0.11858709
0.0025625413 -0.42283049 0.47095272 -0.72908545 -0.032895014 -0.68363172 0.00098273868
-0.053828228 -0.3041732 0.541448 -0.804533 0.090030275 -0.58704454 0.0070458148
0.033217482 -0.23581606 0.59911555 0.0270872 0.99936634 -0.023090025 0.0066738455
-0.0080598649 -0.23304027 0.59481061 -0.080461375 0.99665445 -0.01434716 0.0047615445
0.091051422 -0.23188217 0.66248447 0.088006377 0.99579507 0.025433267 0.032451067
-0.024727611 -0.23431093 0.59157956 -0.24038856 0.96520948 -0.1028785 0.032733638
0.039081514 -0.23495881 0.57255238 0.05581807 0.9974001 -0.045577478 0.0084135188
-0.047217034 -0.38289586 0.53196192 -0.81844002 0.005095697 -0.5745694 0.00135736
-0.078938723 -0.34393889 0.58324605 -0.81921601 -0.0088910963 -0.57341611 0.0020538338
0.00222047 -0.26260033 0.47726285 -0.2933875 0.49245635 -0.81939644 0.11695506
-0.08483775 -0.24361037 0.61718374 -0.56731015 0.77934462 -0.26604733 0.090571441
-0.07876195 -0.24046284 0.62453824 -0.45863232 0.87423038 -0.15930323 0.084815577
-0.07237085 -0.24194551 0.60134435 -0.49954054 0.79185379 -0.35132167 0.078565665
-0.091646694 -0.24665859 0.61220646 -0.68382454 0.62037289 -0.38408524 0.092741303
-0.11589719 -0.24938248 0.6489231 -0.82578444 0.55410838 0.10508963 0.13547832
-0.090592422 -0.25104079 0.60661423 -0.69670606 0.57791507 -0.42498794 0.087444194
-0.11347233 -0.36066651 0.62699032 -0.98964036 0.006824926 -0.14340597 0.04533688
-0.096355304 -0.28999561 0.6010195 -0.86423534 0.16907384 -0.47382635 0.036706124
-0.12400457 -0.53792495 0.6491648 -0.94163179 -0.045366652 0.33357376 0.098567389
-0.11956781 -0.30190894 0.64192516 -0.99808323 0.061549943 -0.0064469143 0.075762928
-0.12160535 -0.43903568 0.64705539 -0.99584574 0.044278514 0.079564832 0.07606037
-0.11379161 -0.48425275 0.61871576 -0.96893394 0.019387744 -0.24655838 0.053151712
-0.088697545 -0.27934498 0.59104955 -0.80720478 0.26037127 -0.52974272 0.043700229
-0.12168528 -0.42937726 0.64761883 -0.99649894 0.038596831 0.074163087 0.071676239
-0.11475004 -0.52070719 0.61552948 -0.99595875 -0.0064444519 -0.089580543 0.088782154
-0.12439624 -0.47245482 0.64212698 -0.99930686 0.022822376 -0.029409908 0.069173537
-0.094493642 -0.47429699 0.59278017 -0.87716627 0.068314061 -0.47530264 0.015848974
-0.099203348 -0.51770669 0.59504128 -0.92560351 0.023595698 -0.37775829 0.043210402
-0.11604814 -0.33139551 0.63817877 -0.99155337 -0.018722516 -0.12834099 0.050719105
-0.11937236 -0.28775442 0.64938396 -0.98291099 0.11382539 0.14467144 0.096214354
-0.11955205 -0.43570757 0.63540941 -0.99774832 0.050952431 -0.043614127 0.074858993
-0.12200626 -0.54171574 0.65455759 -0.92937934 -0.05060349 0.36564088 0.0963891
-0.097484022 -0.44862515 0.59838378 -0.89868855 0.063997664 -0.43389294 0.021486357
-0.088672936 -0.27011153 0.59243846 -0.78488815 0.33325061 -0.52239317 0.054703671
-0.11110701 -0.35371691 0.62418735 -0.97696841 0.005001172 -0.21332528 0.046097513
-0.10166202 -0.2673094 0.60914266 -0.83821422 0.330001 -0.4341616 0.073905826
-0.10293061 -0.32522404 0.60971463 -0.91672194 -0.0029104715 -0.39951521 0.027888883
-0.12416498 -0.46220359 0.65385026 -0.98628128 0.038608514 0.16049507 0.066484287
-0.12116504 -0.4132624 0.64961469 -0.99688232 0.037641075 0.069344357 0.064936884
-0.12169448 -0.49343836 0.62821245 -0.99544132 -0.0018104697 -0.095358618 0.067249358
-0.10617435 -0.46791041 0.60785288 -0.94068778 0.049452133 -0.33565012 0.042741403
-0.1266032 -0.52322638 0.65413803 -0.94387782 -0.031136038 0.32882416 0.091054149
-0.12079363 -0.40629786 0.65388638 -0.98896801 0.011707904 0.14766608 0.069528408
-0.099959232 -0.26798433 0.60750216 -0.83553553 0.31211472 -0.45217794 0.070757046
-0.097732067 -0.48255029 0.59750885 -0.89744532 0.05852839 -0.43722561 0.023052983
-0.11735692 -0.29960749 0.63319093 -0.97806925 0.064853489 -0.19792545 0.067423083
-0.123335 -0.55391204 0.65200293 -0.91185075 -0.016586794 0.41018677 0.094225325
-0.10123567 -0.27638838 0.60760081 -0.86295581 0.22040142 -0.4546763 0.054226134
-0.097869053 -0.25995716 0.60986948 -0.79927021 0.42206231 -0.42782074 0.084480107
-0.095431536 -0.32470039 0.6017471 -0.88890433 0.00026012235 -0.45809278 0.019219076
-0.11859938 -0.34097248 0.64732736 -0.99974066 -0.0088982945 -0.020963218 0.052629385
-0.11952466 -0.29523131 0.65036595 -0.98891008 0.072079927 0.1298507 0.089477487
-0.088871546 -0.42752847 0.59165275 -0.8736828 0.033011228 -0.48537487 0.015633853
-0.11004573 -0.53687948 0.60345834 -0.95465565 -0.042069681 -0.29472461 0.053785279
-0.11617266 -0.31813189 0.65663821 -0.97674674 -0.023181172 0.21313962 0.069897592
-0.12002737 -0.48607665 0.62835228 -0.99273735 0.031484362 -0.11610897 0.064228736
-0.11357573 -0.34942141 0.63342243 -0.99317813 -0.0097761638 -0.11619685 0.046203367
-0.12397598 -0.47432792 0.65520298 -0.97812742 0.00019529607 0.20800665 0.063451476
-0.10533514 -0.35567495 0.61301368 -0.94289899 0.015123709 -0.33273521 0.038895197
-0.11906426 -0.28931183 0.64239967 -0.99536264 0.094587363 -0.017503494 0.09182968
0.085858032 -0.23379733 0.69851357 0.064653583 0.99075663 0.11925264 0.032036755
-0.087921768 -0.45601001 0.58507758 -0.84622264 0.059029516 -0.52954966 0.011483885
-0.061150089 -0.41784725 0.56561625 -0.81202108 0.046289742 -0.58178955 0.0016984073
-0.087211736 -0.25432026 0.59993035 -0.69483477 0.55829161 -0.45333782 0.080365486
-0.11826067 -0.3731347 0.64196509 -0.99789059 0.019544564 -0.061905589 0.043219563
-0.10848145 -0.27306974 0.61891943 -0.88393372 0.27718177 -0.37660524 0.080277056
-0.10621847 -0.50318182 0.60576302 -0.95745271 0.053128261 -0.28365779 0.055439599
-0.11893485 -0.27432975 0.64937192 -0.96139294 0.21749921 0.16857541 0.12248256
-0.11656352 -0.37636119 0.65880024 -0.96772909 0.039397903 0.2488941 0.062104836
0.0093504442 -0.23440225 0.62235254 -0.029600162 0.99943745 0.015769377 0.00065274216
-0.11905468 -0.27809864 0.65189809 -0.96392649 0.18508768 0.19128065 0.11386016
-0.073060289 -0.44088048 0.57320631 -0.81364751 0.063512877 -0.57787871 0.0017564071
0.12425979 -0.23766224 0.69787908 0.19486673 0.97032666 0.14315401 0.047355115
-0.023000544 -0.47319353 0.50052309 -0.70331961 0.0082250638 -0.71082628 0.0025191114
-0.1207682 -0.27121106 0.64838892 -0.96511179 0.23621665 0.11296452 0.12174053
0.057470266 -0.23120317 0.63294703 0.022066865 0.99936503 -0.027975099 0.01088786
-0.10991342 -0.25864735 0.62787759 -0.86332875 0.40974796 -0.29456744 0.10842822
0.012483091 -0.26224887 0.48036051 -0.15135176 0.53246868 -0.83280826 0.12063927
-0.016759047 -0.23372321 0.60215485 -0.14387012 0.98883641 -0.038781416 0.01506553
-0.12034899 -0.44503367 0.65613669 -0.99108523 0.035940085 0.12829037 0.070780449
-0.081788063 -0.43740526 0.58553708 -0.8398729 0.049294356 -0.54054004 0.01181711
-0.026474962 -0.46605703 0.50472957 -0.7127068 0.011958615 -0.70136011 0.0027929989
-0.12587692 -0.50450772 0.64790559 -0.98412687 -0.035672601 0.1738442 0.083063491
-0.11040852 -0.42499053 0.61808109 -0.98021531 0.046447124 -0.19240737 0.057552472
-0.048303522 -0.33519256 0.53449523 -0.80048817 0.012233795 -0.59922373 0.0043937662
-0.0005122227 -0.30077204 0.48113623 -0.68885076 0.14453946 -0.71034706 0.030070951
-0.12614219 -0.50844502 0.65538645 -0.95364112 -0.049353518 0.29687166 0.082707286
-0.097006805 -0.50212049 0.58998734 -0.88569719 0.064388044 -0.45977682 0.017209092
-0.074843161 -0.25503755 0.58034939 -0.69530451 0.50509274 -0.51130515 0.059827302
0.14719531 -0.25151831 0.571091 0.12727177 0.99142945 -0.029488914 0.1195799
0.0073233736 -0.31683174 0.48561272 -0.69949555 0.088538818 -0.709131 0.019921198
-0.0093645435 -0.34004226 0.48282152 -0.74079871 0.064458512 -0.6686272 0.020313898
-0.0074096327 -0.35562736 0.47769827 -0.72543353 0.063466191 -0.68536001 0.020914294
-0.10770271 -0.35863891 0.61613888 -0.96437377 0.016020872 -0.26405776 0.041309509
-0.10476986 -0.35041696 0.61162621 -0.92554396 0.021671746 -0.3780196 0.031156065
-0.11812065 -0.39872688 0.62998891 -0.99127877 0.057878528 -0.11839109 0.05079221
-0.12172335 -0.42081526 0.64680624 -0.99754417 0.045129791 0.05356288 0.067225792
0.0012921945 -0.44131115 0.47487885 -0.71594959 -0.021417296 -0.69782341 0.0018757815
-0.087864719 -0.43911314 0.58707261 -0.86272317 0.056584608 -0.50250059 0.014917837
0.0046989676 -0.45469183 0.47086081 -0.71070141 -0.0032221521 -0.70348638 0.0025399926
-0.12637869 -0.50970036 0.63416576 -0.99918866 -0.039906636 -0.0054372596 0.079596385
0.005798114 -0.43623611 0.47313419 -0.72378039 -0.02983788 -0.68938494 0.0013554441
0.0077662533 -0.29565388 0.46882689 -0.6696263 0.13327014 -0.73064339 0.028184934
-0.0031767432 -0.25299942 0.48358724 -0.27445379 0.60842955 -0.74463987 0.12396438
-0.00010748015 -0.24585177 0.48731875 -0.22875397 0.65418112 -0.72091514 0.12326778
0.0045791264 -0.26227987 0.47500333 -0.27364853 0.4939923 -0.82528061 0.11766446
-0.0034284419 -0.29990643 0.47658011 -0.6868273 0.1317618 -0.71477759 0.025603961
0.0054188003 -0.30259347 0.46868643 -0.67900419 0.11627912 -0.72486722 0.024874048
0.002808929 -0.49249721 0.47698933 -0.69537938 0.010508568 -0.71856594 0.0025772355
-0.12360685 -0.5365358 0.63347214 -0.9876591 -0.010294118 0.15628043 0.10320982
0.0046846261 -0.46760339 0.47404665 -0.70629984 -0.0011226548 -0.70791191 0.0026293991
-0.088482305 -0.33684406 0.59307116 -0.85401672 0.0033554358 -0.5202347 0.0092125777
-0.11869399 -0.37087131 0.64725929 -0.99977261 0.021288719 0.0012397453 0.041339908
0.0054380535 -0.27373114 0.47314373 -0.43600482 0.3388367 -0.83372033 0.087958038
-0.089151271 -0.3196294 0.59151274 -0.8529436 0.017703535 -0.52170277 0.0089837518
-0.096342631 -0.26940638 0.60215104 -0.82968509 0.29567313 -0.47349766 0.064203233
-0.084446222 -0.42330295 0.58573401 -0.84118491 0.046994973 -0.53870153 0.0052899723
-0.10558914 -0.40513399 0.61025238 -0.95908719 0.0464807 -0.27926919 0.043718435
0.034969892 -0.2350363 0.53305149 0.036962584 0.9695136 -0.24223354 0.042403452
-0.091887362 -0.26671723 0.59685326 -0.77704734 0.36674002 -0.51156551 0.062844828
-0.1164867 -0.29731554 0.62954783 -0.96198702 0.081169717 -0.26075375 0.058136541
-0.11255701 -0.32541499 0.62299609 -0.95102847 -0.016580518 -0.30865845 0.041336507
-0.00047324924 -0.29677343 0.47464103 -0.68016547 0.14716579 -0.71813458 0.031091927
-0.087092161 -0.24367549 0.59827369 -0.63806683 0.65000898 -0.41274562 0.077131383
0.059305102 -0.23817132 0.53761548 0.10469478 0.9784922 -0.17774159 0.035042614
-0.089635745 -0.28578374 0.59069222 -0.82823628 0.19145942 -0.52665734 0.032571606
-0.11350718 -0.28452566 0.62393463 -0.92520505 0.17094998 -0.33877981 0.067319795
-0.12006824 -0.51835728 0.62503904 -0.99985272 -0.014294255 0.0094996598 0.09206149
-0.11717097 -0.31420508 0.63252699 -0.97557092 0.016688349 -0.21904992 0.053010836
-0.12460556 -0.52298993 0.63337839 -0.99511564 -0.032141265 0.093337208 0.09813834
-0.12034832 -0.42012975 0.63445574 -0.9990899 0.039090943 -0.017066093 0.058188833
-0.10979221 -0.34471932 0.61981207 -0.95521933 -0.0061854636 -0.29583395 0.040136315
0.022560485 -0.23515745 0.65080625 -0.040024232 0.99875176 0.029883225 0.00091902912
0.0039845719 -0.25096977 0.4811781 -0.25825343 0.61879104 -0.74189138 0.12305829
-0.11882855 -0.28442267 0.63469774 -0.97231156 0.12992306 -0.19424284 0.081122942
0.16536021 -0.23893805 0.6007691 0.23773544 0.97127903 -0.0099421171 0.11348648
0.10958588 -0.2436568 0.56210905 0.12917376 0.98734778 -0.091970742 0.037200142
0.15766698 -0.23754305 0.60828418 0.19210181 0.98015887 -0.048840884 0.099898197
-0.021732919 -0.24724628 0.50629741 -0.54751629 0.61680752 -0.56548607 0.099805281
-0.11674201 -0.42606774 0.62838107 -0.9953984 0.034882154 -0.089248091 0.063302524
-0.099467479 -0.31138501 0.60455394 -0.89106578 0.059769057 -0.44992155 0.02081909
-0.10644699 -0.25875133 0.61975545 -0.84804136 0.38635147 -0.36270982 0.096798375
-0.1206383 -0.28858671 0.63577223 -0.97246301 0.10792483 -0.20656221 0.074239179
0.12850727 -0.23719631 0.64110184 0.22859241 0.97352153 0.0011729953 0.071695544
0.12935051 -0.23747298 0.63744473 0.22330436 0.97470844 -0.0088654906 0.066562802
0.14509419 -0.23820525 0.62457174 0.25771937 0.96618176 -0.008570957 0.090485834
0.12653291 -0.23497438 0.60463434 0.15882863 0.98384631 -0.082581066 0.060072672
0.040380575 -0.23376626 0.6639033 -0.024014017 0.99762142 0.06461364 0.005948008
0.090079457 -0.23383878 0.70138431 0.082090773 0.9875198 0.13440871 0.0367584
-0.081105791 -0.24237914 0.60447079 -0.5833317 0.720864 -0.37427154 0.083618931
-0.023978317 -0.23565324 0.62212867 -0.12209065 0.99249065 -0.0074955379 0.0077700336
-0.11808091 -0.46165848 0.62656021 -0.99163634 0.033201333 -0.1247197 0.06548281
-0.10188352 -0.53036922 0.59420478 -0.90835577 0.018765891 -0.41777718 0.031423744
-0.091913745 -0.40952492 0.59085059 -0.85833591 0.038171858 -0.51166624 0.0077585788
-0.1259428 -0.46853724 0.64619309 -0.99986875 0.015482058 0.0047613159 0.069791444
-0.083063029 -0.25182912 0.59172636 -0.69259864 0.52482527 -0.49483889 0.068454295
-0.10407109 -0.27519459 0.61028457 -0.87608033 0.21825914 -0.42993751 0.057606313
-0.13019 -0.46319246 0.65934139 -0.98099774 0.032139968 0.19133869 0.061535139
-0.099137045 -0.24456273 0.62231636 -0.68424529 0.68086457 -0.26121193 0.11061588
-0.11476014 -0.25717673 0.63435614 -0.87540126 0.42084676 -0.23782466 0.11333177
0.099812508 -0.2318372 0.67190623 0.10944868 0.99153578 0.069841877 0.031291138
0.062564977 -0.23653953 0.71771109 0.01139206 0.96487093 0.26247707 0.060420595
0.045693502 -0.23499085 0.68853468 -0.042495999 0.98836213 0.14606296 0.020196328
0.10874353 -0.23545608 0.5972535 0.14991003 0.9853794 -0.080959536 0.044412456
-0.11270106 -0.29745686 0.62357271 -0.95240617 0.079853497 -0.29418671 0.057572406
-0.034589261 -0.23658997 0.62774467 -0.18536423 0.98256487 -0.01436575 0.021000035
-0.089808814 -0.2577486 0.59788364 -0.72998846 0.48669755 -0.47983566 0.075165428
-0.10727939 -0.476004 0.60812211 -0.95385903 0.011481285 -0.30003533 0.048095722
-0.098590992 -0.37716356 0.60250515 -0.91255164 0.031083606 -0.40777853 0.026657764
0.0072908867 -0.284421 0.47267503 -0.53717029 0.24414836 -0.80736589 0.066221878
-0.025230277 -0.24613735 0.5194416 -0.53498292 0.6775865 -0.50464827 0.093970045
-0.0017286047 -0.24103893 0.50004774 -0.24616142 0.77665335 -0.57983977 0.11536345
0.12017138 -0.23690471 0.61571926 0.20054977 0.97891396 -0.038823951 0.077307321
0.098192945 -0.23482661 0.60492849 0.11453319 0.9906348 -0.074329548 0.034321673
0.0067805545 -0.23587449 0.52590919 -0.14338206 0.91834962 -0.36888427 0.08280728
0.13284095 -0.23721787 0.63849318 0.23706372 0.97148889 0.0031793197 0.074307427
-0.0088472078 -0.2351924 0.66490024 -0.12995572 0.97716594 0.16810176 0.02413103
-0.094755635 -0.27466616 0.59826577 -0.82854849 0.26802093 -0.49160162 0.04968787
0.0021348204 -0.32614067 0.47247866 -0.70895344 0.072385177 -0.70153075 0.021394281
-0.10038019 -0.43709773 0.60314661 -0.92914581 0.059433561 -0.36490524 0.039270081
-0.0022525964 -0.44968584 0.4787209 -0.71497339 -0.010237421 -0.69907671 0.0025811908
-0.011974269 -0.30676717 0.48684129 -0.72011262 0.11626262 -0.6840474 0.021165768
0.052348088 -0.23839068 0.75175905 -0.024429459 0.81569713 0.57796311 0.12758972
-0.11891247 -0.39225346 0.63230592 -0.98979086 0.049250454 -0.13374741 0.043635912
-0.12797436 -0.5087288 0.63997543 -0.99647588 -0.031773023 0.077629164 0.082936279
-0.091576621 -0.49082965 0.5808484 -0.85002613 0.066968374 -0.52246612 0.01358285
0.12314352 -0.23742525 0.58202463 0.16618104 0.98352563 -0.071142085 0.067994006
0.031290796 -0.23604292 0.70903009 -0.09293399 0.95168114 0.29268789 0.054514721
0.044116944 -0.23619711 0.53592378 0.078827448 0.97502357 -0.20764206 0.030104185
0.037653483 -0.23496482 0.569148 0.053064216 0.99708921 -0.054748252 0.010647081
-0.0084636612 -0.29928231 0.48451638 -0.71335983 0.15916447 -0.68248397 0.030936552
-0.011655261 -0.25318387 0.48924112 -0.42996716 0.5768503 -0.69453007 0.11764365
-0.050005026 -0.23554192 0.61068481 -0.25942484 0.94947475 -0.17662483 0.046467695
-0.079630561 -0.24041268 0.60691154 -0.55048847 0.76349509 -0.3376947 0.081698567
-0.087156601 -0.24302302 0.61702996 -0.57740766 0.7709341 -0.26881397 0.090260506
-0.045862764 -0.23719813 0.65319979 -0.22940496 0.95664227 0.17946872 0.033151451
-0.12589543 -0.45742217 0.6493367 -0.99701303 0.04566038 0.062290225 0.068928048
-0.11852405 -0.40941128 0.63254541 -0.99730211 0.045249265 -0.057800479 0.055254154
-0.00025466768 -0.43257615 0.47554976 -0.71851027 -0.029074034 -0.69490838 0.001309182
-0.11226079 -0.30727294 0.62188709 -0.94448566 0.039458498 -0.32617462 0.042881019
0.00054726138 -0.25660631 0.47951108 -0.30056292 0.56327349 -0.76966548 0.12179272
-0.12228604 -0.48888567 0.62953198 -0.98947281 0.026153294 -0.14233589 0.063210472
0.0083543677 -0.49300605 0.47014844 -0.6996817 0.022341767 -0.71410531 0.0025131442
-0.016045261 -0.34111944 0.48887417 -0.74960303 0.060061399 -0.65915692 0.019124435
0.019362954 -0.23376463 0.5471763 -0.039911635 0.98210293 -0.18406738 0.03561797
0.14089277 -0.23988871 0.58103734 0.15633555 0.98596233 -0.058630813 0.10536709
0.11150419 -0.23498291 0.64001453 0.18276598 0.98311806 -0.0086871441 0.058082938
-0.031343218 -0.23830259 0.70014966 -0.3326304 0.83799899 0.43256748 0.076034412
-0.087388135 -0.24261749 0.6271565 -0.55403036 0.81605768 -0.16462168 0.10449277
0.038161304 -0.23974116 0.74712396 -0.10899022 0.81973624 0.56227535 0.12030371
-0.053223353 -0.24072017 0.69458127 -0.40097669 0.72202486 0.56382424 0.058534574
-0.083275087 -0.24034925 0.65808523 -0.45706227 0.85992593 0.2272037 0.097856991
-0.078064978 -0.24099115 0.66417879 -0.44007951 0.835105 0.33004498 0.08247254
-0.082451753 -0.24357979 0.66908181 -0.48006305 0.7776702 0.40591705 0.08377251
-0.10548533 -0.24540831 0.64684767 -0.69097626 0.71602505 0.099296637 0.12887453
-0.002116303 -0.23354699 0.62697667 -0.043502662 0.99882305 0.021450249 0.00083971443
-0.095905192 -0.24511641 0.65948296 -0.6632989 0.66111505 0.35065877 0.12126385
0.021965435 -0.23619398 0.68959522 -0.10802523 0.97623885 0.18785189 0.029662045
-0.10725072 -0.45588699 0.60907918 -0.93229258 0.060083739 -0.35667983 0.036419366
-0.11606097 -0.45070618 0.62612742 -0.99359459 0.024058847 -0.11041231 0.067500718
-0.019527452 -0.24561079 0.72150308 -0.43953469 0.70096153 0.56166029 0.072175071
0.082795978 -0.23864816 0.58561289 0.10213081 0.99268311 -0.064416796 0.022057498
-0.12211114 -0.41115874 0.64883912 -0.99769634 0.03516645 0.058011599 0.066540778
-0.11526012 -0.33126071 0.62929219 -0.97098553 -0.0072103254 -0.23902957 0.045645751
-0.11145207 -0.48434454 0.61171126 -0.95813549 0.022138735 -0.28545818 0.049184088
-0.11301227 -0.4347142 0.61976278 -0.97607958 0.064218104 -0.20771286 0.060353961
-0.012419473 -0.24471049 0.49802223 -0.4047389 0.70210272 -0.5858655 0.10798957
-0.014768881 -0.28921577 0.49247807 -0.71577954 0.21824734 -0.66334587 0.045679413
0.10004757 -0.23876713 0.55636269 0.091977552 0.99184865 -0.088183157 0.0256097
0.13027059 -0.23694584 0.59237689 0.17194258 0.98174393 -0.081331074 0.080704011
0.062433429 -0.23573755 0.55596781 0.081638426 0.9946788 -0.062842265 0.015309127
-0.013973405 -0.29600421 0.49018931 -0.72526562 0.16797151 -0.66766411 0.0321205
-0.024093362 -0.24678314 0.5109843 -0.53948164 0.64284754 -0.54378921 0.095559537
0.069178425 -0.23841219 0.71938002 0.041348103 0.95181024 0.30388764 0.07256712
0.056553215 -0.24167784 0.73605257 0.01539462 0.87189817 0.48944509 0.10057641
0.056524511 -0.24155988 0.73592532 0.01539462 0.87189817 0.48944509 0.10057641
-0.049463682 -0.2363338 0.63577366 -0.23401001 0.97221726 0.0057333466 0.03220674
0.067617871 -0.23670045 0.72807086 0.069898926 0.91448683 0.39853233 0.089679517
-0.11246843 -0.42479777 0.61873287 -0.98021531 0.046447124 -0.19240737 0.057552472
-0.10575289 -0.36836615 0.61241156 -0.95218432 0.0054174531 -0.30547625 0.040011015
-0.11404231 -0.24907862 0.64243072 -0.84026319 0.54029042 -0.045210734 0.13210693
-0.11128435 -0.35030836 0.62006903 -0.96437848 0.010781883 -0.26430655 0.04448783
-0.098577112 -0.51929414 0.59417266 -0.90539539 0.02197763 -0.42400008 0.028972376
0.08364179 -0.23370175 0.61113256 0.07751067 0.99517292 -0.060190339 0.02098842
-0.078493103 -0.24455957 0.6768319 -0.45702448 0.76433122 0.45489153 0.072460018
-0.1147467 -0.35717723 0.63381356 -0.9928872 0.0042043258 -0.11898426 0.044470761
-0.09955164 -0.35258189 0.60594428 -0.90578312 0.014696478 -0.4234865 0.023121079
-0.10389714 -0.53217798 0.58875221 -0.89036614 -0.0042458936 -0.45522529 0.012386537
-0.092135996 -0.24698722 0.60787749 -0.68357968 0.60250503 -0.41195449 0.086721011
-0.0093186526 -0.23485833 0.52862245 -0.31708711 0.87909561 -0.35587457 0.080996327
-0.11451189 -0.24125476 0.6415354 -0.74549258 0.66407907 -0.056921154 0.12290491
-0.11888728 -0.2562528 0.64121515 -0.89854079 0.43276253 -0.073082179 0.13170536
0.025713118 -0.23493035 0.56730181 0.022623809 0.99763638 -0.064883247 0.0089163324
0.047317658 -0.23504706 0.57684237 0.065947078 0.9969123 -0.042624645 0.012570658
0.081077866 -0.23289332 0.61925733 0.078016877 0.99595028 -0.044681959 0.025119398
0.023831774 -0.23551558 0.50939882 -0.047972769 0.87241578 -0.48640448 0.095995463
0.0032190145 -0.23449992 0.66529697 -0.10837156 0.98578238 0.12840794 0.015067002
0.028653866 -0.23535579 0.69398987 -0.087849624 0.98106676 0.17259865 0.026850015
0.011149908 -0.23537898 0.68124169 -0.12314314 0.97848618 0.16553128 0.024710566
0.016436884 -0.23334986 0.64664388 -0.04123554 0.99875307 0.028141389 0.00098549481
0.090607926 -0.2315741 0.68967533 0.079641648 0.99004525 0.11604983 0.038371544
-0.069645718 -0.24015065 0.6024335 -0.44471112 0.83536333 -0.32311019 0.072993912
-0.064308211 -0.23884752 0.64604425 -0.33173224 0.93753898 0.10475872 0.063614264
-0.088255025 -0.24237469 0.63133514 -0.55345011 0.82191259 -0.13473172 0.10624582
-0.090318523 -0.48381576 0.58031923 -0.8412171 0.074828215 -0.53549469 0.012732734
-0.12002604 -0.53603727 0.62601733 -0.99751985 -0.035885617 0.06055079 0.098743521
-0.0077859117 -0.23397204 0.5489772 -0.26916853 0.94227535 -0.1991619 0.047101453
-0.11223172 -0.46323127 0.6173448 -0.98133218 0.038949892 -0.18833485 0.059246458
-0.11865169 -0.29805675 0.63205105 -0.96788621 0.069849268 -0.24149013 0.058947429
-0.12226316 -0.46360588 0.64735299 -0.99948043 0.030182742 0.011305346 0.070454985
-0.11547949 -0.3406691 0.64079809 -0.99832231 -0.0063540335 -0.057550177 0.054406904
0.0056199003 -0.24782488 0.74929464 -0.37497514 0.55735445 0.74077636 0.093371876
-0.1212189 -0.29246444 0.64199871 -0.99574882 0.081518233 -0.042884726 0.082706325
-0.11827648 -0.27276242 0.63938195 -0.95682484 0.25592327 -0.13780269 0.1124412
-0.09627337 -0.437884 0.59893298 -0.9042244 0.047311842 -0.42442885 0.026368862
-0.10525976 -0.33715561 0.61222655 -0.92316747 0.00033661124 -0.38439777 0.030537294
-0.097326688 -0.28662229 0.60104454 -0.8649137 0.17776498 -0.46938673 0.038843252
0.076870479 -0.23122777 0.66358125 0.056747451 0.99727058 0.0472342 0.019037364
-0.035130613 -0.255339 0.71387428 -0.48316562 0.59531289 0.64199173 0.075431772
0.036224354 -0.517425 0.75952661 -0.16522506 -0.208832 0.96389306 0.12635756
0.031009294 -0.46230939 0.7687704 -0.38100138 -0.02938995 0.92410731 0.081517354
0.080075115 -0.23401159 0.70001429 0.058047973 0.98898947 0.13612574 0.034954365
-0.034561191 -0.24106021 0.53217286 -0.51905495 0.76528203 -0.38069072 0.0658044
0.041685656 -0.23478921 0.54590291 0.080271222 0.98194367 -0.17129876 0.030896068
0.028907103 -0.2346262 0.64112836 -0.03073366 0.99942058 0.014627621 0.000731343
0.044566285 -0.29142958 0.74965346 -0.38108814 0.29038119 0.8777532 0.095202148
0.074494354 -0.36929604 0.71899909 0.72664678 -0.0060889064 0.6869843 0.10462338
0.052293986 -0.50704396 0.74596953 0.26920056 -0.11557204 0.95612448 0.18401028
0.038518731 -0.24670778 0.75636619 -0.19775288 0.65653914 0.72790813 0.12367894
-0.027475847 -0.24273689 0.50736821 -0.51790398 0.6599977 -0.54422277 0.087790743
0.02358749 -0.23421176 0.52955818 -0.062116887 0.95686716 -0.28380755 0.061352491
0.0055165263 -0.425448 0.75134778 -0.48611206 0.053368364 0.8722654 0.036224157
0.043741293 -0.31456065 0.75255346 -0.41709754 0.059550427 0.90690875 0.069692269
0.064045466 -0.24098232 0.72836965 0.060984202 0.90016514 0.43125814 0.093941279
0.042097438 -0.44496721 0.75169891 -0.30759329 -0.012471041 0.95143622 0.11728375
0.019675057 -0.5258643 0.75828898 -0.30698785 -0.11474479 0.94477093 0.095973693
0.09996295 -0.23197915 0.67384946 0.11464338 0.99068516 0.073483288 0.03148846
0.051672466 -0.34476763 0.74267048 -0.35290384 0.047359303 0.93446022 0.095924757
0.056960486 -0.43516681 0.7396363 0.19758844 -0.012716287 0.98020262 0.16554531
0.032982159 -0.29363683 0.76216054 -0.39947125 0.23585369 0.88588697 0.082711145
0.052546311 -0.51880735 0.74424654 0.21244057 -0.21167448 0.95397222 0.17572162
0.078591689 -0.45000765 0.70906746 0.77099013 0.02240186 0.63645303 0.0073072817
0.10479192 -0.23188044 0.65117776 0.13076194 0.99136245 0.010086259 0.051077213
0.055390373 -0.37848586 0.73812759 -0.30933318 0.032951064 0.95038259 0.097373672
0.0089072678 -0.23579949 0.697492 -0.17132346 0.95270783 0.25098982 0.04884623
0.03873156 -0.35586676 0.76207048 -0.41751528 0.04691473 0.90745795 0.065789722
0.035014994 -0.43803781 0.75555414 -0.39355242 -0.0012897763 0.91930133 0.094089739
0.11238242 -0.2325858 0.64053363 0.18215549 0.9832437 -0.0071555753 0.05905303
0.038808517 -0.28870025 0.75502002 -0.38140675 0.28874323 0.87815499 0.091671742
0.035456333 -0.31960273 0.76199013 -0.45901647 0.0031115997 0.88842231 0.063272566
0.090989105 -0.46611702 0.69551748 0.79296583 0.017186487 0.60902363 0.00068979023
0.055483941 -0.51104093 0.74315506 0.45271677 -0.15560046 0.87797266 0.17735234
0.11567425 -0.23134364 0.66745186 0.20419723 0.97671992 0.065739445 0.049757227
0.14058523 -0.25514877 0.62402111 0.23466869 0.97158033 -0.031022595 0.092575185
0.097569562 -0.23154755 0.67510402 0.10629033 0.99205095 0.067358822 0.03096408
0.083751276 -0.2338223 0.69875008 0.063049361 0.98940241 0.13079624 0.035049781
0.1092685 -0.28600311 0.66686308 0.42924944 0.8988058 0.088843316 0.11459643
0.017413488 -0.23401934 0.55590677 -0.057641041 0.99046683 -0.12511179 0.019558772
0.044890989 -0.3526457 0.7499727 -0.40974396 0.039838687 0.91133016 0.073307879
0.065807275 -0.39716968 0.72528774 0.46495035 -0.16874322 0.86910695 0.15788376
0.044272404 -0.27987817 0.74920583 -0.34972879 0.38918385 0.85218883 0.11029163
-0.02903785 -0.23951243 0.52106309 -0.49490678 0.74205929 -0.45212305 0.076692164
0.048279658 -0.23493156 0.73023319 -0.019309243 0.90056461 0.43429321 0.088865921
0.02236524 -0.23404147 0.53368688 -0.061299738 0.96189195 -0.26646981 0.057379019
0.056035489 -0.23524837 0.5252834 0.11480395 0.9621309 -0.247233 0.034469977
0.075841174 -0.23451526 0.60007584 0.087930225 0.99465662 -0.054096732 0.019562999
0.13034765 -0.30452177 0.65011281 0.78691137 -0.22659984 0.57395381 0.18894406
0.061618105 -0.31053132 0.73019624 -0.033717461 0.18633722 0.98190713 0.11737618
0.05705566 -0.48039111 0.74164802 0.40716633 -0.1119367 0.90646887 0.15082254
0.13779178 -0.2622861 0.62880021 0.23082091 0.97245133 -0.03255846 0.093137674
0.14980595 -0.25471014 0.59891373 0.19258748 0.98108459 -0.019574 0.12576826
0.061543673 -0.26764897 0.72665745 0.20682669 0.7130549 0.66990703 0.13258427
0.057096619 -0.34350657 0.73781657 -0.23132135 0.0014650081 0.97287625 0.11762621
0.12505226 -0.26111177 0.64139372 0.22861257 0.9735167 0.0012040302 0.071696505
0.083049051 -0.25625989 0.71372461 0.13833632 0.91513807 0.37866253 0.091812268
0.062016584 -0.27077347 0.73019385 0.2002487 0.67346549 0.71157891 0.13306524
0.085696645 -0.49715191 0.70035297 0.78607994 0.0059172688 0.61809647 0.0012374613
0.066730872 -0.49417281 0.72582996 0.65434039 -0.1035033 0.74908328 0.14887629
0.12635434 -0.23653153 0.64668399 0.22817703 0.97361386 0.0033559548 0.074512184
0.056484487 -0.40622088 0.73606205 -0.20154656 0.012599219 0.97939789 0.15551205
0.030322524 -0.44874725 0.76544785 -0.39980119 0.021931773 0.91633946 0.074240059
-0.020247845 -0.24024676 0.71027625 -0.36587545 0.81288874 0.4531523 0.076130249
0.045468614 -0.24369085 0.76599538 -0.074947841 0.66840953 0.74000788 0.14773135
0.032957036 -0.38744518 0.76204079 -0.42822322 0.043142408 0.90264255 0.064373523
0.039488394 -0.38687885 0.76644194 -0.41842467 0.044286214 0.90717119 0.069778092
0.044908088 -0.32134339 0.7484507 -0.43972814 0.022654595 0.89784521 0.076963514
0.042807948 -0.3079128 0.74809229 -0.35002592 0.1382554 0.92648113 0.083293483
0.040641688 -0.29802889 0.75347537 -0.3698501 0.23023628 0.90011233 0.092685327
0.063112743 -0.4094663 0.72987431 0.34402686 -0.067623854 0.93652147 0.18783724
-0.0045425701 -0.23404223 0.53683877 -0.26819122 0.92177272 -0.2800152 0.069353864
0.081346206 -0.23346862 0.6950103 0.062491164 0.99091893 0.11905658 0.032176107
0.073490605 -0.52025491 0.71590769 0.77976322 -0.016849224 0.6258477 0.079206243
0.041919187 -0.39885131 0.74990749 -0.39396784 0.049720667 0.91777843 0.085532166
0.064716116 -0.36625007 0.7284494 0.25845277 0.043987378 0.96502191 0.12420098
0.056665979 -0.44011545 0.73625249 0.28768229 -0.021412807 0.95748651 0.16237098
0.044832166 -0.37297994 0.75253737 -0.39097571 0.0050225784 0.92038727 0.072267018
0.056269825 -0.28590196 0.73726285 -0.14593878 0.46521771 0.87308329 0.13268745
0.062267605 -0.52578384 0.73397893 0.61245614 -0.4694629 0.63600475 0.14362273
0.046239331 -0.50498289 0.74940062 0.003990782 -0.15041298 0.98861516 0.16638674
0.1515137 -0.28338742 0.60811377 -0.031379618 0.99013543 0.13655454 0.19105025
0.031591091 -0.24150465 0.75620276 -0.22455437 0.68313015 0.69491631 0.11980657
0.075349525 -0.23152047 0.63314921 0.064850926 0.99750406 -0.027929937 0.024463816
0.075814009 -0.51068139 0.71378505 0.80479687 -0.11896287 0.58150649 0.058246825
0.057155639 -0.28634405 0.73670977 -0.11846934 0.46265596 0.87858659 0.13418879
0.035856161 -0.33876762 0.76210141 -0.41774979 0.035098325 0.90788394 0.074158981
0.13133942 -0.26262712 0.63194484 0.22863093 0.97296864 -0.032556172 0.086687326
0.062437829 -0.51992387 0.73371673 0.64337057 -0.27270773 0.71533537 0.14658263
-0.0042301584 -0.23366638 0.54832393 -0.25800052 0.94576728 -0.19738276 0.048781026
0.0096015837 -0.23645271 0.70995229 -0.20768195 0.89472407 0.3953948 0.070498303
0.085232563 -0.23058145 0.6478647 0.073965967 0.99717921 -0.012755017 0.029992238
0.044797886 -0.23909175 0.74784154 -0.067605801 0.82789356 0.55679595 0.118352
0.084307469 -0.44924864 0.702694 0.77456725 0.014054806 0.63233542 0.0014072651
0.087979913 -0.22978255 0.65572536 0.082684949 0.99653518 0.0089982608 0.028704105
0.064965881 -0.23087797 0.63894755 0.047426701 0.99857283 -0.024554906 0.019004518
0.056158312 -0.23393771 0.59841305 0.050405681 0.99795473 -0.039314643 0.011081427
0.14415261 -0.28472805 0.6245684 0.21240582 0.97644484 0.037938129 0.18899927
0.079091854 -0.47132286 0.7085824 0.79105169 0.026592128 0.61117113 0.0057289209
-0.083292931 -0.53943259 0.69188923 -0.69620353 0.10716035 0.7098009 0.016060451
0.06425482 -0.39768532 0.72891235 0.21223703 -0.048419841 0.97601789 0.17872937
-0.041297551 -0.49371785 0.72210908 -0.59813511 0.029035157 0.80086905 0.0011057828
0.013472344 -0.52036667 0.75974196 -0.3564429 -0.10175579 0.92875946 0.087207772
-0.051730346 -0.24137117 0.68677872 -0.34728798 0.80224478 0.48558661 0.059165154
0.03073775 -0.44878122 0.76908904 -0.42320231 0.020664424 0.90579957 0.064102583
0.023226818 -0.23368414 0.64900273 -0.038111567 0.99894625 0.025570428 0.00078636874
0.033754945 -0.37980318 0.76432115 -0.43526018 0.021523571 0.90004736 0.06239685
0.026685303 -0.51046222 0.76207638 -0.29962692 -0.1246424 0.94587946 0.09669558
0.057252396 -0.23474744 0.71227276 -0.0097996648 0.97453982 0.22400013 0.049418546
0.03227004 -0.32064393 0.76223916 -0.45344526 0.0066841184 0.89125907 0.060297996
