# .PCD v0.7 - Point Cloud Data file format
VERSION 0.7
FIELDS x y z normal_x normal_y normal_z curvature
SIZE 4 4 4 4 4 4 4
TYPE F F F F F F F
COUNT 1 1 1 1 1 1 1
WIDTH 579
HEIGHT 1
VIEWPOINT 0 0 0 1 0 0 0
POINTS 579
DATA ascii
0.042236827 -0.31671196 0.81205118 0.56658667 -0.019699521 0.82376665 0.0098588411
0.11528579 -0.25288433 0.73147541 0.8331998 0.018239556 0.55267113 0.0044054971
0.073520623 -0.1359618 0.73123741 0.35049158 0.90252775 0.25019839 0.022695206
0.13956915 -0.36694157 0.68289816 0.99397177 -0.10943585 -0.0066290428 0.039259471
0.0083055068 -0.19152738 0.82697266 -0.099754676 0.17917897 0.97874606 0.024772927
0.13728046 -0.39375541 0.68246394 0.97261637 -0.22904567 -0.039439343 0.042509057
0.13824095 -0.29757118 0.67866045 0.95901889 0.079407483 -0.2719875 0.043018151
0.075431965 -0.3404808 0.78274339 0.73336476 0.021539504 0.67949408 0.00090173044
0.038684014 -0.12795585 0.68711925 0.060679633 0.99813521 -0.0066401646 0.0014860339
0.046850733 -0.43382201 0.81115276 0.56737471 -0.041401375 0.82241827 0.0032344544
0.037722532 -0.30811176 0.81648117 0.49675715 -0.028091591 0.86743474 0.021598747
0.0090246899 -0.44338566 0.8311922 0.23816758 0.0023212708 0.97122133 0.041843697
0.075606495 -0.28449345 0.77987468 0.71273565 0.022703541 0.70106518 0.00088464102
0.13220251 -0.23718829 0.70281535 0.95315599 0.017066358 0.30199727 0.017420342
0.083112292 -0.18212518 0.76434225 0.74669111 0.26046145 0.61205566 0.0044993665
-0.039551035 -0.14158663 0.60412633 -0.35205749 0.83548725 -0.42192018 0.026364563
0.13619295 -0.31673294 0.688824 0.99378783 0.023466056 0.10878904 0.032251507
0.0068538608 -0.22430788 0.83232087 -0.13375075 0.10662063 0.98526281 0.023452155
0.082611009 -0.13277596 0.7080068 0.36671808 0.92175639 0.12602773 0.021407792
0.053537119 -0.18252128 0.79528016 0.64606816 0.23034006 0.72769457 0.0046274937
0.12762734 -0.2769596 0.71380603 0.92976892 0.022709442 0.36744261 0.017748555
0.096247688 -0.14271626 0.72660667 0.55308473 0.75018114 0.36238852 0.020881265
-0.033422202 -0.12980916 0.68934602 -0.1095017 0.99398059 -0.003442551 0.0012056795
0.13485506 -0.19999811 0.68052924 0.98014343 0.14147379 -0.13893846 0.047644615
0.13781083 -0.30403858 0.69167602 0.97425914 0.024690188 0.22407509 0.030623395
0.10155643 -0.30072466 0.75087243 0.77866161 0.032638021 0.6265946 0.00046491897
-0.082728781 -0.14159791 0.65719348 -0.43948999 0.84441066 -0.30629903 0.029539315
0.031324372 -0.28807124 0.8206439 0.48209465 -0.049647715 0.87471128 0.028344903
0.13418268 -0.3152867 0.70355964 0.93844008 0.033244446 0.34383845 0.020870965
0.086411484 -0.25775269 0.76691788 0.75934404 0.016329946 0.65048444 0.00023047463
0.13007128 -0.29810047 0.71083891 0.92435658 0.032231834 0.3801659 0.017904501
-0.12139184 -0.15172218 0.71886104 -0.69477117 0.68692672 0.21313074 0.06946528
0.1379683 -0.33356911 0.67519742 0.95514989 0.016089844 -0.29568535 0.033311162
0.14260624 -0.35311168 0.688568 0.98397171 -0.022229847 0.17693351 0.026976785
0.084883802 -0.26707613 0.76814985 0.7508325 0.016047591 0.66029763 0.00016321127
0.014076681 -0.2641339 0.83405739 0.20686407 0.012848296 0.97828525 0.023550028
0.012724553 -0.36987132 0.83237034 0.0080223316 -0.03862638 0.99922156 0.028196489
0.059534345 -0.19793001 0.79334897 0.67139596 0.14575399 0.72662461 0.0023659207
0.015215323 -0.23940343 0.83344311 0.029576028 0.036250453 0.99890512 0.045097958
0.044011645 -0.13177183 0.74032289 0.14448723 0.96372467 0.22440618 0.0078591658
-0.044315912 -0.14698872 0.78425407 -0.44168979 0.67218244 0.59420615 0.029888399
0.12698005 -0.15916999 0.6885972 0.90437639 0.42657158 -0.011831493 0.048351698
0.068575107 -0.13660541 0.64015073 0.22100537 0.92373604 -0.31283918 0.017775465
-0.067662433 -0.14500719 0.62407541 -0.46887326 0.76475978 -0.441928 0.028189806
0.051546969 -0.13064501 0.72484642 0.14241241 0.97806907 0.15198536 0.0047300621
0.072096564 -0.15044086 0.76174545 0.65784019 0.55185437 0.51254559 0.036537055
0.11858369 -0.15298381 0.70159829 0.81836295 0.54653925 0.17769919 0.04320085
0.014130946 -0.29719052 0.83313584 0.074806787 -0.0039209654 0.9971903 0.051551461
0.081183746 -0.32649872 0.77547753 0.7455824 0.0261114 0.66590166 0.00031989432
0.011935522 -0.39929834 0.83157414 0.13655648 -0.062642038 0.98864973 0.033054225
-0.029060295 -0.12979972 0.69165826 -0.091809519 0.99575341 0.0067976792 0.0010167415
0.011675922 -0.43912774 0.83007628 0.23816758 0.0023212708 0.97122133 0.041843697
-0.080444999 -0.14211102 0.65147215 -0.44978616 0.81545728 -0.36430997 0.031989817
0.078393124 -0.13209723 0.66740429 0.29238099 0.9425754 -0.16144699 0.02089387
0.12155167 -0.1851383 0.7130357 0.90796226 0.21651377 0.35878438 0.020296566
-0.0081516886 -0.1460669 0.80528343 -0.27474532 0.6745401 0.68520844 0.050329719
0.13374674 -0.20109452 0.68751317 0.9845174 0.15263715 0.086182192 0.040749177
0.14078695 -0.36319739 0.68427539 0.99498844 -0.099081837 -0.013446123 0.041799687
0.081285946 -0.14129138 0.74279499 0.51897907 0.76564276 0.38006815 0.025926117
0.12266905 -0.14939848 0.68831754 0.80951923 0.58654308 -0.025410803 0.059514731
-0.041010655 -0.14117 0.77338451 -0.37182683 0.83479297 0.40603635 0.028070653
0.055314541 -0.12872773 0.69166642 0.10520853 0.99442226 0.0074633304 0.0021399115
0.01937619 -0.13949297 0.79167902 0.16183956 0.90035188 0.40394855 0.030351153
0.056445442 -0.34926432 0.8005898 0.6604687 0.018298294 0.75063062 0.00075522374
0.095089741 -0.14038099 0.64914984 0.47847393 0.79088861 -0.38152051 0.045091588
0.1182219 -0.14547439 0.69141614 0.73678166 0.6755529 0.027946701 0.057263598
0.13606562 -0.31404018 0.69824034 0.94472533 0.036513943 0.32582331 0.019436313
0.13514119 -0.2405957 0.69936544 0.95392346 0.025441291 0.29896945 0.017591348
0.13669775 -0.2590833 0.69281512 0.9916209 0.064786531 0.11176163 0.044103824
0.033742916 -0.1278547 0.70083165 0.042837556 0.99873799 0.026216853 0.0010647099
0.11612034 -0.14543818 0.68467891 0.73738903 0.67492574 -0.027067693 0.062389597
0.028080266 -0.14281543 0.60316753 0.32256269 0.76577628 -0.55636317 0.046640422
0.12278722 -0.37307996 0.72598821 0.87431693 -0.014955541 0.48512498 0.00743338
0.11356909 -0.43837115 0.64506614 0.77462548 0.17864722 -0.60666341 0.0039723362
0.077528216 -0.23049381 0.77615196 0.74114257 0.038100958 0.67026561 0.00027367388
0.11044557 -0.15055881 0.70848471 0.73432469 0.60598135 0.30586582 0.039978821
0.11598133 -0.16065638 0.70976776 0.82457328 0.44787547 0.34566817 0.03541474
-0.11024464 -0.1448625 0.69749779 -0.50003886 0.86272562 -0.075270221 0.039237265
0.12678629 -0.21548192 0.71455127 0.92945427 0.079323083 0.36030906 0.013934649
0.067093968 -0.34307855 0.79167056 0.68274641 0.0073919087 0.730618 0.001453511
0.13814583 -0.29115942 0.69009382 0.99676967 0.07960666 -0.010637925 0.046052337
-0.13369052 -0.15451752 0.70737749 -0.78141415 0.62004751 0.070235215 0.074698031
-0.015248373 -0.22466435 0.55150104 -0.13964607 0.084043697 -0.98662841 0.03808267
0.016530149 -0.12819459 0.70204663 -0.00098312343 0.999713 0.023938281 0.00039867201
0.069257513 -0.16184215 0.77198148 0.7236976 0.4259854 0.54295319 0.02744282
0.068698607 -0.22052486 0.7859717 0.71687353 0.048246454 0.6955319 0.00097177393
0.055916201 -0.29620266 0.7999891 0.68789691 0.019409446 0.7255488 0.00085529295
0.065690883 -0.25641114 0.60730219 0.63595283 0.030770633 -0.77111423 0.00014950057
0.025508903 -0.24115619 0.82503194 0.2523616 0.028831961 0.96720338 0.04275921
0.084634557 -0.20276512 0.76660812 0.74995452 0.11129732 0.6520592 0.00081719778
0.06584917 -0.35695642 0.60261273 0.62786055 0.049862877 -0.77672702 0.00043803966
-0.045968719 -0.13421276 0.65585309 -0.19672509 0.97279638 -0.12233751 0.0031413573
0.060426712 -0.19125226 0.79058957 0.67174101 0.18042715 0.71847761 0.002706537
0.1265198 -0.16104391 0.68726516 0.90964085 0.41400245 -0.033994328 0.048367355
0.13908637 -0.37842095 0.67404938 0.97200781 -0.14300969 -0.1864107 0.043132626
0.051198646 -0.40445787 0.80724162 0.60051167 0.023175824 0.79928005 0.0019922252
0.033762217 -0.3558614 0.81960863 0.48503998 0.038358957 0.87365025 0.018917376
0.039077479 -0.25794592 0.81209165 0.58338654 0.017015155 0.81201643 0.013495856
0.041945916 -0.15869519 0.79558986 0.51621264 0.50031954 0.69512945 0.02453691
0.024123253 -0.14741643 0.8077547 0.28519177 0.685781 0.66960448 0.048619252
0.015963469 -0.14511482 0.80176675 0.18846387 0.79749084 0.57314032 0.052868858
0.017849877 -0.18674809 0.57919627 0.5188576 0.23518789 -0.82187188 0.0076278131
0.071949907 -0.2991454 0.61067617 0.6457358 0.031431962 -0.7629137 0.00024266538
0.065309539 -0.43234184 0.59615058 0.59005469 0.11270797 -0.79945767 0.00084591168
0.044331435 -0.13504215 0.75916553 0.23000185 0.92229283 0.31060454 0.022462953
0.10352477 -0.16286106 0.73143673 0.71433324 0.46181506 0.5257898 0.019474996
0.039456744 -0.25063536 0.58655953 0.58309031 0.0470374 -0.81104457 0.00064925058
0.13148573 -0.21095823 0.67749709 0.99080491 0.10936128 -0.079660729 0.036516696
0.10402112 -0.27419341 0.6431216 0.74171561 0.02985302 -0.67004985 0.00093349966
0.072717994 -0.4391275 0.78995013 0.68208063 0.014001098 0.73114294 0.00096850452
0.12822479 -0.17706969 0.67914951 0.93694311 0.32366699 -0.13182296 0.047373232
0.12941067 -0.19295627 0.67612308 0.96986884 0.21241623 -0.11930513 0.044400424
0.081231013 -0.30077294 0.7735095 0.75083101 0.026125655 0.65997756 0.00022146868
-0.021216718 -0.13217673 0.74255884 -0.11627501 0.98254848 0.14518505 0.0016011414
-0.0058647082 -0.14443733 0.79956526 -0.22616915 0.7541154 0.6165691 0.049559247
0.006722833 -0.28144747 0.83332074 0.052214537 0.005895358 0.99861848 0.044905651
0.079073876 -0.13262552 0.65668285 0.32083055 0.91542685 -0.24302575 0.032605644
-0.0061243242 -0.14358298 0.59235221 0.065901607 0.83417112 -0.54755414 0.041180421
0.0015049035 -0.18655221 0.56848103 0.34942386 0.27164179 -0.89672387 0.026594708
0.10772236 -0.1582305 0.72133315 0.73217911 0.49247664 0.47051093 0.029249234
0.13030981 -0.35715544 0.66627145 0.93620622 -0.063844033 -0.34560341 0.039108586
0.064997457 -0.21985655 0.60836363 0.61976945 0.095069028 -0.77900434 0.0010570751
0.035853155 -0.40949923 0.57841635 0.49934176 0.0066206479 -0.8663798 0.002663075
0.10347927 -0.23531282 0.64343065 0.73632812 0.022533983 -0.67624933 0.0011798965
0.12976411 -0.29677689 0.71139121 0.92368627 0.026825568 0.38220927 0.016826715
0.11256544 -0.21042903 0.65608197 0.75889879 0.075239845 -0.64684743 0.005966662
0.046637181 -0.3752583 0.58676219 0.58830029 0.031084293 -0.80804485 0.00067219045
0.051493239 -0.16580179 0.79279411 0.61784244 0.36960492 0.69401944 0.014767057
0.13666569 -0.31426871 0.67774957 0.94129318 0.10105927 -0.32210898 0.030371465
0.029944642 -0.43423876 0.82409471 0.33332032 0.046131037 0.94168442 0.031509668
0.11040942 -0.34173509 0.64562351 0.73547834 0.01552685 -0.67737037 0.0017981566
-0.022007413 -0.41322994 0.55406398 -0.11229231 -0.19432826 -0.97448808 0.040454082
0.13369858 -0.23562743 0.6816802 0.99482715 0.034569632 -0.095518731 0.038214687
0.046884764 -0.12997709 0.66274792 0.10328653 0.98379868 -0.1465338 0.0080762561
0.044297576 -0.13246888 0.64434689 0.17102507 0.94659901 -0.27331451 0.010624125
0.06876301 -0.15220284 0.62735319 0.473259 0.63265431 -0.61300445 0.045959678
0.031751059 -0.12969388 0.72852248 0.088407509 0.9872604 0.13229175 0.0024331757
0.088215575 -0.22661169 0.76391953 0.75972509 0.046698697 0.64856529 0.00032848396
0.095569991 -0.26716715 0.75672841 0.76809269 0.025068203 0.63984776 0.0001986188
0.092340991 -0.18696783 0.7537685 0.76036721 0.20023692 0.61785668 0.0020792885
0.078066915 -0.2399299 0.77578932 0.74187267 0.029507313 0.6698913 0.0001798243
0.060909349 -0.26424637 0.79535294 0.70360065 0.014525509 0.71044713 0.0010287268
0.056207698 -0.1284554 0.67364478 0.12295954 0.98943603 -0.076794542 0.0039434936
0.048744392 -0.1502462 0.61149645 0.45703924 0.59231466 -0.66353482 0.036676206
0.11756483 -0.36898172 0.73347574 0.82124239 0.02289886 0.57011986 0.0024515863
0.052203462 -0.18078633 0.60644746 0.57918447 0.24378332 -0.7778914 0.0055211033
0.10712723 -0.40650421 0.64165902 0.7800914 0.04735155 -0.62387109 0.0040422338
0.13670962 -0.34611213 0.67305613 0.97059286 -0.027511435 -0.2391496 0.03715378
0.13677467 -0.36804035 0.69769567 0.9698028 -0.052496389 0.23817359 0.029184692
0.087203935 -0.22914192 0.62603056 0.67179 0.053051893 -0.73883939 0.0016143678
0.12272773 -0.18405811 0.71161956 0.90695512 0.23851301 0.34719443 0.021812253
0.094608985 -0.2158345 0.75664943 0.76602632 0.058840755 0.64011049 0.00053194765
0.12738113 -0.20126954 0.67020828 0.93750846 0.10160206 -0.33279851 0.044364389
0.0743379 -0.21136588 0.7788741 0.72370446 0.06837821 0.68671411 0.0016714879
0.016651703 -0.2979733 0.56782919 0.42686835 0.057375431 -0.90249181 0.011316648
0.13595526 -0.18572824 0.68328536 0.9673627 0.2362023 -0.091748737 0.043764483
0.018066123 -0.39759299 0.56707805 0.39894518 -0.027341722 -0.91656703 0.0094641633
0.10422648 -0.17430517 0.65474194 0.74598879 0.29672691 -0.59619957 0.017202087
0.13732348 -0.31029388 0.67674345 0.95092934 0.091675773 -0.29551467 0.031363823
0.061835479 -0.29180509 0.60224313 0.63334435 0.030761626 -0.77325851 0.00013172034
0.044378847 -0.32483354 0.58672267 0.59931302 0.035075076 -0.79974604 0.00025808162
0.096202962 -0.43987653 0.61651915 0.72923362 0.11711699 -0.67416751 0.0048570954
0.042883966 -0.14554505 0.60872906 0.40998963 0.63605672 -0.65371281 0.031524088
-0.025554327 -0.14066122 0.60364699 -0.17303286 0.90565157 -0.38711101 0.023182947
-0.018672237 -0.41713995 0.55671626 -0.12672885 -0.287925 -0.94923073 0.059227716
-0.059926532 -0.14397977 0.76442832 -0.41512272 0.78312147 0.46302691 0.035321597
0.10776097 -0.27371234 0.64744759 0.73986918 0.036231831 -0.67177445 0.00083600526
0.10335943 -0.14578702 0.65924996 0.56476051 0.75101388 -0.3420873 0.042106137
0.018608652 -0.14582114 0.5912056 0.26083291 0.74734962 -0.61109304 0.030479858
-0.01446524 -0.31424308 0.55145085 -0.097211741 0.014279246 -0.99516124 0.029407633
-0.026990207 -0.15295549 0.57699448 -0.27532265 0.605488 -0.746714 0.059857503
-0.11588582 -0.15043718 0.67461473 -0.65891063 0.68535525 -0.31004018 0.038558867
-0.016852308 -0.3205575 0.55111611 -0.13418098 0.024159467 -0.99066234 0.02912844
-0.07771451 -0.14653656 0.62894511 -0.55525404 0.6831367 -0.47435981 0.026150903
-0.10439353 -0.38115591 0.62678945 -0.76967758 0.0070023863 -0.63839436 0.00068353204
-0.020466827 -0.15573353 0.5685752 -0.2251869 0.57064629 -0.78971744 0.059136916
-0.013104423 -0.19890209 0.5549435 -0.10360047 0.14275542 -0.98432094 0.04391079
-0.12148578 -0.39036283 0.64843398 -0.85184908 0.0059630293 -0.52375346 0.0055190129
-0.028663056 -0.248789 0.55768371 -0.1984342 0.070700809 -0.97756094 0.032014363
-0.12343828 -0.3633 0.65381271 -0.866687 0.017237442 -0.4985545 0.0041128453
0.086427458 -0.13488036 0.66129333 0.35891569 0.90488142 -0.22884309 0.027834458
-0.013246831 -0.27096286 0.55418569 -0.061329696 0.048870523 -0.99692035 0.035638407
-0.019311287 -0.25501841 0.55294693 -0.084090233 0.073884152 -0.99371517 0.035410326
0.073908277 -0.14062709 0.63499773 0.35331681 0.81992656 -0.4504306 0.046073832
-0.089364767 -0.2025691 0.61790603 -0.75499344 0.13890123 -0.64085209 0.0012999858
-0.025698679 -0.28810111 0.55677998 -0.27455077 0.018158145 -0.96140116 0.041198961
-0.12278805 -0.3260054 0.65362573 -0.87983674 0.024861582 -0.47462532 0.0050487928
-0.093287759 -0.36100322 0.61476529 -0.75091839 0.015944216 -0.66020256 0.00044520255
-0.12086074 -0.16601011 0.67653537 -0.80953646 0.45692393 -0.36860713 0.037407342
0.0031401608 -0.14868882 0.81143117 -0.057819165 0.60791397 0.79189503 0.074133247
-0.024001382 -0.36968657 0.55373257 -0.30053538 0.015987543 -0.95363671 0.029250778
-0.13710795 -0.18964905 0.69242716 -0.9617576 0.17618187 -0.2097196 0.023840483
-0.041660711 -0.14695862 0.59113365 -0.45172438 0.68565822 -0.57080454 0.034540247
-0.13593586 -0.32324034 0.68953288 -0.99412882 -0.012596243 -0.10746752 0.022850232
-0.03403461 -0.38108048 0.55984843 -0.50014418 -0.058485888 -0.86396486 0.011341142
-0.054653928 -0.26295936 0.57710499 -0.60536158 -0.0020238804 -0.79594797 0.003699515
-0.10074447 -0.18295865 0.63641638 -0.76343894 0.27776513 -0.58310163 0.0091107953
-0.081224129 -0.3415716 0.60172516 -0.72810799 0.01939147 -0.68518811 0.00031652424
-0.0457353 -0.23821293 0.57046479 -0.50902367 0.043430414 -0.85965616 0.013373462
-0.083327137 -0.3697207 0.60345918 -0.72656661 -0.0048063761 -0.68707919 0.00040679827
-0.022938099 -0.16312182 0.56474227 -0.25620347 0.45760512 -0.85144424 0.059007205
-0.061507467 -0.40605605 0.58413136 -0.65788102 -0.061741319 -0.75058687 0.0012639739
-0.017077105 -0.34054348 0.55052871 -0.080041982 0.00023804806 -0.99679142 0.033660702
-0.023331149 -0.34638387 0.5529936 -0.28232193 0.023167795 -0.95903993 0.037065551
-0.050195444 -0.3366901 0.57207483 -0.58411378 0.017896144 -0.81147444 0.0047397297
-0.045569327 -0.22119883 0.57159585 -0.5213387 0.064623185 -0.85089946 0.015590294
-0.11383027 -0.26585948 0.644283 -0.82845473 0.020634975 -0.55967569 0.0016307224
-0.096287727 -0.20725882 0.62557238 -0.77651203 0.1076728 -0.62083465 0.00075330242
-0.066705525 -0.35183966 0.58634233 -0.68605024 0.0021750336 -0.72755092 0.0010854022
-0.14002448 -0.26867661 0.70736653 -0.98937124 -0.015585932 0.14457397 0.026084056
-0.017939808 -0.30084139 0.55224895 -0.066682205 0.0095281554 -0.99772877 0.035655092
-0.13692249 -0.16920762 0.70731509 -0.92282611 0.38229424 0.047361262 0.060889855
-0.045624487 -0.29658917 0.56922317 -0.55084401 0.038371049 -0.83372563 0.0093328403
-0.060923383 -0.17482807 0.59345096 -0.63735551 0.37222487 -0.67470485 0.013321312
0.031046256 -0.14100957 0.61000687 0.30551919 0.80420375 -0.50981796 0.040578466
0.0036910437 -0.14625406 0.58457077 0.20407791 0.74856132 -0.63087887 0.040321611
-0.026325129 -0.36431718 0.55463439 -0.30932617 0.024014231 -0.95065272 0.033685409
-0.11101604 -0.23026733 0.64217329 -0.81347585 0.059338924 -0.57856363 0.0010662174
-0.057052743 -0.16095199 0.59306258 -0.59005553 0.48634171 -0.6444425 0.020169342
-0.12280557 -0.222387 0.65990877 -0.86097831 0.075483419 -0.50300962 0.0029644389
-0.12277447 -0.22451174 0.65958148 -0.86100096 0.072334319 -0.50343335 0.0028348912
-0.054450437 -0.22789818 0.57811785 -0.6159243 0.051076654 -0.78614783 0.0034511487
-0.1257311 -0.15880255 0.68412334 -0.78640646 0.55436069 -0.27248678 0.046180908
-0.12933393 -0.32263938 0.66320568 -0.91789621 0.023619607 -0.39611685 0.0068841157
-0.050653778 -0.16465978 0.58912337 -0.58272785 0.46856973 -0.66398096 0.022208793
-0.076954708 -0.17507914 0.60928267 -0.70348471 0.32646966 -0.63128978 0.010413115
0.055353247 -0.13258213 0.73274612 0.1725001 0.96431863 0.20083182 0.009060896
-0.043158624 -0.13229603 0.71932566 -0.14671941 0.98492587 0.091620907 0.0014384798
-0.056286532 -0.16567177 0.5915193 -0.60077 0.43783951 -0.66885871 0.019485107
-0.017354934 -0.18465553 0.55768108 -0.21054591 0.22630112 -0.95103014 0.047938578
-0.13784611 -0.31968784 0.69489378 -0.99939108 -0.024380865 0.024960013 0.027761023
-0.13649154 -0.41477522 0.69150138 -0.99666679 0.0810211 0.0095319292 0.029242814
-0.099786445 -0.4124411 0.6227656 -0.75484848 -0.037896473 -0.65480351 0.00065928616
-0.069884889 -0.25741947 0.59315717 -0.69799477 0.028264439 -0.71554482 0.0008701859
-0.10281944 -0.38100389 0.62494504 -0.76540983 0.0044773268 -0.64352757 0.00065665838
-0.037737753 -0.37603706 0.5627178 -0.52209908 -0.042873457 -0.85180658 0.010407274
-0.12284704 -0.21179752 0.66106606 -0.86546105 0.12168808 -0.48597234 0.0034519744
-0.061135616 -0.20582975 0.58613211 -0.67247516 0.14069629 -0.72662354 0.0026752765
-0.063162498 -0.36565611 0.58269697 -0.66516054 -0.027216762 -0.74620426 0.001401175
-0.14061661 -0.20714104 0.70104921 -0.99547797 0.042743701 -0.084832169 0.031051539
-0.033108372 -0.26284128 0.56109071 -0.35339352 0.036055189 -0.93477964 0.034684952
-0.11671147 -0.23193555 0.64998752 -0.84315044 0.050471853 -0.53530347 0.002168081
-0.016576035 -0.14368799 0.79578882 -0.30696484 0.74536264 0.59178311 0.033979837
-0.024187526 -0.15595892 0.57309794 -0.2631245 0.56695575 -0.78059375 0.05927353
-0.098875955 -0.17075208 0.64006835 -0.71197343 0.40235212 -0.57550544 0.018111385
-0.018258661 -0.28603131 0.55409437 -0.10455766 0.045489833 -0.993478 0.035951812
-0.044114072 -0.40656462 0.5703243 -0.50984621 -0.22105467 -0.83137947 0.026264749
0.023910666 -0.12968957 0.73020166 0.049610954 0.99418938 0.095530912 0.0018008921
-0.094504274 -0.2949464 0.61878014 -0.75866169 0.036006443 -0.65048903 0.0003198777
-0.066877052 -0.30461654 0.58778417 -0.6893909 0.028215403 -0.72383976 0.0010432852
-0.13357008 -0.34801179 0.67467248 -0.95613378 0.0085763289 -0.29280469 0.0097762262
-0.12732205 -0.15213223 0.68275011 -0.76471347 0.59239769 -0.25353172 0.045007259
-0.10252259 -0.18482947 0.63693309 -0.77672684 0.24270403 -0.58119714 0.0066022966
0.11550485 -0.38757169 0.65499419 0.78989905 -0.1100206 -0.6032868 0.0069001871
-0.13777812 -0.21806169 0.69182193 -0.98534775 -0.035864651 -0.16674383 0.02834967
-0.032921266 -0.24461088 0.56008625 -0.35320643 0.068272643 -0.93305093 0.024335554
-0.12339936 -0.22863288 0.66044545 -0.86586416 0.057697948 -0.49694091 0.0031018248
0.073325001 -0.13369305 0.72039992 0.30465859 0.93819809 0.16421741 0.017811971
0.097523324 -0.13769093 0.6975767 0.49097061 0.86483324 0.10493529 0.034174595
-0.11762853 -0.16105831 0.66790104 -0.75174254 0.49875388 -0.4314253 0.032435935
-0.049379293 -0.19578514 0.57760972 -0.58544159 0.18090728 -0.79027253 0.0068483148
0.010644423 -0.20251553 0.57191837 0.44948864 0.15965949 -0.87890208 0.018131176
-0.014037822 -0.26371831 0.55424392 -0.047570586 0.050400205 -0.99759549 0.036780454
-0.016722813 -0.15037039 0.57249492 -0.11511099 0.66442776 -0.73843426 0.061521158
-0.024747208 -0.27244574 0.55607802 -0.24110129 0.038086612 -0.96975231 0.0363863
-0.092589408 -0.39133441 0.61397803 -0.73867321 -0.019539868 -0.67378038 0.00069034309
0.018072719 -0.12923901 0.65672255 0.03031202 0.99304879 -0.11373328 0.0017479061
-0.10040404 -0.1558819 0.6444065 -0.6422314 0.57193041 -0.51032788 0.022208543
-0.11086424 -0.16014288 0.66071188 -0.70356685 0.51744956 -0.48707262 0.027247775
-0.0017826301 -0.33922103 0.55569899 0.094362207 -0.013706281 -0.99544352 0.033344526
-0.14033125 -0.27672163 0.70048481 -0.99656177 0.0046396349 0.082723103 0.025562048
-0.031484786 -0.1899491 0.56512266 -0.38654861 0.19441266 -0.90154529 0.032414135
-0.095417224 -0.1790912 0.63129777 -0.73019964 0.33474162 -0.59561437 0.010753509
-0.022801662 -0.30218834 0.55417711 -0.15509726 -0.012767661 -0.98781669 0.034518246
-0.011249204 -0.30668601 0.55301923 -0.0029209314 0.02086816 -0.99977797 0.030702706
0.045400698 -0.33795658 0.58738589 0.59305882 0.025265904 -0.8047626 0.0003953003
-0.063246384 -0.4031159 0.58502787 -0.66104209 -0.061780587 -0.74780118 0.0010434559
0.031938359 -0.12878858 0.66169649 0.048454527 0.99258357 -0.11148968 0.0021221591
-0.073681302 -0.36636719 0.59330046 -0.70810056 -0.005489755 -0.70609021 0.00058398646
-0.13561651 -0.19045506 0.6932838 -0.96280944 0.17293878 -0.20758159 0.023487505
-0.12415463 -0.29968679 0.65722865 -0.88226032 0.0080541437 -0.47069293 0.0049117617
-0.09341757 -0.14146818 0.72686064 -0.37082177 0.87659085 0.30672428 0.025321964
-0.047142863 -0.2011413 0.57428133 -0.56269282 0.15042773 -0.81286424 0.0097982381
-0.014679238 -0.15628527 0.5627653 -0.073456705 0.55010468 -0.83185875 0.063364752
-0.040552665 -0.14324753 0.5944168 -0.41718823 0.73705107 -0.53170455 0.036443595
-0.13172121 -0.40118751 0.67102671 -0.94942421 0.0081569022 -0.31389028 0.012648375
0.070936687 -0.3555418 0.60707277 0.63260841 0.052491128 -0.77269101 0.0002554307
-0.10199835 -0.4073126 0.62502754 -0.76315397 -0.023958424 -0.6457724 0.0012618854
-0.13134402 -0.37111291 0.67307603 -0.94916588 0.0046222718 -0.31474233 0.0065053096
-0.12648116 -0.34653503 0.65867293 -0.89543968 0.036310952 -0.44369954 0.0056194756
-0.10978816 -0.16423686 0.65624601 -0.72588283 0.45863229 -0.5125919 0.027472718
-0.11819777 -0.17799154 0.6620003 -0.82639849 0.27058029 -0.49381348 0.014221157
-0.11830521 -0.35080466 0.64605546 -0.85867637 0.015369337 -0.51228768 0.0039864699
-0.063170031 -0.1453606 0.6141724 -0.49702758 0.73285264 -0.46464041 0.028190762
-0.023028396 -0.32902411 0.55375224 -0.24304391 0.01218789 -0.9699387 0.03004265
-0.074861661 -0.17015496 0.60852987 -0.67752284 0.36803403 -0.63679957 0.012741383
-0.13900951 -0.17425504 0.70505279 -0.95574564 0.2920917 -0.035108775 0.043971747
-0.01359437 -0.23458435 0.55533409 -0.084831946 0.056283474 -0.99480426 0.039496593
-0.03105454 -0.2432386 0.55999833 -0.30933344 0.06746342 -0.94855762 0.032301787
-0.062534623 -0.29244149 0.58335197 -0.6628896 0.044671889 -0.7473833 0.0025008128
-0.14139351 -0.18424104 0.70214862 -0.9729411 0.2080749 -0.10045107 0.032254335
-0.027244532 -0.38898152 0.55423421 -0.24377011 -0.11134318 -0.96342033 0.034496646
0.076125138 -0.13528183 0.72803628 0.36490884 0.90523535 0.21769366 0.020331835
-0.019762278 -0.13898449 0.60521173 -0.13459457 0.91366255 -0.38354293 0.022386568
-0.13687886 -0.17044662 0.70203376 -0.93350857 0.3548511 -0.051403463 0.054408584
-0.11748142 -0.15791021 0.67267388 -0.73712242 0.5616709 -0.37573442 0.036801431
-0.12103655 -0.17077884 0.67292041 -0.83261865 0.38661498 -0.396579 0.028385032
-0.084176056 -0.1516908 0.6304996 -0.57296014 0.66373515 -0.48080379 0.028876077
-0.087026916 -0.156011 0.63235599 -0.62440914 0.57871056 -0.52460212 0.029113613
-0.00068125688 -0.23702925 0.55811471 0.1102572 0.054857943 -0.99238801 0.037933204
-0.021935606 -0.24147122 0.55405062 -0.18914752 0.066264123 -0.97971028 0.033872843
-0.055694003 -0.20640454 0.58149463 -0.6531049 0.12970315 -0.74607706 0.0033317639
-0.056169569 -0.36854061 0.57690293 -0.61844981 -0.018241974 -0.78561258 0.0031187001
-0.10965875 -0.15065005 0.66498864 -0.6224339 0.66737592 -0.40888298 0.037878349
-0.12557507 -0.20188372 0.66431218 -0.8680498 0.13128749 -0.47880396 0.0035879237
-0.1353666 -0.17836346 0.69019878 -0.9425078 0.25068972 -0.22098351 0.029580321
-0.051986668 -0.21044613 0.57684064 -0.59999996 0.11127812 -0.79222298 0.0045710825
-0.11283676 -0.26618496 0.64289457 -0.82001382 0.018980624 -0.57202893 0.0015002649
-0.13410982 -0.23940551 0.68140632 -0.95514333 -0.0071918312 -0.29605666 0.014718615
-0.07595741 -0.30823421 0.59749544 -0.72035623 0.022579977 -0.69323665 0.00066708261
-0.048876964 -0.17792687 0.57969153 -0.57124591 0.32385531 -0.75418556 0.014538115
-0.051403701 -0.17017242 0.58506894 -0.59678125 0.41543058 -0.68649077 0.017658208
-0.052564971 -0.15853764 0.59467053 -0.58058178 0.50549406 -0.6382795 0.02260774
-0.02429211 -0.20435618 0.55704194 -0.28113371 0.11742224 -0.95245779 0.036193896
-0.031952452 -0.27954084 0.55945295 -0.36022225 0.024058456 -0.93255621 0.035214379
-0.099408917 -0.3258982 0.62270451 -0.7687152 0.03201817 -0.6387893 0.00049383298
-0.06941019 -0.34331879 0.58906788 -0.70038003 0.0081783524 -0.71372336 0.00068176596
-0.10410768 -0.32434002 0.62835711 -0.78792095 0.037374604 -0.61464107 0.0014062236
-0.096425317 -0.26788777 0.62310088 -0.76242971 0.038657177 -0.64591521 0.00020135615
-0.016228786 -0.18872614 0.55488652 -0.1554888 0.19922782 -0.96753889 0.046716899
-0.047471404 -0.23107421 0.57217282 -0.5458141 0.048136752 -0.83652246 0.012235536
-0.12731931 -0.26671776 0.66270304 -0.90131128 0.0020639847 -0.43316695 0.0039184964
-0.068921112 -0.16731144 0.60400057 -0.64834505 0.41586441 -0.63773465 0.017406609
-0.11170109 -0.16778892 0.65810275 -0.75648248 0.41641569 -0.50431353 0.026126778
-0.1265333 -0.20848744 0.66771817 -0.89279324 0.115902 -0.43530107 0.005822368
-0.14057836 -0.28569984 0.69867307 -0.99797398 0.014364555 0.061980352 0.026423478
-0.086490951 -0.26851943 0.61113179 -0.75443983 0.037164282 -0.65531629 0.00026870839
-0.02066662 -0.33332443 0.55241615 -0.20552504 0.0041632503 -0.978643 0.032241866
-0.10694968 -0.39880547 0.6309253 -0.78871953 -0.020626102 -0.61440706 0.002277829
-0.12937659 -0.27160335 0.66766405 -0.91884989 0.0067189937 -0.39455017 0.0050359331
-0.1383747 -0.35140458 0.69011718 -0.99421644 -0.0041108723 -0.10731552 0.019242365
-0.11845631 -0.15382342 0.6696102 -0.71568245 0.58266598 -0.38509601 0.034545012
-0.080003336 -0.1686198 0.61590129 -0.70233512 0.3740229 -0.60566688 0.012818178
0.0064778379 -0.28018704 0.56275874 0.33265018 0.063139997 -0.94093418 0.023149874
-0.032609921 -0.22998461 0.56074619 -0.36035171 0.056575291 -0.9310993 0.029462894
-0.11367345 -0.35751787 0.63924992 -0.82789636 0.019049371 -0.56055748 0.0035909847
-0.037252765 -0.18508901 0.5691604 -0.44403535 0.23955986 -0.86339074 0.024386186
-0.13418734 -0.16113698 0.70000654 -0.8773427 0.47377327 -0.076214708 0.066707395
0.010416322 -0.40888384 0.56378007 0.29749149 -0.080149382 -0.95135427 0.018314477
0.010175286 -0.31192324 0.56306642 0.37437433 0.034358915 -0.92664093 0.014104907
-0.14219315 -0.20254758 0.70357037 -0.99676621 0.06829939 -0.042335637 0.027871829
-0.046868924 -0.33753932 0.56884402 -0.55840325 0.023686832 -0.82923144 0.0075304364
-0.093067504 -0.3329218 0.61558264 -0.75510597 0.026576145 -0.65506387 0.00031975901
-0.019014291 -0.20338014 0.5545131 -0.22101718 0.11649376 -0.96828753 0.040478114
-0.13942853 -0.38068834 0.69296551 -0.99967104 -0.0030857804 -0.025461132 0.021076828
-0.11634007 -0.23913515 0.64900011 -0.83612311 0.034309737 -0.54746789 0.0015521765
-0.052641749 -0.18662561 0.58191323 -0.61127162 0.23697612 -0.75510877 0.0062565021
-0.12687823 -0.40347421 0.65528834 -0.88748962 -0.04821549 -0.45829847 0.0080825239
-0.01747163 -0.17548215 0.55823505 -0.1675296 0.31963891 -0.93261182 0.059088018
-0.019690318 -0.27014807 0.55289769 -0.10533674 0.043074422 -0.99350327 0.031110426
-0.027962536 -0.37760106 0.55513531 -0.33758792 -0.033155154 -0.94070989 0.029199539
-0.080959819 -0.29352522 0.60328346 -0.72924542 0.027030112 -0.68371814 0.00048119173
-0.073983006 -0.27391857 0.59637815 -0.71832561 0.02264872 -0.69533825 0.0010611654
-0.11464777 -0.39745572 0.63858765 -0.82900399 -0.0030313053 -0.55923444 0.0046502505
-0.036914852 -0.19307232 0.56709886 -0.43164417 0.17779417 -0.88434869 0.023673076
-0.06208216 -0.27719066 0.58294839 -0.64875895 0.0095163779 -0.76093447 0.0023509751
-0.044285916 -0.14283355 0.59537601 -0.43937746 0.72782284 -0.52651823 0.032595154
-0.13535529 -0.15969555 0.70341504 -0.87119794 0.49092776 -0.0020383769 0.069097631
-0.07576663 -0.1496361 0.62663871 -0.56255257 0.67534387 -0.47691229 0.025293125
-0.13544759 -0.36809254 0.68279004 -0.9762544 -0.013705282 -0.21619332 0.014959519
-0.076183565 -0.21423654 0.6010499 -0.72431952 0.097968191 -0.68246865 0.001073653
-0.075409375 -0.18580233 0.60455728 -0.71153772 0.25323519 -0.65542805 0.0049013556
0.052812003 -0.13828316 0.76542586 0.28606001 0.89808762 0.3340784 0.02430593
-0.01127838 -0.15087812 0.57263708 0.014674152 0.67270261 -0.73976743 0.059438385
-0.017104352 -0.14838761 0.56767213 -0.11656979 0.65023196 -0.75073957 0.063093223
-0.074688949 -0.14291297 0.63612825 -0.48564595 0.77668375 -0.40113646 0.029253287
-0.02691561 -0.14932521 0.57543349 -0.26696572 0.63529694 -0.72465652 0.056136239
-0.13778174 -0.17837082 0.69739854 -0.95560288 0.24302392 -0.16662069 0.033422276
-0.12843822 -0.15467894 0.68603921 -0.76480246 0.60049212 -0.23342328 0.049341612
-0.096139595 -0.15310273 0.64337534 -0.63605034 0.59179205 -0.49519914 0.024356253
-0.037759878 -0.22573996 0.56356704 -0.4265655 0.070227973 -0.90172607 0.021209313
-0.13215424 -0.34424543 0.67509633 -0.9574309 0.022216665 -0.2878063 0.0090780593
-0.040058073 -0.36999804 0.56294215 -0.52838999 -0.023286344 -0.84868234 0.011652892
-0.044659983 -0.34755909 0.56629348 -0.54513836 0.039737239 -0.83740377 0.0084297368
-0.08303687 -0.18581963 0.61416954 -0.72413474 0.2535933 -0.64134187 0.0043986789
-0.12707186 -0.31870541 0.66019803 -0.9035635 0.010219451 -0.42833227 0.0055677383
-0.12407964 -0.37081173 0.65327674 -0.86944216 0.015181151 -0.49380144 0.0042501213
-0.092729561 -0.35564145 0.61420089 -0.74619943 0.01816047 -0.66547477 0.00040502139
-0.066467896 -0.17739545 0.5955776 -0.66899538 0.32338518 -0.66922879 0.010441672
-0.024938807 -0.18415256 0.55995429 -0.29859447 0.22688839 -0.92701828 0.041762669
-0.11693487 -0.1912196 0.65383077 -0.82781774 0.16551554 -0.53602469 0.0025806685
-0.032377142 -0.15670839 0.57541072 -0.35712284 0.54670203 -0.7573508 0.053546399
-0.057023361 -0.29870662 0.57809973 -0.61196578 0.037634455 -0.78998828 0.0033274796
-0.13237116 -0.24965218 0.67187768 -0.9318096 0.0095339147 -0.36282226 0.0094644846
-0.0084962538 -0.41240421 0.55537552 0.11719883 -0.12106589 -0.9857015 0.036592394
-0.10292919 -0.35428607 0.62638009 -0.77060264 0.021514295 -0.63695264 0.00063692033
-0.019606791 -0.3853482 0.55211681 -0.092700802 -0.080806017 -0.99240965 0.033495605
-0.11365422 -0.30413035 0.64116138 -0.82196802 0.029373076 -0.56877577 0.0018343811
-0.13543399 -0.33770779 0.6808781 -0.97011775 0.028327778 -0.24097532 0.013894275
-0.064253166 -0.20077841 0.58924055 -0.69105417 0.14316896 -0.70848209 0.002278008
-0.13056691 -0.28883094 0.67003572 -0.94405299 0.0037007846 -0.32977298 0.0091999462
-0.11709356 -0.36423472 0.64310253 -0.84336692 0.015745893 -0.53710735 0.003466422
-0.076368839 -0.37047821 0.59567815 -0.7112996 -0.0073422203 -0.70285058 0.00053757074
-0.11608844 -0.31234452 0.64352626 -0.84372455 0.022325674 -0.53631186 0.0024036628
-0.11459752 -0.37526941 0.63901895 -0.83013469 0.0046032905 -0.55754393 0.0037853222
-0.1063875 -0.26218456 0.63513154 -0.79938722 0.025252517 -0.60028529 0.00071729824
-0.10250156 -0.36826715 0.62517065 -0.77351922 0.014906089 -0.63359767 0.0006480079
-0.026092261 -0.33518553 0.55352873 -0.30063963 0.0092419367 -0.95369303 0.026863152
-0.056914717 -0.32775265 0.57819444 -0.63473934 0.01933147 -0.77248442 0.0019634392
-0.068708926 -0.39814568 0.58745414 -0.6755147 -0.060313512 -0.73487562 0.00078697532
-0.066284381 -0.2336131 0.58941293 -0.69444543 0.037402064 -0.71857268 0.0010575007
-0.11917703 -0.40606654 0.64409649 -0.83806276 -0.014086418 -0.54539198 0.0058940053
-0.032967404 -0.3543939 0.55754721 -0.42903522 0.052018356 -0.90178877 0.02464493
-0.078653127 -0.40851837 0.60053539 -0.69746953 -0.070627712 -0.71312541 0.0010718745
-0.12944631 -0.26214555 0.66753709 -0.91409111 0.0095152399 -0.40539718 0.0050741844
-0.070965134 -0.29334012 0.59202868 -0.70688266 0.026070666 -0.70685017 0.001029901
-0.11063036 -0.25276431 0.64017481 -0.81550878 0.019885626 -0.57840294 0.0013549469
-0.13400348 -0.3238526 0.67816186 -0.96195865 0.020924931 -0.27239254 0.010155245
-0.082518645 -0.27520743 0.60636353 -0.74701864 0.033851188 -0.66394067 0.00031227749
-0.13451146 -0.38332435 0.6687094 -0.94442886 -0.005762124 -0.32866541 0.0080293138
-0.061687779 -0.18692119 0.58969951 -0.67107213 0.23220223 -0.70409119 0.0059453892
-0.13222225 -0.36967027 0.66903007 -0.94821721 0.0067651467 -0.31755075 0.0067208083
-0.10394519 -0.35547897 0.62746775 -0.77524233 0.017386785 -0.63142455 0.00080004736
-0.062669188 -0.1424312 0.62582177 -0.45368919 0.78332824 -0.42492706 0.028348269
-0.019300183 -0.35727257 0.55246985 -0.22031757 0.023891147 -0.97513556 0.039979514
0.020092817 -0.14098704 0.60471147 0.19286749 0.8558566 -0.4799079 0.028656399
0.016534224 -0.13095237 0.75180423 0.052716251 0.98346758 0.17324106 0.0025797843
-0.1407683 -0.20704114 0.71048003 -0.99135303 0.037167426 0.12584805 0.027917853
-0.0437929 -0.14481865 0.78063256 -0.42419958 0.73212993 0.53295445 0.032278519
-0.13952881 -0.21367566 0.71144432 -0.99594808 0.0082247108 0.089553148 0.028689256
-0.10542551 -0.14698517 0.7288413 -0.47094634 0.80606002 0.35843658 0.032543551
-0.070572428 -0.14157057 0.6409983 -0.43182942 0.82463211 -0.3653838 0.026379351
-0.054802485 -0.13720407 0.64581591 -0.24654022 0.95388538 -0.17123261 0.0080495859
0.0021179907 -0.13064319 0.74566364 -0.04586339 0.99056178 0.12916616 0.001622638
0.053758383 -0.12848514 0.6708169 0.114144 0.98933816 -0.090449944 0.0043161223
0.079799049 -0.13273412 0.67041367 0.29241908 0.94601363 -0.13981873 0.017963039
-0.042522471 -0.21003547 0.80798417 -0.55181694 0.094319589 0.82861447 0.0023905046
0.045446828 -0.14048389 0.61807555 0.30195343 0.83129984 -0.46665257 0.045386191
-0.076176338 -0.14619325 0.75815827 -0.42266679 0.74513072 0.51588076 0.034573305
-0.1370354 -0.37531713 0.70272833 -0.99175113 -0.015567245 0.1272295 0.017431058
-0.076617301 -0.26349187 0.78352958 -0.63712078 0.01384621 0.7706396 0.00022150947
0.0037311024 -0.31358796 0.8332752 -0.10786269 0.0070749586 0.99414057 0.038881041
-0.037930403 -0.13003756 0.69230616 -0.11889976 0.99290001 0.0035148868 0.0013480249
-0.03145773 -0.18230879 0.81162238 -0.48443985 0.25982884 0.83534843 0.0073128245
0.0095401416 -0.27419466 0.83254683 0.06605906 -0.036071137 0.99716353 0.039079059
-0.026938006 -0.23390606 0.81874418 -0.45328665 0.022570424 0.89107901 0.0053292406
-0.13458706 -0.16725408 0.70996946 -0.89889443 0.42135295 0.12021008 0.065679535
-0.1218372 -0.29853889 0.7409243 -0.83775157 -0.0007768714 0.54605103 0.0059699095
-0.064042635 -0.22847414 0.79305327 -0.60675776 0.054215852 0.79303575 0.00066113542
-0.12360057 -0.30253357 0.73829997 -0.85343081 -0.012622094 0.52105343 0.0082430793
-0.064184651 -0.32518589 0.79469126 -0.61710608 0.0092842337 0.78682524 0.00074570527
-0.1095816 -0.20455496 0.75108838 -0.73234719 0.096831992 0.67401123 0.0024674744
-0.023395797 -0.13984656 0.60352319 -0.15066388 0.90988159 -0.38654354 0.022270234
-0.088792771 -0.14289197 0.73283297 -0.34367388 0.87492645 0.34116274 0.02354821
-0.0077156229 -0.23576826 0.8293469 -0.29296193 0.051499922 0.95473611 0.013059611
-0.1000148 -0.16951855 0.75530994 -0.62881941 0.39901969 0.66736007 0.017353093
-0.12522696 -0.3858259 0.73179603 -0.88219601 -0.040294785 0.4691551 0.0087802708
0.0079052383 -0.35696277 0.83307171 -0.042071469 -0.068126932 0.99678916 0.02841028
-0.082199521 -0.19926415 0.77541733 -0.62958813 0.13817865 0.76454264 0.0016530989
-0.099697739 -0.14534691 0.73294938 -0.44771659 0.80133277 0.3967565 0.030403005
-0.085913144 -0.1568881 0.76226431 -0.54852611 0.53760356 0.64039165 0.029056557
-0.10630991 -0.32856089 0.75750297 -0.73948199 -0.0032757146 0.67316848 0.0019637304
-0.12578383 -0.23946635 0.73201394 -0.86207461 0.033836912 0.50565046 0.010564907
-0.022575622 -0.29759517 0.82202584 -0.41331512 0.044465162 0.90950179 0.0050767041
-0.084939271 -0.40673056 0.77743465 -0.68335658 -0.010275369 0.73001254 0.0009270669
-0.12517682 -0.31679901 0.73576123 -0.87977213 -0.044380698 0.47331941 0.010748427
-0.12341131 -0.28835225 0.73806113 -0.83326012 0.0089989891 0.55280787 0.0046026334
-0.062140647 -0.13427487 0.67723632 -0.19673683 0.97825009 -0.065736398 0.0022847366
-0.011875179 -0.12876481 0.66654605 -0.057257444 0.99730277 -0.045921911 0.0014664859
-0.12397408 -0.27799761 0.73695612 -0.83128673 -0.0012660627 0.55584234 0.0043512541
-0.14079377 -0.28047815 0.70760745 -0.98901588 0.0090485625 0.14753193 0.024386354
-0.13183139 -0.20793249 0.72442371 -0.88733703 0.065938264 0.45638263 0.020662824
0.0073377523 -0.14473523 0.80457807 0.095073275 0.7531395 0.6509546 0.072204448
-0.0023939917 -0.18781912 0.82829881 -0.17592542 0.1808379 0.96765071 0.020955944
-0.10774557 -0.20032752 0.75281423 -0.71330506 0.11758333 0.69091976 0.0025884712
-0.099655047 -0.28760317 0.76413161 -0.71139586 0.016906328 0.70258814 0.00058046076
-0.11124236 -0.4122766 0.75088841 -0.75416887 -0.020690313 0.65635443 0.0023266317
-0.041640628 -0.29246929 0.81105959 -0.5401445 0.017725723 0.84138554 0.001190014
-0.063249215 -0.34796688 0.79573989 -0.61950129 0.0084296549 0.78495044 0.00084361492
-0.018532131 -0.26273435 0.82380188 -0.37677318 0.025343791 0.92595881 0.0082206568
0.0051975534 -0.14654924 0.80969125 0.025103875 0.65072763 0.75889611 0.074561134
-0.016121559 -0.3781203 0.82600754 -0.34567025 -0.036965013 0.93762767 0.0117996
-0.12137617 -0.31633058 0.74134338 -0.83527803 -0.014713341 0.54963082 0.0075369515
-0.0042909589 -0.41040391 0.82566416 -0.21163376 -0.065351814 0.97516167 0.019360678
-0.096007362 -0.36887926 0.7675156 -0.70428187 -0.0040878654 0.7099086 0.0015071962
-0.044409022 -0.41055 0.80864918 -0.50950068 -0.10238598 0.85435718 0.0027455499
-0.13735357 -0.30928546 0.70968336 -0.97187138 -0.061454747 0.22735298 0.023677468
-0.12143326 -0.15118867 0.71715564 -0.67268467 0.71941936 0.1730063 0.066439793
-0.056829859 -0.26256624 0.7996819 -0.59195215 0.016017027 0.80581391 0.00068455486
-0.11979327 -0.22048317 0.74190348 -0.80295283 0.06410072 0.59258574 0.0025128077
-0.030107766 -0.32506093 0.8186366 -0.48708233 -0.00031148744 0.87335604 0.0034664983
-0.12668601 -0.16599402 0.7219165 -0.83111942 0.41889811 0.36573872 0.061835453
-0.041202925 -0.13103037 0.71128821 -0.12290946 0.99064571 0.05928218 0.001326278
-0.056963407 -0.18858258 0.79401165 -0.56671852 0.24278802 0.78732723 0.003386488
0.0001011541 -0.30938205 0.83261156 -0.15787353 0.015820922 0.98733264 0.039576944
-0.097223453 -0.27992418 0.76616448 -0.69569534 0.0068665612 0.71830428 0.00066824089
-0.11745181 -0.32336709 0.74521238 -0.80807948 -0.018092332 0.5887956 0.005523847
0.013055784 -0.22447288 0.83313972 -0.046852365 0.080376707 0.99566287 0.036319032
-0.085935898 -0.25134778 0.77552909 -0.65630549 0.02158469 0.75418651 0.00041115616
-0.068202242 -0.39624342 0.7919969 -0.61810201 -0.017762356 0.78589714 0.00085861195
-0.04313422 -0.30711684 0.81069607 -0.54173291 0.014620655 0.84042352 0.0015169779
-0.078298129 -0.29820931 0.78275084 -0.6438536 0.0068101436 0.76511842 0.00034554987
-0.11193136 -0.39009658 0.75070101 -0.76760721 -0.016112352 0.64071798 0.0036557396
-0.12199921 -0.14806421 0.70280361 -0.65083832 0.75918537 -0.0068563214 0.061200731
-0.062375724 -0.33063853 0.79647213 -0.61225837 0.010295503 0.7905907 0.00080779899
-0.12652452 -0.24177322 0.73091394 -0.88511544 0.020065324 0.46493891 0.015552598
-0.081225179 -0.39933711 0.78071243 -0.66263705 -0.033644114 0.74818462 0.00090864365
-0.121838 -0.27485457 0.74003839 -0.81982297 -0.0014070271 0.57261533 0.0053406516
-0.10887313 -0.14652431 0.71660316 -0.47279233 0.86923641 0.14455265 0.041155864
-0.13602699 -0.17125183 0.71063673 -0.92117763 0.36699954 0.12939548 0.057418231
-0.12312828 -0.14968807 0.68888217 -0.68150485 0.71410066 -0.16003573 0.049801152
-0.12239822 -0.15881407 0.72388375 -0.73745316 0.56579763 0.36883044 0.066760376
-0.001277003 -0.14745113 0.81274605 -0.14170939 0.58769023 0.79657942 0.07114169
-0.024914354 -0.15097943 0.8017841 -0.3977111 0.61735725 0.67874593 0.035620693
-0.055519972 -0.19621475 0.79706013 -0.57832432 0.18613389 0.79428905 0.0022120336
-0.0071551721 -0.14643177 0.81117356 -0.24980229 0.61029118 0.75176024 0.057025775
-0.064725637 -0.37404814 0.79467422 -0.61083007 -0.01544523 0.79161114 0.00054976961
-0.017862853 -0.3087815 0.82524329 -0.37708458 0.042660307 0.92519587 0.0077663828
-0.058721822 -0.25269109 0.79785764 -0.59791636 0.014055756 0.80143517 0.00046336852
-0.038910635 -0.31081921 0.81317341 -0.51311618 0.010235294 0.85825819 0.0019809434
-0.019510474 -0.36982849 0.8252905 -0.39267248 -0.042292103 0.91870546 0.0083358102
-0.061291505 -0.3175458 0.79686642 -0.60876369 0.0078402339 0.79331285 0.00075624237
-0.042079836 -0.22412662 0.80897593 -0.53918564 0.052022357 0.84057868 0.0012605694
-0.13818738 -0.20767228 0.7133705 -0.97344625 0.037757047 0.22578047 0.031764328
-0.081630722 -0.31546372 0.77986544 -0.65802222 0.0011308327 0.75299764 0.00033207159
-0.11816213 -0.25618431 0.74411881 -0.77319294 0.018328512 0.63390607 0.0027076339
-0.12652871 -0.35162997 0.73184723 -0.88388538 -0.020376358 0.46725947 0.0062046652
-0.090306453 -0.18304218 0.76498234 -0.62303144 0.26898912 0.73449069 0.0081604943
-0.12714189 -0.15788701 0.71718621 -0.77678716 0.59560269 0.20459515 0.072633088
-0.040157221 -0.1382912 0.76349998 -0.2748147 0.91357124 0.29977402 0.017962666
0.065726914 -0.13568175 0.6422289 0.21603179 0.92532849 -0.31160462 0.017303251
0.060626138 -0.12979673 0.66808975 0.19595435 0.96907789 -0.14996631 0.016837802
-0.10891823 -0.32942915 0.7549994 -0.74820328 -0.0045926142 0.66345358 0.0019492438
-0.0006775111 -0.13864581 0.78550243 -0.044885546 0.94925034 0.31130227 0.016955996
-0.036775503 -0.20865402 0.81171066 -0.5125345 0.12779011 0.84910434 0.0031233721
-0.060624376 -0.3715888 0.79812974 -0.60634357 -0.014439894 0.79507166 0.0006058166
0.015022721 -0.26558533 0.83374882 0.25607222 0.00060183293 0.9666574 0.024116438
0.015492358 -0.2958093 0.83469194 0.073710486 -0.010372585 0.99722576 0.049407341
-0.0021104752 -0.35504708 0.83295655 -0.20821887 -0.032874987 0.97752959 0.021976061
-0.10251682 -0.18822674 0.7560733 -0.69366997 0.19933584 0.6921612 0.0056439401
-0.032656111 -0.13866505 0.61132926 -0.25646323 0.89999932 -0.35245988 0.021686213
-0.14048962 -0.2185113 0.71107531 -0.99685568 -0.0021053457 0.079210535 0.030110056
0.033479758 -0.13027447 0.65368098 0.085208498 0.97971779 -0.18136291 0.0054797344
-0.040782183 -0.35187122 0.8123402 -0.52859855 -0.0047661783 0.84885854 0.00098598376
-0.059743382 -0.28322092 0.7977224 -0.60966557 0.012747247 0.79255623 0.00055766705
-0.071695298 -0.16737367 0.7755844 -0.53846258 0.43723264 0.72033721 0.020032736
-0.064165138 -0.18197857 0.78612679 -0.5618121 0.2766048 0.77965176 0.0049938755
-0.084145613 -0.37494287 0.77806884 -0.67081082 0.0016532469 0.74162668 0.00039490996
-0.10459194 -0.41648132 0.75790423 -0.74606019 -0.01312218 0.66574919 0.0017387293
-0.0047694664 -0.34518117 0.83160096 -0.21841098 -0.036455881 0.97517574 0.019036327
-0.061516598 -0.21639526 0.79493564 -0.60709149 0.080779292 0.79051554 0.001159089
-0.098979525 -0.14287752 0.68821299 -0.41952369 0.899728 -0.12037173 0.026631773
-0.025578016 -0.14470045 0.58732724 -0.20947562 0.78092414 -0.58845353 0.047946226
-0.023011597 -0.13637143 0.61317039 -0.15941517 0.93705064 -0.31068134 0.014899869
-0.038123682 -0.14363055 0.60124826 -0.37331179 0.81340402 -0.44610783 0.030585269
-0.11837884 -0.15265194 0.72472554 -0.62387246 0.68550473 0.37532181 0.05385391
-0.11200342 -0.3295688 0.75168145 -0.76261878 0.00089686119 0.64684755 0.0031937985
-0.037498582 -0.14436129 0.78234392 -0.43184438 0.72771412 0.5328626 0.032343525
-0.016162965 -0.13736542 0.77526885 -0.15940212 0.94875598 0.27286097 0.0094803618
-0.060491115 -0.14934231 0.77541757 -0.46375504 0.68432122 0.56270397 0.034022618
-0.01876564 -0.18777652 0.81805009 -0.40485761 0.21629424 0.88842958 0.0099422997
-0.054065872 -0.35628611 0.80312198 -0.56960529 -0.011698389 0.82183516 0.00072307215
-0.027140826 -0.33599648 0.82084298 -0.47387275 -0.0030337505 0.88058805 0.0033504593
-0.024302235 -0.2190685 0.81971031 -0.40354991 0.088246807 0.91069198 0.0099123279
-0.046714649 -0.30617091 0.80791724 -0.55994922 0.017202687 0.82834834 0.0013262995
-0.054792192 -0.15963407 0.7816844 -0.49695623 0.51986766 0.69481802 0.028421769
-0.0315216 -0.20306452 0.81391263 -0.47128946 0.15327099 0.8685587 0.0049707871
-0.11635223 -0.1492976 0.71903235 -0.58453852 0.77938253 0.22556067 0.054698225
-0.049060613 -0.13475215 0.7292822 -0.16856839 0.97406113 0.15096228 0.002788529
-0.032952771 -0.13091186 0.65127164 -0.16242047 0.97936255 -0.1202855 0.0021901641
-0.044903003 -0.1532416 0.7883563 -0.46794844 0.57951736 0.66722107 0.027897945
0.0076986495 -0.18977766 0.82593936 -0.080867074 0.18714558 0.97899801 0.026093245
0.0099983988 -0.36415315 0.83440208 -0.02331781 -0.035706516 0.99909019 0.033521596
-0.047224578 -0.20824987 0.80532324 -0.57318765 0.10113668 0.81315887 0.0021884802
-0.028021574 -0.23081735 0.81826311 -0.45912376 0.032271743 0.88778591 0.0049521513
-0.029321354 -0.21172394 0.81661165 -0.44725323 0.1214195 0.88612747 0.0055725602
-0.046344269 -0.1306124 0.70478219 -0.14693132 0.9884488 0.037149858 0.0014573245
-0.017553167 -0.1290272 0.65620774 -0.080663756 0.99253249 -0.091502398 0.0019216753
-0.061976969 -0.26296031 0.79540277 -0.61993569 0.01419494 0.7845242 0.00026829416
