# .PCD v0.7 - Point Cloud Data file format
VERSION 0.7
FIELDS x y z
SIZE 4 4 4
TYPE F F F
COUNT 1 1 1
WIDTH 1411
HEIGHT 1
VIEWPOINT 0 0 0 1 0 0 0
POINTS 1411
DATA ascii
0.0061129718 -0.1893007 0.84486377
0.15430909 -0.3969129 0.68515748
0.1464985 -0.2970854 0.67892361
0.073675722 -0.34055021 0.78117597
0.038601711 -0.121884 0.68699712
0.047155559 -0.43383339 0.8115328
0.04016738 -0.3082467 0.82097489
0.0096856579 -0.44390821 0.84517372
0.072465204 -0.2845419 0.77703941
0.13319179 -0.237158 0.70315552
0.081118792 -0.1828018 0.76261622
-0.046248291 -0.1270285 0.59753412
0.1374604 -0.31672651 0.68898749
0.0037895821 -0.22407161 0.84330601
0.084805809 -0.1219724 0.70896459
0.055261608 -0.18196221 0.79699469
0.1296006 -0.2769132 0.71488768
0.1047975 -0.12909751 0.73251712
-0.033404302 -0.13018049 0.68933648
0.14762449 -0.1995495 0.68139642
0.1426131 -0.30395699 0.69281441
0.1020674 -0.30070311 0.75129431
-0.0861855 -0.12985189 0.65454328
0.031894509 -0.2882238 0.82194543
0.13535941 -0.31527299 0.70396852
0.083261147 -0.257862 0.7640968
0.1271484 -0.29820871 0.70950168
-0.13697539 -0.1361195 0.72890961
0.1433104 -0.33340329 0.67541218
0.14854661 -0.35300529 0.6908502
0.08623226 -0.2670517 0.76937389
0.01275367 -0.26428211 0.84252489
0.01208631 -0.37055331 0.84123051
0.058759809 -0.1980295 0.79263377
0.01387142 -0.2389341 0.84128368
0.04429426 -0.12854379 0.74078649
-0.054163489 -0.1328668 0.7960574
0.1507494 -0.1475054 0.68944752
0.071265399 -0.1235095 0.63632393
-0.075776443 -0.13299949 0.61738998
0.05201181 -0.1255319 0.7253291
0.075224921 -0.1461561 0.76466978
0.1376307 -0.1401599 0.7085036
0.01384883 -0.2973296 0.84068358
0.083023109 -0.32643741 0.77714372
0.01128385 -0.3999984 0.84359211
-0.02901455 -0.1307613 0.69163668
0.01195184 -0.4398402 0.83881122
-0.084923543 -0.12797379 0.64787823
0.079421528 -0.1246901 0.66694129
0.1216617 -0.1851147 0.71310711
-0.01539814 -0.130778 0.81905848
0.1385161 -0.20093539 0.68789673
0.150111 -0.36385471 0.68628973
0.090972759 -0.1261691 0.75167131
0.1531821 -0.1320947 0.68803388
-0.045022432 -0.1308994 0.77761757
0.055406179 -0.1264127 0.69166052
0.02076379 -0.1265678 0.79584628
0.056608241 -0.34925711 0.80076182
0.098459981 -0.12649509 0.64459687
0.14236011 -0.12531079 0.69465089
0.1362745 -0.31403691 0.69830197
0.1407983 -0.2405616 0.70119947
0.1448411 -0.25900599 0.6950528
0.033833079 -0.1307729 0.70081431
0.1316572 -0.1204231 0.68377858
0.03300377 -0.126514 0.59592801
0.1245954 -0.37303159 0.72717428
0.1199107 -0.43801799 0.63938391
0.069911771 -0.23071221 0.76934969
0.1217948 -0.1398814 0.71371478
0.1251978 -0.1548429 0.71462971
-0.1155523 -0.1297881 0.69688243
0.12608799 -0.2155057 0.71412152
0.065220803 -0.34315071 0.78991759
0.1466981 -0.29072899 0.69171011
-0.1624243 -0.1352293 0.71291947
-0.024896219 -0.2235591 0.52444202
0.016434859 -0.1254742 0.70206648
0.071387254 -0.16006351 0.77394593
0.07165885 -0.22038861 0.7885474
0.05981433 -0.29624489 0.80397499
0.061273638 -0.2566407 0.61284101
0.025532041 -0.24113899 0.82516807
0.079246238 -0.20338529 0.76193851
0.064726204 -0.35700899 0.60394931
-0.0463464 -0.1325659 0.65568531
0.05945069 -0.19144849 0.78972948
0.1513491 -0.15008239 0.68602139
0.15606549 -0.38044101 0.67451888
0.061398931 -0.40466121 0.81818187
0.034192961 -0.3558794 0.82060701
0.03871705 -0.25795999 0.81154507
0.043786772 -0.1564762 0.79789132
0.031821139 -0.12890901 0.82270777
0.01737071 -0.1305806 0.80907488
0.02238052 -0.18532839 0.57106823
0.075487003 -0.29893431 0.60665327
0.069811963 -0.4317351 0.59071869
0.045692042 -0.1298864 0.76060688
0.1040361 -0.16258051 0.73183709
0.0409518 -0.25055721 0.58463317
0.14734609 -0.21054579 0.67598528
0.1082788 -0.27401391 0.63928467
0.086862378 -0.4386583 0.80140561
0.147937 -0.17371359 0.67664897
0.14203431 -0.1919367 0.67407781
0.078134343 -0.3009055 0.77074242
-0.021139691 -0.1328062 0.74250972
-0.0083295889 -0.12926351 0.80821288
0.0046804738 -0.28139141 0.84640843
0.079977192 -0.1239616 0.6552999
-0.0061991168 -0.12951741 0.58492988
0.0031989119 -0.18467011 0.55810529
0.1159553 -0.15300231 0.72707307
0.1384141 -0.35737979 0.66359842
0.065261953 -0.2198443 0.60803932
0.03611467 -0.40949151 0.57805562
0.1094332 -0.23545019 0.63791972
0.1298953 -0.29677239 0.71145141
0.115818 -0.2101942 0.65389818
0.049621299 -0.37506679 0.58307117
0.05744382 -0.1619439 0.79863667
0.1507086 -0.31397519 0.67620379
0.033561919 -0.43412891 0.83010429
0.1172155 -0.34162441 0.63935792
-0.033501599 -0.42137831 0.51907313
0.1504797 -0.2345375 0.67975467
0.04702507 -0.1266176 0.66240168
0.044718489 -0.12752999 0.643525
0.074026287 -0.14445551 0.61985838
0.031724811 -0.12714981 0.72868723
0.088025138 -0.2266181 0.76375198
0.096544787 -0.26714149 0.75759172
0.093962297 -0.1865171 0.75523961
0.075085029 -0.2399898 0.77310717
0.067041479 -0.2641789 0.80084151
0.056267291 -0.12625401 0.67353272
0.055149611 -0.13933811 0.60273182
0.1167805 -0.3690125 0.73290592
0.054065209 -0.1799504 0.60434473
0.1143496 -0.4071334 0.63480037
0.1500738 -0.34604499 0.67154598
0.1322311 -0.36775231 0.69594508
0.087885641 -0.2291014 0.62522352
0.1272769 -0.1831509 0.7144438
0.095217131 -0.2158066 0.75718749
0.1410965 -0.2006705 0.66635501
0.072383493 -0.211449 0.77716178
0.01837148 -0.2977649 0.56444478
0.1519496 -0.1837188 0.68602788
0.021309391 -0.3973915 0.56080312
0.1179568 -0.1697146 0.64138991
0.1508019 -0.30974871 0.67536873
0.065859303 -0.29150221 0.59732652
0.04762096 -0.32456759 0.58258039
0.1075221 -0.4360913 0.60305941
0.04874295 -0.13031121 0.6000368
-0.028583599 -0.12883949 0.5985983
-0.021088909 -0.41928849 0.54365921
-0.065141417 -0.13148209 0.76994282
0.1117172 -0.2734693 0.64414042
0.1110563 -0.13170619 0.65544182
0.026818549 -0.1277571 0.579377
-0.01790249 -0.31410721 0.53954858
-0.037721179 -0.1377293 0.55682093
-0.13191409 -0.1325973 0.66458929
-0.02200296 -0.32039589 0.53801513
-0.089856692 -0.1343333 0.61839038
-0.1105221 -0.38093731 0.62146008
-0.03044102 -0.1447686 0.54249108
-0.018801279 -0.19787049 0.53710622
-0.1229596 -0.39033571 0.64731431
-0.036018711 -0.2485809 0.54429579
-0.1216349 -0.36333159 0.65500742
0.087749153 -0.1283488 0.66061687
-0.01299592 -0.27035809 0.53578591
-0.026634419 -0.25441971 0.53569561
0.077606633 -0.12854449 0.6298573
-0.089010708 -0.2025995 0.61819351
-0.031601701 -0.2879478 0.5441848
-0.1258699 -0.3258602 0.65156358
-0.095439717 -0.36091599 0.61289209
-0.2174464 -0.43415439 1.146363
-0.1307874 -0.1616478 0.67112732
0.0025812541 -0.1312277 0.82305717
-0.03083447 -0.36975649 0.53599352
-0.1561709 -0.18848971 0.68463278
-0.055759668 -0.1299803 0.57701361
-0.1502998 -0.32302889 0.68801188
-0.037583869 -0.3811157 0.55309421
-0.059683051 -0.26284289 0.57088238
-0.1027463 -0.1824359 0.63478953
-0.083351433 -0.3415463 0.59986359
-0.048346579 -0.2381207 0.566728
-0.085642762 -0.36963621 0.60144192
-0.036281459 -0.1542784 0.53846723
-0.069713727 -0.40699631 0.57623768
-0.02232586 -0.34039229 0.53696191
-0.029135689 -0.34613481 0.53942871
-0.0531036 -0.33649531 0.56859261
-0.04907674 -0.2209281 0.56689179
-0.1175709 -0.26567179 0.64119041
-0.096063003 -0.2072728 0.6257574
-0.070659779 -0.35170549 0.58257502
-0.1614664 -0.2686924 0.70768559
-0.0226287 -0.30063251 0.53847218
-0.16153359 -0.1602695 0.70586759
-0.049095642 -0.29656249 0.56419343
-0.064201571 -0.17353021 0.59041029
0.03426661 -0.12780041 0.60462409
0.01121275 -0.12550969 0.56646383
-0.031766091 -0.3642537 0.54152519
-0.1086371 -0.2303977 0.64413953
-0.071036518 -0.1547886 0.58118087
-0.1245518 -0.22232451 0.6587711
-0.1256346 -0.22438399 0.65773672
-0.05492853 -0.2278688 0.57752693
-0.14676709 -0.1476417 0.67398989
-0.1355533 -0.32246339 0.65961123
-0.057705611 -0.16089819 0.58217078
-0.086017117 -0.17190111 0.60145742
0.056183688 -0.1279023 0.73343807
-0.043365549 -0.12983631 0.71950787
-0.066801772 -0.16114821 0.58176339
-0.024443841 -0.18241359 0.54079229
-0.1547102 -0.32011959 0.69548988
-0.1540269 -0.41596141 0.69192481
-0.099606358 -0.41243839 0.62292492
-0.069947623 -0.2574181 0.59310061
-0.1027775 -0.3810055 0.62498158
-0.042204451 -0.37603971 0.55609691
-0.1231309 -0.2117932 0.66087621
-0.066536888 -0.2055811 0.5808
-0.064377882 -0.36562589 0.5814935
-0.1580015 -0.2078042 0.69712168
-0.037468001 -0.26267761 0.55403233
-0.1175222 -0.23189449 0.64936489
-0.022303941 -0.12842821 0.804977
-0.034143388 -0.14329199 0.55086362
-0.1021215 -0.16944981 0.6374324
-0.023165651 -0.2853469 0.53626841
-0.050320651 -0.4079878 0.56220901
0.023889691 -0.127711 0.73031211
-0.093947038 -0.2949675 0.61925519
-0.072282672 -0.30453989 0.58242548
-0.1483437 -0.347918 0.66841167
-0.1489232 -0.1298123 0.67202622
-0.112142 -0.1829994 0.62910801
0.1221872 -0.3887679 0.65100253
-0.14943039 -0.21799999 0.68833238
-0.041168168 -0.2442528 0.54641008
-0.12590051 -0.22853559 0.65890652
0.074356422 -0.1293439 0.72112501
0.1020971 -0.1256447 0.69813728
-0.1330348 -0.1550052 0.65686631
-0.052930001 -0.19523381 0.57334048
0.01306093 -0.202095 0.56554371
-0.01648758 -0.26322839 0.53954238
-0.019272041 -0.1250066 0.54424751
-0.03114944 -0.2722913 0.54269058
-0.094063878 -0.39133269 0.61266607
0.01803288 -0.1309454 0.65681672
-0.1163016 -0.1461006 0.63086849
-0.1218931 -0.1549207 0.65184033
-0.001320711 -0.33943641 0.54942608
-0.1633088 -0.27719939 0.69888163
-0.036074512 -0.18865339 0.55790651
-0.1031913 -0.1770173 0.62493122
-0.02899464 -0.30197719 0.54130328
-0.01328588 -0.30641961 0.54037559
0.046555109 -0.3379373 0.58592439
-0.071351603 -0.40397161 0.57729769
0.032034919 -0.1236492 0.6614185
-0.075862207 -0.36630729 0.59133953
-0.1486593 -0.1893499 0.68877542
-0.1253503 -0.29962999 0.65647638
-0.096507557 -0.12884431 0.73023832
-0.052301861 -0.2007232 0.56762052
-0.02692255 -0.1445283 0.53212279
-0.053562269 -0.1225361 0.58105308
-0.14012501 -0.40139231 0.66710079
0.074423239 -0.35545051 0.60305011
-0.1003442 -0.40731129 0.62649292
-0.1372582 -0.37117061 0.67057192
-0.134468 -0.34628239 0.65329373
-0.1203069 -0.1600682 0.64744627
-0.12575909 -0.17617001 0.65683991
-0.1182922 -0.35080519 0.64606577
-0.078294776 -0.1301513 0.60255849
-0.02822827 -0.3285425 0.54235709
-0.084580198 -0.1659285 0.60038882
-0.1635015 -0.16795211 0.70141667
-0.01558948 -0.2340828 0.54603398
-0.034637719 -0.2430248 0.55334133
-0.068416737 -0.2924355 0.57733232
-0.165023 -0.1829166 0.69579983
-0.035590708 -0.38895479 0.53718698
0.079264946 -0.122829 0.73033923
-0.02199926 -0.12557641 0.60063928
-0.1593298 -0.16264009 0.69842798
-0.1315106 -0.1481694 0.6637336
-0.12934969 -0.1679142 0.66800767
-0.095284186 -0.141919 0.62001151
-0.095734231 -0.14931589 0.62434763
0.00022222679 -0.2363078 0.54878861
-0.030614721 -0.2405178 0.53457922
-0.058044501 -0.2063313 0.57883978
-0.057065628 -0.368494 0.57589358
-0.1218289 -0.1390906 0.6559608
-0.1376802 -0.2016592 0.65571922
-0.15238801 -0.17461281 0.68207377
-0.058124479 -0.2103354 0.56936252
-0.1185898 -0.26588699 0.63809538
-0.142676 -0.23965789 0.6780653
-0.077503443 -0.30820829 0.59610438
-0.060460959 -0.1747334 0.56721377
-0.062806688 -0.1657799 0.57375848
-0.060153712 -0.1534566 0.58769989
-0.03193849 -0.203721 0.54145318
-0.040886238 -0.27938941 0.54342991
-0.1071192 -0.32580209 0.61606097
-0.076614343 -0.34304509 0.58229393
-0.1031157 -0.32434779 0.62919128
-0.1023549 -0.26756069 0.61808878
-0.025456941 -0.1871818 0.53391719
-0.054070462 -0.2306087 0.5637514
-0.136498 -0.26644689 0.65717661
-0.076386973 -0.16350131 0.59786153
-0.1194847 -0.16451471 0.65189773
-0.1271272 -0.2084879 0.66735268
-0.16396371 -0.28679809 0.69872469
-0.090183623 -0.26832119 0.60799551
-0.025741771 -0.3329376 0.54098809
-0.1074764 -0.39881349 0.63046622
-0.1381584 -0.2715261 0.66344982
-0.1570358 -0.3514111 0.68851328
-0.1376207 -0.1406147 0.65647382
-0.089663297 -0.1638232 0.60735852
0.0092814043 -0.2798003 0.55578941
-0.041524071 -0.2293331 0.54496312
-0.112494 -0.3575637 0.64025187
-0.045487881 -0.18293659 0.55748987
-0.16071419 -0.14908621 0.69457608
0.0154926 -0.40958679 0.55219692
0.01187754 -0.31190491 0.55847919
-0.1639507 -0.2028608 0.69953603
-0.050327651 -0.3373079 0.56409341
-0.098273292 -0.33284891 0.61103761
-0.026383851 -0.2025927 0.53714478
-0.16128211 -0.3806963 0.69158578
-0.118758 -0.2389981 0.647138
-0.060855638 -0.1849096 0.57297963
-0.1350009 -0.40328389 0.64935273
-0.02820171 -0.1712018 0.53490388
-0.02808865 -0.2697157 0.53269118
-0.034509879 -0.37765431 0.5404864
-0.084273271 -0.29339811 0.60035658
-0.07808961 -0.27374759 0.59278047
-0.1158196 -0.39741361 0.63764107
-0.045216069 -0.1918685 0.55497831
-0.069043621 -0.27710181 0.57554418
-0.05949977 -0.1196759 0.58268678
-0.1648061 -0.1449284 0.69920188
-0.08386752 -0.1418979 0.6195389
-0.1480367 -0.36786059 0.67922097
-0.080976553 -0.2140384 0.59713292
-0.083165377 -0.1839577 0.59784222
0.058019161 -0.1238461 0.77044493
-0.0076456368 -0.12647571 0.5473482
-0.02932569 -0.1270787 0.53736418
-0.083202288 -0.1263313 0.62918061
-0.038729429 -0.1287196 0.55173731
-0.1607935 -0.173448 0.69086683
-0.1520032 -0.1370822 0.67428678
-0.109637 -0.1427922 0.63214773
-0.047020599 -0.22489239 0.5481202
-0.14205199 -0.344538 0.67168051
-0.049089719 -0.36978069 0.55054069
-0.050120689 -0.3472642 0.55877519
-0.089367002 -0.18461759 0.60894412
-0.1375017 -0.31834421 0.65374649
-0.1247566 -0.37079671 0.65279531
-0.098806493 -0.3554444 0.60893768
-0.075542711 -0.17478199 0.58786613
-0.03541125 -0.1820091 0.54003382
-0.12502269 -0.19011749 0.64721179
-0.046004731 -0.1469522 0.55559582
-0.063379839 -0.29885951 0.57085693
-0.145073 -0.24919561 0.66549861
-0.0092213498 -0.41759521 0.53120291
-0.1029377 -0.35428569 0.62637281
-0.027587131 -0.38532019 0.52883703
-0.1190323 -0.30385911 0.63673049
-0.1529299 -0.3377282 0.67616552
-0.072710797 -0.2002587 0.58168048
-0.1439793 -0.28841609 0.66358531
-0.1229896 -0.36394811 0.638246
-0.083308287 -0.37027279 0.58957589
-0.1205354 -0.3122074 0.63991141
-0.1199568 -0.37504029 0.63450903
-0.1122485 -0.2618404 0.63022608
-0.1080706 -0.36802271 0.62035853
-0.034592651 -0.33474761 0.53898412
-0.063068867 -0.32741651 0.57128322
-0.076569237 -0.3982127 0.57995701
-0.069892958 -0.23352709 0.58598292
-0.12764449 -0.4058919 0.6374402
-0.041624781 -0.3539786 0.54400629
-0.085502423 -0.40904701 0.59430999
-0.137182 -0.2620621 0.66355252
-0.076283269 -0.29321751 0.58707267
-0.1167229 -0.25238249 0.63508153
-0.1490947 -0.32350531 0.6741069
-0.086359419 -0.27503979 0.60306507
-0.1497862 -0.3830741 0.65884233
-0.069708608 -0.1852048 0.5821619
-0.14839409 -0.36934391 0.66016841
-0.1124783 -0.35509619 0.62016642
-0.070113093 -0.127349 0.62027621
-0.02250661 -0.35722831 0.54338348
0.022450371 -0.13100751 0.60119921
0.016571131 -0.12893569 0.75193328
-0.1633718 -0.2082229 0.71221203
-0.050395299 -0.1296531 0.78759241
-0.156055 -0.21434081 0.71205908
-0.1109136 -0.13240869 0.7341764
-0.075861476 -0.1275626 0.63708872
-0.05693581 -0.1298361 0.64452922
0.002090231 -0.12987851 0.74571049
0.053785499 -0.12723631 0.67075092
0.080700547 -0.1275022 0.67019463
-0.045904759 -0.2098691 0.812801
0.047587641 -0.1297573 0.61406249
-0.084319711 -0.12765659 0.76897931
-0.15827399 -0.37568 0.70584458
-0.07798633 -0.2634725 0.78516382
0.00089295767 -0.31318799 0.84672087
-0.037946168 -0.1296427 0.69231617
-0.04054622 -0.1790814 0.82479417
0.007323429 -0.2742092 0.84792137
-0.03012675 -0.2337777 0.82430232
-0.16177081 -0.15705021 0.71698558
-0.1270342 -0.29858601 0.74545509
-0.065351687 -0.2284283 0.7946465
-0.1289988 -0.30273691 0.74266452
-0.06323041 -0.32519531 0.79356629
-0.1143878 -0.2041858 0.75624728
-0.026091959 -0.12768599 0.59848273
-0.090544052 -0.13683879 0.73509771
-0.01359988 -0.2354483 0.84194112
-0.1058225 -0.1658794 0.76277709
-0.133094 -0.38627061 0.73655498
0.0061137239 -0.35734099 0.84919423
-0.08486864 -0.1988126 0.77862388
-0.1049505 -0.1304224 0.73863238
-0.091861427 -0.1488422 0.77047652
-0.108975 -0.32854179 0.76038212
-0.13396589 -0.23920231 0.7373054
-0.02553021 -0.29747111 0.82768983
-0.087127008 -0.4067277 0.77988762
-0.13014621 -0.31688321 0.73929292
-0.12932 -0.28822389 0.74286342
-0.063560769 -0.1262484 0.67655772
-0.01195986 -0.1258225 0.6665827
-0.1284851 -0.27798921 0.74046773
-0.1582498 -0.28133881 0.71130002
-0.1452914 -0.2084588 0.73004937
0.0073417858 -0.1272032 0.81328118
-0.01062536 -0.1852989 0.84566128
-0.1126745 -0.19975559 0.7582472
-0.093796387 -0.28760141 0.75747722
-0.115633 -0.41253099 0.75513661
-0.044914119 -0.29236019 0.81554288
-0.063544363 -0.34795761 0.79609001
-0.02151805 -0.262613 0.82961363
0.0053259111 -0.1264551 0.82058382
-0.020538241 -0.37856489 0.83444929
-0.1262262 -0.31647909 0.74536818
-0.0094152689 -0.41270149 0.84221238
-0.098649137 -0.36888501 0.77047437
-0.048547521 -0.41087651 0.81422818
-0.1505747 -0.309542 0.7129761
-0.1319143 -0.1320622 0.72012818
-0.060899101 -0.26248971 0.80456889
-0.12545741 -0.220571 0.74693751
-0.03337466 -0.32498911 0.82407099
-0.14187659 -0.16012409 0.73075533
-0.041312769 -0.1288403 0.71136987
-0.059590019 -0.18786059 0.7974174
-0.0045316909 -0.30873531 0.84458792
-0.099158533 -0.27992451 0.76838249
-0.1213802 -0.32338431 0.74887222
0.01012738 -0.223914 0.84722477
-0.088165641 -0.25130871 0.77812308
-0.071235441 -0.3961947 0.79548681
-0.04808386 -0.30693501 0.81703788
-0.080243841 -0.29818159 0.78502297
-0.1150853 -0.3902894 0.75376242
-0.1301146 -0.1303696 0.70281059
-0.063433193 -0.33062911 0.79773468
-0.13484371 -0.24148449 0.73609912
-0.083468802 -0.39932659 0.7832402
-0.12617999 -0.27490059 0.74369073
-0.1145688 -0.1310325 0.7192601
-0.1637111 -0.16217171 0.71445572
-0.135736 -0.1298835 0.68379247
-0.1361587 -0.1497758 0.73394108
-0.0041968632 -0.1282552 0.82667661
-0.03320941 -0.142387 0.81449288
-0.057534531 -0.1958112 0.79964578
-0.01673414 -0.1353526 0.82982922
-0.066072509 -0.37405071 0.7962634
-0.02113126 -0.30859801 0.83164912
-0.060089249 -0.25266621 0.79951388
-0.038750041 -0.3108286 0.81293851
-0.02368645 -0.37014329 0.83275563
-0.062071651 -0.3175315 0.79780138
-0.044052441 -0.2240192 0.81187397
-0.15575001 -0.20846809 0.71687287
-0.081162721 -0.31546941 0.77932209
-0.1202923 -0.2561205 0.74612039
-0.13433149 -0.35207811 0.73655051
-0.093290009 -0.1819125 0.76879078
-0.1466347 -0.1479885 0.72743613
-0.04188361 -0.13250139 0.76507998
0.06726566 -0.12637439 0.63989699
0.060984749 -0.1249715 0.66766489
-0.1123284 -0.32940471 0.75865811
-0.00115438 -0.1309129 0.78802592
-0.037878782 -0.2085962 0.81334692
-0.06175714 -0.37159061 0.79949129
0.0143676 -0.2658976 0.84871352
0.01477404 -0.2958737 0.84917909
-0.005738385 -0.35509551 0.84096593
-0.1072794 -0.1871725 0.76160991
-0.03553842 -0.1293641 0.60831141
-0.16124649 -0.2194351 0.71094799
0.03366724 -0.12670571 0.65332729
-0.04349998 -0.35192671 0.81617981
-0.060742769 -0.28320131 0.7988987
-0.078004509 -0.1632843 0.78392577
-0.068779767 -0.1804173 0.79187697
-0.086205408 -0.37492299 0.78039962
-0.1016532 -0.4163579 0.75489992
-0.0083518941 -0.34509081 0.83934438
-0.063658983 -0.2163133 0.79756927
-0.1025648 -0.1309371 0.68647271
-0.032604519 -0.12632561 0.57518232
-0.0248904 -0.1246889 0.61068982
-0.044509351 -0.1294677 0.59422618
-0.1331405 -0.140622 0.73587859
-0.1157516 -0.32955769 0.75543612
-0.043079481 -0.13303091 0.78848231
-0.01700186 -0.1338309 0.77614468
-0.070492104 -0.1377565 0.78659219
-0.022406381 -0.1863202 0.8248843
-0.05568314 -0.35627869 0.80515909
-0.03055473 -0.33599669 0.82664579
-0.02718557 -0.21901479 0.82450151
-0.04789586 -0.30613771 0.80942529
-0.05587694 -0.1586875 0.7830236
-0.033890281 -0.20280769 0.8176499
-0.1248233 -0.13092481 0.72338313
-0.049183939 -0.1339137 0.72940171
-0.033289719 -0.12824591 0.65112919
-0.053534731 -0.1458275 0.79921228
0.0056357752 -0.1870538 0.84386319
0.0083022937 -0.36486909 0.85121638
-0.050030779 -0.2080612 0.80899471
-0.030635061 -0.2306751 0.82267261
-0.032271989 -0.2116507 0.82128352
-0.046404831 -0.1291222 0.7048288
-0.01755804 -0.1289115 0.65620762
-0.064012811 -0.2629208 0.79784322
-0.077665523 -0.17611299 0.78283548
-0.080068558 -0.2485272 0.7808938
-0.1138223 -0.38463351 0.75661027
-0.0050044958 -0.41904569 0.84709162
-0.1603307 -0.2882306 0.70901078
-0.1565315 -0.41948149 0.70105767
-0.1019079 -0.194621 0.76152718
-0.1591447 -0.33290139 0.71288908
-0.087768801 -0.30701149 0.77702528
-0.1066763 -0.1562995 0.76051152
-0.13647731 -0.3089298 0.73174351
-0.09104988 -0.13931639 0.76842397
-0.02982986 -0.1291071 0.71198589
-0.1573161 -0.37463221 0.71039408
-0.1138876 -0.1581355 0.7532708
-0.15975811 -0.41766191 0.70117599
-0.14076801 -0.2134717 0.7305671
-0.1459453 -0.1648103 0.73103112
-0.025149491 -0.1280292 0.79329062
-0.073705599 -0.1295619 0.77532452
-0.01771418 -0.14739379 0.8331005
-0.021365641 -0.1599554 0.8228938
0.01011823 -0.1902023 0.8503406
-0.0400155 -0.18131161 0.81709993
-0.083263591 -0.1612983 0.78045571
-0.01278697 -0.2104052 0.82770729
-0.03067884 -0.29771209 0.82489228
-0.083595067 -0.1304749 0.75747871
0.01023936 -0.2393879 0.85026211
-0.09742029 -0.33529061 0.77011442
-0.089672543 -0.39391589 0.77657109
-0.089790769 -0.37942809 0.7764293
-0.079814143 -0.2440038 0.77949721
-0.115547 -0.3816219 0.75430119
-0.067489803 -0.33798921 0.79342628
-0.088950373 -0.26100129 0.77461272
-0.13829949 -0.330883 0.73472238
-0.1232527 -0.39886051 0.745529
-0.14976349 -0.2353546 0.72060049
-0.1285854 -0.26500931 0.74145287
-0.109558 -0.40416279 0.75766772
-0.1159106 -0.35935879 0.75404102
-0.1137782 -0.2345224 0.75682908
-0.115839 -0.2328802 0.7538054
0.0078360774 -0.1275098 0.7063756
0.046577189 -0.1307063 0.67320609
-0.01344758 -0.1283844 0.69766033
-0.089092053 -0.124384 0.66781372
0.022244411 -0.1248799 0.74324268
0.01224646 -0.3268019 0.84812152
0.095290117 -0.12741929 0.65598148
-0.084953278 -0.1937743 0.77588362
-0.066349506 -0.24663749 0.79548413
-0.024444159 -0.2234237 0.82913268
-0.1345662 -0.41643131 0.73186707
0.0023835709 -0.22917379 0.84354228
-0.050537549 -0.2174772 0.80332232
-0.053173881 -0.1887382 0.8037383
-0.074230537 -0.13099229 0.72313899
-0.1079026 -0.12748431 0.65631229
-0.1539672 -0.1333985 0.71392798
-0.1326922 -0.3575469 0.73563403
0.0061604418 -0.1263399 0.7864871
0.085476771 -0.1271264 0.74653
-0.018400351 -0.1272243 0.7287997
-0.039166778 -0.19414841 0.81511092
-0.1159458 -0.29945609 0.75338137
-0.0134157 -0.30413949 0.83261847
-0.0069755921 -0.32555929 0.84027272
-0.061544709 -0.13200291 0.71893477
0.1042537 -0.1269003 0.72745818
-0.053010739 -0.3053951 0.80511552
-0.01333679 -0.1317243 0.67206198
-0.1507684 -0.1658047 0.72714621
-0.032994829 -0.38384929 0.82378089
-0.081634536 -0.2706753 0.78398353
-0.01217941 -0.2229823 0.83498049
-0.1255154 -0.32517421 0.73983687
-0.1329878 -0.2962501 0.73737693
-0.1219482 -0.37065771 0.74120951
-0.0089108907 -0.29930869 0.84017861
-0.1044902 -0.37699461 0.76187742
-0.1606299 -0.32737949 0.71012682
-0.1158879 -0.15157899 0.75216651
-0.12674239 -0.1631954 0.74778092
-0.01110043 -0.3559947 0.84007943
-0.1321214 -0.4164719 0.73518091
-0.02853559 -0.38568529 0.82625252
-0.02345201 -0.1270376 0.69458401
-0.12578671 -0.2813361 0.74222988
-0.098108977 -0.2288512 0.76742017
-0.1155358 -0.1936149 0.7532782
-0.022725331 -0.3374548 0.82811499
-0.1509131 -0.316315 0.71765792
-0.03865188 -0.27053279 0.81692863
0.018087549 -0.12876239 0.60512727
-0.0023619521 -0.132028 0.60032618
-0.1417194 -0.35413411 0.72793782
-0.096732967 -0.16926859 0.76625311
-0.046665031 -0.37955061 0.81537908
-0.082840897 -0.169571 0.776519
-0.007172687 -0.12857381 0.64118671
-0.02807449 -0.1287545 0.671498
-0.031470489 -0.1293148 0.62304163
-0.13501009 -0.38710901 0.73267019
0.01082408 -0.35708979 0.84949201
-0.055362452 -0.2704643 0.80330122
-0.14916299 -0.2454665 0.72375292
-0.1305308 -0.33057669 0.74171579
-0.12926491 -0.1687222 0.74097389
-0.12917051 -0.1520547 0.74043322
-0.059941199 -0.1703956 0.79100847
-0.045969181 -0.40983221 0.81225282
-0.09846396 -0.1339983 0.7089678
-0.1435971 -0.2052785 0.72916877
-0.1023 -0.1549263 0.76174033
-0.1148576 -0.1853276 0.75214612
-0.1412544 -0.13221361 0.73034823
-0.1418117 -0.1310271 0.71548861
-0.1472178 -0.1579358 0.72568029
-0.119059 -0.3259314 0.74704278
-0.1519265 -0.1514101 0.72329348
-0.1489014 -0.36079821 0.71536642
-0.15870941 -0.24849039 0.70837718
-0.067759223 -0.4103539 0.79846817
-0.16346151 -0.423002 0.69269967
0.026653441 -0.1258515 0.65451843
0.0325271 -0.12931231 0.82162428
0.03369287 -0.34614691 0.83451462
0.14276341 -0.41335651 0.7066316
0.031195519 -0.1250793 0.79774398
0.1235335 -0.16675989 0.72147959
0.15602461 -0.36254019 0.68370861
0.09701585 -0.38961169 0.76067817
0.0711319 -0.1313895 0.77092028
0.1442108 -0.41363081 0.70566028
0.1326196 -0.2415989 0.7103132
0.1259806 -0.13098329 0.71554053
0.100174 -0.3494173 0.76146322
0.06599696 -0.123614 0.78853118
0.15786061 -0.3973493 0.68674201
0.075537227 -0.39996451 0.78636199
0.026296251 -0.2248109 0.83455187
0.1417785 -0.36104009 0.70642167
0.1269177 -0.22219589 0.72002262
0.14062241 -0.2348969 0.70778018
0.1382651 -0.1964311 0.70833462
0.1501399 -0.3289142 0.68367487
0.1283529 -0.15412159 0.71890098
0.1109828 -0.1313365 0.69349867
0.1555713 -0.29859439 0.68557018
0.1253843 -0.40703121 0.72785461
0.13443211 -0.27233571 0.71213567
0.032354549 -0.38189161 0.83240628
-0.059099428 -0.1348805 0.69126809
0.01098912 -0.12844969 0.73785663
0.1229378 -0.16515779 0.72183931
0.1517006 -0.1998345 0.68659002
0.1127671 -0.1280105 0.70830268
0.1421579 -0.31156719 0.70697612
0.062606789 -0.1310256 0.66555399
0.094444223 -0.12870739 0.65544617
0.1301025 -0.398451 0.72046047
0.1410356 -0.19671009 0.70558059
0.016717101 -0.2170659 0.84797418
0.016446611 -0.37905911 0.84181821
0.0158966 -0.437556 0.8461647
0.14849029 -0.1571003 0.68372732
0.0234886 -0.36762339 0.84185612
0.1410964 -0.36594251 0.71396202
0.05807193 -0.40062439 0.80950069
0.115403 -0.39713949 0.74268532
0.0051631001 -0.1382536 0.74689877
0.054003749 -0.1269059 0.65923363
0.142509 -0.12922791 0.69313067
-0.0061634132 -0.1302678 0.78499079
0.094356313 -0.12852021 0.66760939
0.00076310552 -0.1303056 0.61085057
0.1524128 -0.20241231 0.68264949
0.065543257 -0.1415842 0.78813928
0.067634411 -0.1355921 0.78671312
-0.0087322854 -0.12943161 0.73581982
0.082591258 -0.13047209 0.66373152
0.1296981 -0.25287679 0.72185469
0.058631308 -0.1292731 0.78776598
0.016714981 -0.1316926 0.80228269
0.047593649 -0.12944449 0.78153622
0.01440651 -0.1853407 0.84839201
0.030856131 -0.4258379 0.83194631
0.04606536 -0.1251512 0.74797338
0.15808851 -0.42550099 0.93389839
0.056694999 -0.1270393 0.74673599
0.0025056889 -0.1350698 0.60400343
0.036667999 -0.126395 0.79880941
0.1140541 -0.30018449 0.73575902
0.08015386 -0.3703222 0.78074962
0.064963333 -0.19342761 0.79319549
0.076331578 -0.3406046 0.77844852
0.080532894 -0.19483361 0.76988828
0.1132159 -0.30120999 0.73782372
0.081166022 -0.28094369 0.77747607
0.096339323 -0.2677387 0.75804222
0.1143292 -0.36260131 0.74030381
0.091233224 -0.2333822 0.76716572
0.1005562 -0.3270241 0.747554
0.1070431 -0.3749629 0.75122291
0.075753599 -0.1311972 0.76316023
0.12528349 -0.3268643 0.72702032
-0.038277309 -0.1349078 0.71275097
0.05893806 -0.12998 0.75629967
-0.02612762 -0.1283799 0.68410808
0.067593306 -0.1282095 0.78317982
0.04610135 -0.12601329 0.69573247
0.1177581 -0.25436151 0.73119873
0.1203816 -0.1300887 0.6954754
-0.055082299 -0.1339346 0.6611312
0.1193818 -0.25099999 0.73319691
-0.0083549982 -0.13770141 0.82747322
0.051164001 -0.43594739 0.82614082
-0.1020169 -0.1345787 0.72131681
-0.048112281 -0.1335142 0.6527741
0.005743098 -0.12967139 0.73707157
0.076223448 -0.1260419 0.74812168
0.074860238 -0.33828121 0.7722559
0.1559782 -0.31888601 0.68591303
0.1260746 -0.37117431 0.72814357
0.1167323 -0.22113641 0.73128438
0.1016827 -0.2465491 0.74507391
0.1351613 -0.28305551 0.71723503
0.1068803 -0.1232656 0.72357821
0.084571339 -0.1240217 0.74956709
0.064310737 -0.129583 0.70943958
0.1353953 -0.36522061 0.71763581
0.053117778 -0.1237922 0.73808229
0.04492199 -0.12994459 0.71863282
-0.074384682 -0.1280816 0.73271382
0.079475328 -0.1300001 0.70066231
0.105552 -0.1310555 0.65537429
0.02825002 -0.1261622 0.70567942
0.051399268 -0.12903009 0.78823549
0.1078136 -0.1310541 0.73278332
0.0048994222 -0.13200951 0.82054108
0.0520547 -0.40332609 0.81198329
0.058053829 -0.12957419 0.7396071
-0.01824701 -0.1298952 0.69356787
0.1323708 -0.1266222 0.67121601
-0.070518538 -0.1339916 0.68709362
0.15437929 -0.247666 0.6898784
0.1297871 -0.2255294 0.71340162
0.023628689 -0.27421349 0.84261858
0.064802483 -0.26258051 0.80917108
0.000478478 -0.1348616 0.63317257
0.058300652 -0.1244811 0.71932781
0.069142357 -0.1220366 0.77212542
0.1401189 -0.31548959 0.71647441
0.1484524 -0.124392 0.69017249
0.1347585 -0.30489841 0.70895141
0.1488494 -0.2332951 0.69275892
-0.046165351 -0.13191029 0.76102161
-0.02866246 -0.1283163 0.81724638
-0.118643 -0.1300644 0.68559372
-0.045933809 -0.1270815 0.70778728
-0.0097597204 -0.1301064 0.83149272
-0.036491562 -0.1360126 0.80214971
0.01051485 -0.13222671 0.80526519
0.04428592 -0.26253831 0.8109827
0.02786413 -0.1274896 0.71626961
-0.03997498 -0.1328733 0.70447689
0.1118799 -0.1235938 0.65411693
-0.086349159 -0.12712359 0.67135358
0.077208377 -0.120883 0.76350629
0.085208997 -0.41755959 0.77224952
0.1458043 -0.25309491 0.69102538
0.1241099 -0.37274191 0.73821849
0.02815856 -0.1265367 0.82206267
0.17391381 -0.42560059 0.92205441
0.1270768 -0.37389371 0.71820289
0.030931611 -0.1155731 0.71003389
0.1006836 -0.3782807 0.75456852
0.1204497 -0.31235921 0.73076707
0.2200482 -0.42850149 0.9412443
0.1537597 -0.36809689 0.69514602
0.1242344 -0.26817241 0.72611707
0.092341542 -0.37485981 0.76384521
0.1341172 -0.42820299 0.59613508
0.25756639 -0.41550651 0.87888843
0.2470088 -0.4291054 0.89419228
0.25927481 -0.42241299 0.71338153
0.1913382 -0.4239898 0.76112318
0.098990463 -0.43163249 0.50658542
0.1248278 -0.43359131 0.5539946
0.2033921 -0.42583469 0.56416577
0.2427524 -0.42596459 0.90403491
0.13280059 -0.113177 0.70432973
0.085755289 -0.127252 0.63696802
-0.046724569 -0.1318046 0.72589862
-0.00071962591 -0.1264479 0.77350718
-0.095944442 -0.1394437 0.73401213
-0.0577874 -0.14145809 0.7310493
0.1276606 -0.1955366 0.71577293
-0.1000033 -0.1413186 0.70757538
0.038904421 -0.3907814 0.82680649
0.13699821 -0.12634151 0.68555868
0.097398318 -0.1221023 0.73637229
0.13777401 -0.2006336 0.71661693
0.13218521 -0.155367 0.71746659
0.15165021 -0.2027221 0.69849902
0.1422662 -0.18556491 0.6953494
0.28049621 -0.42307991 0.6590789
0.075801231 -0.4241589 0.76233459
0.085634723 -0.42529199 0.80431879
0.066442013 -0.43574291 1.019327
0.1046608 -0.43001759 0.94903678
0.2075603 -0.42725521 0.76761782
-0.080735072 -0.1320945 0.66947842
-0.007712848 -0.1315794 0.78570259
0.13460331 -0.1668914 0.70258379
0.1235192 -0.163992 0.72075582
0.1355387 -0.16889501 0.70690048
0.06769418 -0.189395 0.79341739
0.081181131 -0.1937975 0.76899612
0.1557754 -0.26241231 0.68207961
0.1619675 -0.2864491 0.69291681
0.1360973 -0.2418611 0.7100544
0.1033388 -0.21401121 0.7684288
0.080652148 -0.19583701 0.7716825
0.1394871 -0.2657856 0.71459389
0.02752132 -0.2242052 0.83570212
0.0168957 -0.2479001 0.83926892
0.15336999 -0.30802739 0.69280308
0.085287943 -0.25825629 0.76332903
0.067280971 -0.13324951 0.79120928
0.09820088 -0.18839739 0.75422943
0.063740499 -0.152751 0.78349549
0.062653594 -0.177515 0.79971898
0.064807437 -0.1861171 0.79751921
0.1295488 -0.1503389 0.72130442
0.039563552 -0.1739136 0.81618792
0.082838237 -0.1283772 0.76057279
0.040906832 -0.1737476 0.81874102
0.112131 -0.22810639 0.73726147
0.12709101 -0.2205459 0.7214812
0.019310821 -0.2496794 0.84221828
-0.064778373 -0.1308925 0.78193867
0.13761351 -0.1509566 0.71748149
0.1396116 -0.1871299 0.70537972
0.13629571 -0.1891332 0.71334118
0.1374836 -0.2011483 0.71395057
0.02651451 -0.1832289 0.8350423
0.083894707 -0.15775 0.76734519
0.081155427 -0.145129 0.76802939
0.1532391 -0.1292889 0.69217318
0.1505769 -0.1309948 0.68933707
0.026019771 -0.1834107 0.83633798
0.1235672 -0.17582031 0.72671318
0.1156209 -0.1990135 0.73238248
0.071635082 -0.1311544 0.78755528
0.1253431 -0.1717675 0.72337389
0.085729852 -0.1329772 0.76602328
0.078910343 -0.1448866 0.77227199
0.049014769 -0.1550703 0.79830468
0.068452977 -0.15275259 0.78159797
0.083653226 -0.1669338 0.77219081
0.019316159 -0.1597119 0.84323448
0.051202849 -0.1394667 0.80781299
0.1028315 -0.1908522 0.75381058
0.078330427 -0.1851891 0.77441287
0.12504479 -0.15598109 0.73364753
0.1156737 -0.16227069 0.72492027
0.063776463 -0.1563517 0.78943461
0.083223097 -0.27958041 0.77932417
0.12961911 -0.4022547 0.72831517
0.13177329 -0.39845929 0.72378832
0.1158427 -0.35486159 0.74489051
0.1158575 -0.36567521 0.74267721
0.1155805 -0.33838141 0.74518418
0.1007843 -0.31509861 0.76128942
0.1130994 -0.3046065 0.74663281
0.016237291 -0.29435799 0.85153079
0.02259309 -0.2473544 0.84341609
0.01528245 -0.1606086 0.84843367
0.01909345 -0.3082076 0.84623682
-0.0016353501 -0.41811451 0.84164637
0.028247179 -0.2078298 0.83642799
0.028774939 -0.2248387 0.83660728
0.03005909 -0.26436061 0.83398122
0.027856501 -0.1832265 0.83647537
0.03153383 -0.29828629 0.83381689
0.040352259 -0.174602 0.81761187
0.04581143 -0.29882401 0.81494081
0.044524271 -0.27213281 0.81538409
0.045374919 -0.25648639 0.81614989
0.05085285 -0.3664712 0.81504822
0.1131978 -0.39759251 0.74164867
0.032778081 -0.34695691 0.83363122
0.051929269 -0.43256199 0.81362832
0.114285 -0.3589555 0.74162388
0.019414769 -0.43435991 0.84717339
0.036930282 -0.4118107 0.83189088
0.0430375 -0.2166166 0.81604779
0.116743 -0.29989019 0.73634118
0.1271064 -0.2933839 0.7265268
0.1145072 -0.2272063 0.7375465
0.1441575 -0.41113931 0.70806158
0.1241837 -0.4053621 0.72826833
0.12691569 -0.40345651 0.72721118
0.1268433 -0.370812 0.72642642
0.1218961 -0.36061409 0.73224878
0.1310513 -0.3671146 0.72172672
0.1163827 -0.1985666 0.73239928
0.128631 -0.21914449 0.7217136
0.1179311 -0.25019899 0.73197073
0.1221362 -0.2205359 0.72517592
0.1259418 -0.1646958 0.72280681
0.024584509 -0.2414149 0.84226853
0.1507131 -0.29650521 0.67991352
0.1545392 -0.32210541 0.68132681
0.1453007 -0.27124289 0.70215648
0.1151252 -0.3027516 0.73971152
0.1156711 -0.20927539 0.73419189
0.1253648 -0.1624736 0.72319508
0.1361573 -0.2395141 0.7123239
0.1420694 -0.30738181 0.70807302
0.15955091 -0.3956776 0.68641472
0.156619 -0.3586655 0.68530881
0.1573042 -0.35902461 0.68150902
0.1591296 -0.41214481 0.6886856
0.143732 -0.3572928 0.70764053
0.1538925 -0.3496075 0.69262671
0.15532941 -0.43185139 0.68579429
0.1233476 -0.40168419 0.7356841
0.1457942 -0.27610111 0.70117849
0.1299874 -0.1510344 0.719549
0.1483814 -0.30224851 0.69548589
0.14071959 -0.23060229 0.70842493
0.1478893 -0.25834399 0.69683027
0.1593703 -0.4258931 0.67502409
0.13934711 -0.1678257 0.71004403
0.137042 -0.26953891 0.71183068
0.15077861 -0.25576261 0.69240832
0.1545781 -0.3067964 0.69278198
-0.01467227 -0.12956239 0.8333137
-0.069205217 -0.13085219 0.70942801
0.02868315 -0.25664541 0.83811939
0.025890419 -0.1326488 0.8400557
0.02965663 -0.13040809 0.83490437
0.15211201 -0.32795489 0.68010801
0.093466781 -0.1241595 0.72321433
0.1227884 -0.12922411 0.7231276
0.1510492 -0.2501066 0.68374592
-0.044690471 -0.1276865 0.5957942
0.099512681 -0.124686 0.71761781
0.1106275 -0.1618232 0.73231328
0.1462867 -0.34503359 0.69574362
0.133173 -0.3693881 0.71532911
0.1181547 -0.22152521 0.73085898
0.1393676 -0.1931887 0.70859402
0.1203338 -0.3683548 0.73428488
0.143601 -0.248799 0.70542341
0.024143871 -0.127334 0.79373169
-0.1034191 -0.13181029 0.71391642
-0.089227423 -0.13009989 0.70230889
-0.1134968 -0.13038111 0.67565238
-0.1162777 -0.13074151 0.74011582
-0.006594535 -0.13065819 0.79915363
0.15342329 -0.2449588 0.68229169
0.017903119 -0.1265979 0.6499036
0.1244991 -0.32657269 0.72646701
0.13445809 -0.29197991 0.71262121
0.1499116 -0.29102519 0.69248861
-0.01294387 -0.13140731 0.78066641
0.12777001 -0.37606269 0.72753018
0.0440633 -0.1720012 0.81806922
-0.02008084 -0.1300547 0.75684023
0.01981367 -0.43501469 0.8480925
0.1176075 -0.1608991 0.72680682
0.03095101 -0.2809402 0.83413291
0.1026147 -0.1207011 0.6950568
0.034334969 -0.1293972 0.82352519
0.13740461 -0.20666941 0.68012857
0.1287635 -0.21882319 0.71338379
0.1474652 -0.31726941 0.69109762
-0.068092287 -0.1323718 0.74683648
0.112022 -0.12529621 0.69734478
0.1270584 -0.1277601 0.71785408
0.1561639 -0.25912011 0.68545407
-0.091398813 -0.1349148 0.71810311
0.1480716 -0.36121151 0.68993938
0.1470017 -0.1243098 0.69487637
0.007658409 -0.1299012 0.8268581
0.02275075 -0.197603 0.84230328
0.058875158 -0.1264434 0.68373108
0.1455017 -0.2505101 0.68719041
0.124991 -0.3266238 0.72618991
0.1175491 -0.25355399 0.73110682
0.1513495 -0.2757377 0.69059241
0.074580967 -0.1277885 0.62261009
-0.071870729 -0.1336398 0.77826911
0.00057429972 -0.13529649 0.78963763
0.01797566 -0.29613781 0.84839177
0.01127809 -0.39024541 0.84744358
0.14488 -0.1263926 0.68008029
0.1180654 -0.123081 0.71267527
0.064717181 -0.1292216 0.66995633
-0.0072854781 -0.125938 0.6259079
0.0046911458 -0.1258444 0.57746118
0.1083379 -0.1298573 0.73170918
0.1421894 -0.19390979 0.70688522
0.090452559 -0.44094759 0.20439
0.14647201 -0.41009921 0.70565569
0.12853231 -0.25242931 0.72113758
0.14377411 -0.179793 0.69893992
0.15055899 -0.2865454 0.69584471
0.02747938 -0.1279294 0.79415852
-0.034922559 -0.1325476 0.73678142
-0.02657108 -0.1302243 0.64108902
-0.056990411 -0.13096941 0.80173337
0.01234599 -0.17809939 0.85144228
0.02702011 -0.2112176 0.83698893
-0.029995451 -0.1271275 0.58301258
0.01002418 -0.12689529 0.61992228
-0.0102664 -0.1250324 0.61128318
0.016893171 -0.12375 0.61308843
0.1028235 -0.1249873 0.6583299
0.1189807 -0.126321 0.65793282
0.1332323 -0.15423889 0.71654278
0.1520921 -0.29665741 0.68291253
0.1551118 -0.3272351 0.67704988
0.1454526 -0.31160319 0.70619887
0.1509115 -0.1863241 0.68144763
0.1117638 -0.1996565 0.73668319
0.1453243 -0.2359045 0.70523691
0.1326544 -0.35668921 0.71801972
0.01478963 -0.1615511 0.85677898
0.020927239 -0.2373042 0.84300262
0.1382744 -0.1656929 0.70585263
0.020285441 -0.1924082 0.84443557
0.0094572688 -0.31327111 0.85421813
0.01811043 -0.28562391 0.84680688
0.1283325 -0.13944539 0.71868402
0.12763061 -0.13956089 0.71503383
0.1543541 -0.4080773 0.68549073
0.1547408 -0.36422729 0.69496018
-0.0082281204 -0.1286274 0.76969779
-0.060003608 -0.1300949 0.78969079
-0.1491933 -0.133893 0.71383822
0.01512063 -0.37565219 0.84522641
0.030536851 -0.35260609 0.83481222
0.1108707 -0.4107219 0.73008788
0.1435432 -0.35959509 0.70539439
-0.01251643 -0.13201641 0.74674141
0.0072441762 -0.33636129 0.85338491
-0.001288197 -0.13491569 0.83580983
0.1613922 -0.43646041 0.68118399
0.048700571 -0.14088149 0.8072921
0.04380241 -0.2155164 0.81684917
0.019410489 -0.1309135 0.84364009
0.015747551 -0.1240423 0.60001469
0.042295892 -0.2340564 0.58844328
0.1423091 -0.3555522 0.66190302
0.01448076 -0.2038327 0.5694086
0.03690052 -0.35396329 0.57485068
0.1384314 -0.255808 0.6622259
0.06168545 -0.2187998 0.60289651
0.078630462 -0.1517079 0.61823922
0.094140001 -0.2229199 0.63134152
0.088279463 -0.28965849 0.62569368
0.1146878 -0.179648 0.65394789
0.1001775 -0.2266134 0.63342798
0.040883038 -0.1955259 0.58805013
0.1131296 -0.27445441 0.64230841
0.1023417 -0.1319038 0.64286917
0.083884858 -0.1288719 0.62764353
-0.01955222 -0.29267171 0.53633201
0.05238875 -0.1823943 0.60220963
0.0392823 -0.2490412 0.5819006
0.091970347 -0.25820231 0.62777549
0.1152495 -0.40703791 0.64019811
0.1354814 -0.4032065 0.6608153
0.06238265 -0.26076719 0.60793883
-0.01938151 -0.36170441 0.5416013
-0.0050179078 -0.26328939 0.55311513
0.1322163 -0.1978332 0.6613158
0.034401421 -0.40733361 0.5734418
0.1111702 -0.1698256 0.6454792
0.001524426 -0.2169078 0.5514378
0.069999903 -0.1895853 0.61056387
0.054459091 -0.13822161 0.60161477
-0.029054601 -0.12745769 0.60235018
0.056775831 -0.26054919 0.60520482
0.1364055 -0.35626471 0.6615116
0.058195751 -0.2177806 0.60191083
0.1153167 -0.36228189 0.64683259
0.094222426 -0.2273026 0.63068259
-0.01435305 -0.31331691 0.5407573
0.069827557 -0.34368351 0.60603839
0.1365321 -0.34073859 0.65865552
0.01191316 -0.4119218 0.55395389
0.1042107 -0.2737565 0.63622028
0.055898361 -0.36953339 0.58805782
0.086045884 -0.1426418 0.62753391
0.0626131 -0.1305059 0.64207077
0.02793793 -0.12643 0.65821648
0.05354904 -0.1741319 0.60495812
0.1111495 -0.1823584 0.65178871
0.082965359 -0.2846162 0.61940861
0.053919859 -0.1386829 0.60355401
0.139319 -0.25614241 0.66592479
0.078598872 -0.36702231 0.61195582
0.1156705 -0.26896191 0.65125811
0.14045911 -0.26654631 0.66776311
0.053135902 -0.24726281 0.59674042
0.035606369 -0.37385929 0.5754683
0.045876019 -0.1308855 0.59654248
0.01523464 -0.1646013 0.57013267
0.065500744 -0.1305647 0.61476427
0.1087928 -0.40979081 0.64742768
0.041222788 -0.19667131 0.58978963
0.05332033 -0.2781471 0.59740001
0.01319209 -0.3454096 0.56147248
-0.01886566 -0.36678541 0.53742099
0.01436157 -0.3324745 0.56164062
-0.001506227 -0.2255367 0.55249602
0.049896121 -0.41576809 0.59438872
0.14619461 -0.26065481 0.67572647
0.081891112 -0.40538329 0.61300761
0.1466195 -0.35053581 0.67353189
0.1227679 -0.27565461 0.65103322
-0.01198349 -0.2778706 0.54056108
-0.02144978 -0.2244795 0.53904128
0.13563649 -0.37539831 0.66072452
0.0020632551 -0.18398111 0.55606109
0.070302851 -0.1233368 0.64717948
-0.015637759 -0.26310131 0.54053289
0.09198413 -0.25933319 0.62923688
0.1158903 -0.28674749 0.65166932
0.1155443 -0.32231629 0.64931089
0.068594813 -0.2011525 0.60849738
-0.00044920249 -0.1678617 0.55617899
0.094398052 -0.2320071 0.62961102
0.02484644 -0.2478175 0.5734638
0.017236751 -0.2338085 0.56951457
0.072769053 -0.1951151 0.6129967
0.02632563 -0.169009 0.57356048
-0.005788642 -0.40578231 0.54434341
0.063609123 -0.2302897 0.60879272
0.086229749 -0.2310323 0.62614208
0.1093931 -0.1500107 0.64591122
0.062709332 -0.27377251 0.60245699
0.092729479 -0.32602611 0.62622559
0.0054835291 -0.2561444 0.55453312
0.0367916 -0.3051295 0.58025771
-0.062425699 -0.1326347 0.72373229
-0.021984059 -0.2146731 0.5397405
-0.1018033 -0.1330539 0.73243988
0.072981931 -0.1277499 0.70058858
0.056745231 -0.41336799 0.59732962
0.080138333 -0.27864969 0.6157524
0.075974308 -0.2358766 0.62065428
0.0738618 -0.2360975 0.61926818
0.096299186 -0.21412361 0.63420808
0.13079061 -0.15881599 0.66613787
0.076666594 -0.25806269 0.61429793
-0.01452227 -0.3284452 0.53837419
0.03905426 -0.26990029 0.58062923
0.086266138 -0.2196437 0.62562251
0.005196508 -0.20547371 0.55912828
-0.0097331852 -0.34297419 0.54328972
0.095996678 -0.34431821 0.62820148
0.078301057 -0.42904931 0.60940862
0.003410188 -0.333049 0.5518418
-0.0054807761 -0.32649291 0.54279882
0.065714352 -0.1216516 0.71082377
-0.1177004 -0.1300385 0.7342937
0.044721119 -0.36711591 0.58252043
0.1469063 -0.126251 0.68966442
0.12973741 -0.14230821 0.66836143
0.14611159 -0.25589681 0.68734008
0.1070768 -0.1409428 0.64975238
-0.0092624463 -0.29199991 0.54267848
-0.1200496 -0.13107979 0.69715858
0.036866851 -0.1372373 0.58889449
0.1467776 -0.20225079 0.68575972
-0.0075864121 -0.2073063 0.54817259
0.1420873 -0.1918913 0.67382568
0.001657607 -0.13383541 0.55952591
0.1426829 -0.17790011 0.67498177
-0.004129889 -0.4000206 0.54761392
-0.00096952089 -0.26838949 0.54977512
0.149086 -0.22811501 0.68364328
-0.049168602 -0.13190331 0.78227597
0.095548607 -0.1261107 0.73412442
-0.1583356 -0.1322802 0.70384848
-0.036691468 -0.13126411 0.78888929
0.055138171 -0.1289701 0.65594172
0.1272362 -0.127938 0.69715369
-0.01741411 -0.42194951 0.54007858
-0.040633321 -0.41846451 0.54136598
0.017542459 -0.127067 0.6968984
0.01956732 -0.36651409 0.5614354
0.01541126 -0.2307442 0.56603152
0.14097629 -0.13161971 0.68029737
-0.01504202 -0.1318084 0.81729722
0.077666447 -0.37772831 0.60911471
0.02239788 -0.1615992 0.57494283
0.0091044158 -0.1609008 0.5632242
-0.0114824 -0.2122796 0.54329628
0.01626206 -0.2700856 0.56530732
0.054348689 -0.36605909 0.59369397
-0.0065608141 -0.39355519 0.54276878
-0.01069582 -0.1989526 0.54619801
0.1137303 -0.30842969 0.64283639
-0.02498797 -0.13079029 0.79345667
-0.03903712 -0.1284034 0.64955992
0.042859711 -0.1574437 0.58948368
0.01231125 -0.3392151 0.56085521
0.056640942 -0.17989071 0.60776007
-0.0213753 -0.3570044 0.53920621
-0.0021444359 -0.2013502 0.55228293
0.0075637419 -0.26192671 0.55700839
0.090722777 -0.32153019 0.62490588
0.01332596 -0.15741611 0.56699818
-0.05596282 -0.12821069 0.66414261
0.021286421 -0.1338855 0.57284051
0.061054319 -0.1275956 0.66282648
-0.0082958275 -0.2870791 0.54461342
0.001420959 -0.21121261 0.55671489
-0.02820134 -0.13344771 0.80109268
-0.090771139 -0.1342328 0.73873538
0.146422 -0.29585609 0.68472129
0.13782699 -0.22240829 0.66604662
-0.026499869 -0.1308329 0.66157961
-0.1552767 -0.1271569 0.72524428
0.017869061 -0.27082631 0.56489527
-0.01968216 -0.29156911 0.54057431
0.039454222 -0.2704227 0.58355188
-0.01144434 -0.26856491 0.54545152
-0.01082803 -0.27825359 0.54011458
-0.064198203 -0.1261379 0.61408442
0.07314834 -0.18035039 0.61235613
0.0026673521 -0.2008249 0.55686599
0.15027221 -0.29301679 0.68779361
0.0019620019 -0.23076411 0.55849981
0.065878972 -0.1275361 0.72390002
-0.001506542 -0.13174801 0.67534572
-0.01124856 -0.1865841 0.54557192
0.00092611852 -0.3270905 0.55066168
-0.0022837671 -0.2929619 0.54844183
-0.037927382 -0.1211951 0.59547412
-0.0079311309 -0.129325 0.66384768
-0.064494923 -0.1317798 0.77910799
0.087965108 -0.127362 0.6615575
-0.062333081 -0.1293406 0.73760599
0.15208919 -0.39969271 0.68920982
0.1477797 -0.36723709 0.68349981
0.139358 -0.28328419 0.66022557
-0.02039323 -0.1803084 0.53931129
-0.036145899 -0.127294 0.56995201
-0.040457491 -0.1262566 0.60755008
-0.00113555 -0.187444 0.55386782
-0.0175821 -0.2041807 0.54070449
-0.01395254 -0.38583761 0.53901958
0.1486976 -0.32868749 0.68438649
0.12622359 -0.351908 0.65420121
-0.0066106562 -0.314955 0.54669851
-0.00354385 -0.1385023 0.55940592
0.01808846 -0.1923428 0.56511098
-0.0218306 -0.1272918 0.71118522
-0.002039535 -0.2336553 0.55348349
0.051596049 -0.23830929 0.59641522
0.053315021 -0.1256391 0.66940188
-0.045496911 -0.1336534 0.75401437
0.1452194 -0.27080429 0.67502272
-0.06081824 -0.12731311 0.64386177
-0.088922888 -0.1325506 0.66470462
-0.05580534 -0.1248947 0.58914149
0.034105331 -0.1268778 0.5872016
0.01907092 -0.1714505 0.57618767
-0.01790908 -0.26193279 0.53657269
-0.01747888 -0.1971031 0.53965038
-0.005898051 -0.30664241 0.5466854
0.01855395 -0.4056901 0.55950201
0.0156815 -0.31577101 0.56204772
-0.01305178 -0.37850249 0.53911591
0.01011424 -0.2873174 0.55500108
0.0061831069 -0.37265649 0.54717219
0.01932116 -0.41861281 0.55708802
-0.0045561031 -0.1573036 0.55269867
-0.089356966 -0.1298697 0.67682117
0.15188619 -0.36489251 0.68389422
0.14435589 -0.34508389 0.67605299
-0.01770643 -0.38587931 0.53557229
0.1343468 -0.13274661 0.67025912
-0.067746073 -0.1314237 0.70268399
-0.1322421 -0.13124651 0.71688253
0.085107088 -0.41915989 0.61293149
-0.02222693 -0.43132451 0.53458738
0.01822819 -0.37295741 0.56033462
0.1484258 -0.14765739 0.68939722
0.068354256 -0.1258532 0.74750149
0.01987851 -0.12653419 0.73604119
0.046053831 -0.1560325 0.59169668
-0.02017029 -0.14925469 0.53823572
-0.054094281 -0.1293655 0.61966538
-0.15404271 -0.1293963 0.71616238
-0.74772769 -0.45027179 0.9604094
0.001507794 -0.2455204 0.55578732
-0.01849002 -0.29955381 0.53382123
0.0043598451 -0.29042849 0.54991281
-0.01218823 -0.3752448 0.54142112
-0.01270481 -0.1430793 0.54412168
-0.01996167 -0.41435909 0.54183912
-0.01200038 -0.22648209 0.53830391
0.053988129 -0.12568469 0.7478801
-0.01341704 -0.12949359 0.66130018
-0.01127305 -0.12987129 0.6418395
0.1328039 -0.12841021 0.66944063
0.1138154 -0.21335199 0.65613067
0.086395428 -0.3706964 0.62292182
0.1442835 -0.14811631 0.68762422
0.1537054 -0.41231579 0.68268287
0.074287958 -0.3686038 0.60859168
-0.022161519 -0.126581 0.62582499
-0.040286001 -0.129651 0.62706172
-0.0082593923 -0.42357469 0.54012471
0.074533619 -0.2160944 0.60961622
0.111247 -0.1335849 0.65279531
0.1463027 -0.35522059 0.66358858
-0.01483601 -0.26197219 0.54639143
-0.02287961 -0.1672435 0.5415687
0.038264029 -0.1247055 0.60988009
0.001357945 -0.176769 0.55642438
0.01101751 -0.18458439 0.55895448
-0.02588583 -0.3887212 0.5339359
-0.0001469766 -0.28338531 0.54859883
