# .PCD v0.7 - Point Cloud Data file format
VERSION 0.7
FIELDS x y z normal_x normal_y normal_z curvature
SIZE 4 4 4 4 4 4 4
TYPE F F F F F F F
COUNT 1 1 1 1 1 1 1
WIDTH 593
HEIGHT 1
VIEWPOINT 0 0 0 1 0 0 0
POINTS 593
DATA ascii
-0.54216474 -0.65219659 0.94549727 -0.84554207 -0.23302849 -0.48037097 0.028173629
-0.52450585 -0.64831549 0.90308565 -0.749143 0.25061229 -0.61317068 0.040611394
-0.20523749 -0.63216192 1.035391 -0.2251393 0.80732954 0.54546434 0.013355418
-0.30354595 -0.31412944 1.0385823 0.36696243 0.9282344 -0.060987327 0.065111458
-0.5022155 -0.69363135 0.85983735 -0.70656902 0.60749412 -0.36292043 0.01918056
-0.49949718 -0.68554968 0.83932561 -0.72104579 0.63128757 -0.28560296 0.0049330629
-0.56469345 -0.66790622 0.96966505 -0.68223619 -0.54955971 -0.48222187 0.028738711
0.067284353 -0.62271714 1.1520979 -0.69250327 -0.6301533 0.35120639 0.089804128
-0.31494898 -0.64685506 1.0409801 -0.47086951 -0.80689156 -0.35666201 0.13352782
-0.31019649 -0.65113729 1.0370731 -0.47086951 -0.80689156 -0.35666201 0.13352782
-0.3045809 -0.3365058 1.1083319 0.12029844 0.88685721 0.44610831 0.019247575
-0.53055054 -0.6768868 0.89215583 -0.47544047 0.54769838 -0.68846405 0.11709458
-0.1825119 -0.58138698 1.077942 -0.66874599 -0.68007725 -0.30045599 0.010636083
-0.16913337 -0.64514935 1.1293986 -0.61159247 -0.69826919 0.37198749 0.14793202
-0.14781968 -0.46666351 1.1216148 -0.67136174 0.59067661 0.44763225 0.0002522977
0.044429362 -0.59762561 1.171441 -0.82733512 -0.22942312 0.51271981 0.089449175
-0.31773254 -0.3079263 1.0298262 0.55152452 0.83306593 -0.042683911 0.036419347
0.15459853 -0.37883282 1.0786341 0.32064548 0.93335551 0.1613505 0.017637137
-0.27027377 -0.33024555 1.0008513 0.64551127 0.70688313 -0.28919101 0.11918055
-0.32441977 -0.31701699 1.0857581 0.19566771 0.90878308 0.36854783 0.026879158
0.033832192 -0.63002652 1.1369711 -0.69250327 -0.6301533 0.35120639 0.089804128
0.016856618 -0.56675941 1.1284109 0.011236636 0.35974073 0.93298465 0.034279458
0.031497296 -0.57064831 1.1374099 0.07812053 0.63804501 0.7660259 0.099865139
-0.28619719 -0.31773821 1.0674651 0.36537379 0.930704 0.017094705 0.018288767
0.19596435 -0.40031245 1.0599622 0.47072107 0.88178074 -0.029739974 0.002100951
-0.088107683 -0.68106735 1.0680277 -0.19948265 0.60445976 0.77125549 0.13209166
0.20529343 -0.41356796 1.004457 0.53468478 0.8360799 -0.1228112 0.029249173
0.21769622 -0.59684396 1.0475709 0.063548975 -0.13632567 0.98862374 0.02970648
-0.57372904 -0.65320003 0.89503384 -0.3536422 -0.73015803 0.58464223 0.00032575685
-0.30312935 -0.36252061 1.0341618 -0.84947795 0.38651222 -0.35915968 0.034702506
0.29446757 -0.6056149 0.99932122 0.7376653 -0.099239729 0.66783333 0.16808838
-0.13626027 -0.63150471 1.1014056 -0.96211106 -0.27053353 -0.033969175 0.12171994
0.14550774 -0.44274634 1.0744629 0.66280782 -0.56755668 0.48843136 0.017512208
-0.11386225 -0.60740399 1.0584228 -0.75118506 0.64917916 -0.11953058 0.14225566
0.20697945 -0.65653253 0.98427069 0.67556447 -0.58060509 -0.45443401 0.094043046
0.038032155 -0.59321678 1.135758 -0.42825797 0.068951182 0.90102214 0.084277175
0.27961648 -0.60773343 0.98359984 0.77706671 -0.19226949 -0.59933287 0.010311972
0.20762011 -0.61643004 0.98085272 0.87249464 -0.3036229 -0.38283983 0.014490205
-0.093253687 -0.60234725 1.0519062 -0.11979842 0.65510643 0.74597847 0.005234065
0.29067841 -0.6238386 0.9955039 0.19887538 -0.58798128 0.78404498 0.1347729
0.21664192 -0.45580372 0.99337065 0.61041689 0.55390096 -0.56620234 0.04570853
0.038842153 -0.59204793 1.137531 -0.42825797 0.068951182 0.90102214 0.084277175
-0.19255359 -0.59837359 1.126644 -0.55186158 -0.57909256 -0.60008383 0.00095824216
-0.32009059 -0.36648899 0.96905518 -0.28923446 0.79175538 0.53802115 0.022690866
0.20923117 -0.58270848 1.0453013 0.063548975 -0.13632567 0.98862374 0.02970648
0.22535311 -0.4178808 1.0353694 0.52769357 0.84316736 -0.10299702 0.0059163463
-0.048858181 -0.65423083 1.06354 0.63230008 -0.67642635 -0.37768233 0.11176077
-0.32957438 -0.30384201 1.0745367 0.55124038 0.83129275 0.071319513 0.091049887
0.17658134 -0.40466058 0.99442154 0.42365658 0.88860989 0.17574853 0.027853256
0.1914991 -0.65323794 0.99502242 0.66737741 -0.5881716 -0.45679486 0.086706392
0.16686629 -0.38630575 1.0965359 0.47237039 0.86647409 0.16152099 0.017361535
-0.27119294 -0.32327712 1.0789257 0.4148818 0.90947348 0.027037514 0.023809716
0.23847988 -0.42566389 1.0324942 0.58154696 0.80692583 -0.10331433 0.010960397
0.27033371 -0.46169561 1.0178529 0.7782777 0.581312 -0.23740284 0.069508933
-0.27783513 -0.32343635 1.0810239 0.38016576 0.92415917 0.037468284 0.025062138
0.47561178 -0.64494878 0.90762591 0.19255933 0.9455964 -0.26223746 0.052183952
0.49321708 -0.65044963 0.89832199 -0.12847735 -0.97906822 0.1578573 0.048920345
0.23414838 -0.42700014 1.0071517 0.61670071 0.70807552 -0.34396124 0.03327347
-0.27738351 -0.32676291 1.0130854 0.44984916 0.88551068 -0.11621788 0.074220613
-0.27280837 -0.32859609 1.0986851 0.39604712 0.91121733 0.11326823 0.030069873
-0.0078266328 -0.65099508 0.95513552 -0.36199555 -0.80483115 -0.4703255 0.050940897
-0.25997698 -0.33687505 0.99860096 0.65324098 0.69287318 -0.30529162 0.11704911
-0.056775928 -0.60702145 0.99365646 -0.98594093 -0.10437635 0.13048379 0.16046798
-0.26880965 -0.34279239 0.99291474 -0.61063319 -0.66522962 0.42964733 0.13613425
-0.1286487 -0.64842933 0.93565607 -0.60618532 -0.30948588 -0.73263758 0.083771072
-0.044154666 -0.60003954 0.97973424 -0.83295393 0.15527655 0.53110915 0.11098397
-0.047458656 -0.56789964 0.95279992 0.4162131 -0.33040574 -0.84711194 0.063268401
-0.06586951 -0.66806346 0.96764547 0.45404294 -0.84334487 -0.28742734 0.063936003
-0.062992513 -0.62599355 0.95156795 0.77349007 -0.11523221 -0.62324524 0.13318773
-0.32980844 -0.45201921 1.0266392 -0.79331863 0.44925615 -0.41087034 0.018049575
-0.070293039 -0.49997118 0.90805072 0.10558695 -0.45979062 -0.88172781 0.032657854
0.15504456 -0.67721099 0.95784903 0.23195699 -0.88958156 -0.39349803 0.053839583
0.10809308 -0.66788954 0.93753189 0.027968541 -0.99904168 -0.033667691 0.028047588
-0.03887444 -0.63131613 0.9680962 0.052622266 -0.21388465 -0.9754405 0.16973786
0.085978188 -0.66446406 0.93671036 -0.019693058 -0.99966776 0.01662943 0.0077625387
0.16909881 -0.3787154 0.96235859 0.38413581 0.76084656 0.52302229 0.0020806396
0.10735403 -0.38869303 1.0145978 -0.022193955 0.97506863 -0.22079077 0.0039152415
0.0070519182 -0.66431862 0.97513211 -0.22310871 -0.92201948 -0.31638989 0.014166932
0.18714015 -0.64049524 0.93518746 0.74659169 -0.46716088 -0.47366813 0.10740378
-0.0051360358 -0.64714569 0.94357693 -0.34163514 -0.86886311 -0.35827696 0.072742894
0.18816601 -0.39365447 0.9730643 0.43426517 0.81359893 0.38661417 0.019691393
0.051248562 -0.39386803 0.9959681 0.14365719 0.97706503 -0.15718311 0.015283866
-0.028331596 -0.64352912 0.9525522 0.066459246 -0.55446142 -0.82955158 0.17387769
0.12678339 -0.40168104 0.92070812 0.46960717 0.87543589 0.11437302 0.00068727316
0.081778191 -0.66353065 0.90693563 -0.013296561 -0.99889803 -0.04500857 0.0059638517
0.12785734 -0.40162167 0.92555022 0.47433725 0.85226196 0.22057606 0.001841085
-0.15001798 -0.63750428 0.97657436 -0.97971302 0.026192451 -0.19868645 0.16844794
-0.14009181 -0.6121549 0.94935292 -0.82242447 -0.031349331 -0.56800973 0.01545619
0.094232269 -0.59652907 0.92109746 0.65186805 0.24918528 0.71622252 0.044902038
-0.071173504 -0.49356118 0.90365064 0.10202658 -0.34300688 -0.9337756 0.027520426
0.1832393 -0.48847789 0.91068977 0.24330862 -0.43266037 -0.86810476 0.039034083
0.19987281 -0.41364524 1.0097287 0.53657645 0.83496159 -0.12216703 0.030071704
-0.063650385 -0.66325516 0.96634734 0.5326373 -0.77988917 -0.32874066 0.083035484
-0.078460172 -0.57410955 0.92281634 0.40065452 -0.25287119 -0.88064301 0.025795467
-0.024238607 -0.50196356 0.90889966 0.020666936 -0.58418918 -0.81135434 0.0055767768
-0.1438981 -0.65555829 0.95694155 -0.68186182 -0.30232742 -0.66608 0.12618575
0.073339753 -0.39141747 0.9546594 0.14258565 0.98692232 0.075189903 0.0049452106
0.20889635 -0.40980288 1.0994384 0.54047281 0.79943693 0.26227796 0.018458456
0.22278312 -0.42578393 0.99885255 0.67504805 0.6555959 -0.3383846 0.037634153
0.20776276 -0.4152624 1.0153683 0.55029595 0.82390499 -0.13548012 0.022679146
0.18911849 -0.63249922 0.95079988 0.83560026 -0.42579198 -0.34709293 0.085771136
0.23016046 -0.42360413 1.0181309 0.54412425 0.81625795 -0.1940407 0.018555824
-0.28657222 -0.31825078 1.046611 0.41642401 0.90701205 -0.06261237 0.026652487
0.078167625 -0.65837604 0.99278939 0.23939553 -0.94296885 0.23129983 0.054608975
0.083172068 -0.63993001 0.99249595 0.38871899 -0.82443982 0.41133511 0.12650971
0.075897932 -0.39624599 0.9802826 0.081092007 0.99311262 -0.084566295 0.0097903758
0.074550524 -0.65948534 0.99640691 0.22284602 -0.94451904 0.2412955 0.054965392
0.079405941 -0.6641286 0.95790267 0.081739902 -0.99458528 0.064177252 0.036752544
-0.24111561 -0.51203638 1.0092591 0.0065408316 0.77748579 0.62886643 0.046815176
0.20138678 -0.40326759 1.0458595 0.45023453 0.88446391 -0.12252509 0.0021647611
0.21819822 -0.41223091 1.0430137 0.52310443 0.84726852 -0.09218391 0.0059256256
0.091988906 -0.60364509 0.92771989 0.65186805 0.24918528 0.71622252 0.044902038
-0.13905968 -0.58041334 0.93909508 -0.81555289 -0.13674031 -0.5622949 0.037798524
0.087997496 -0.66524893 0.95561415 0.010622189 -0.99632955 0.084938549 0.017924313
-0.24924164 -0.40351385 0.9697367 0.14471082 0.41859013 -0.89657187 0.045783777
0.042442225 -0.37912166 1.0230649 0.20802927 0.91732872 -0.3394582 0.004978253
0.054537676 -0.38187617 1.0273726 0.17877647 0.91977566 -0.34935907 0.0055972184
0.0043588625 -0.665286 0.98487478 -0.20645936 -0.94228125 -0.26359168 0.020943042
0.045813274 -0.66562855 0.94254023 -0.065499015 -0.97849005 -0.19561967 0.031882852
-0.11040375 -0.67482299 0.94084191 -0.13503975 -0.85141045 -0.50681806 0.087167397
-0.31086025 -0.41880459 1.0293257 -0.9247945 0.20929268 -0.31772906 0.018355824
-0.18118051 -0.65413743 0.96722871 -0.067242779 -0.38997963 0.91836506 0.13798651
0.17792869 -0.64088589 0.93675792 0.59914422 -0.57427818 -0.55788058 0.10787681
-0.12267485 -0.66756904 0.93758726 -0.28562 -0.77234793 -0.56736219 0.11463156
0.086304061 -0.42915022 1.1637955 0.89266366 0.31878912 0.31863013 0.040107559
0.057575677 -0.66844153 0.95645136 0.026089225 -0.99913889 -0.032262962 0.027007408
-0.27516979 -0.33962384 1.1023998 0.39178687 0.90383834 0.17198618 0.031910576
-0.27826178 -0.32267657 1.0110066 0.48407814 0.86671239 -0.12032417 0.04826754
0.041443773 -0.66834056 0.96147394 -0.039813973 -0.99303973 -0.1108463 0.032840274
0.040162459 -0.37915224 1.0210062 0.20802927 0.91732872 -0.3394582 0.004978253
0.14036682 -0.66134143 0.9242267 0.13501501 -0.74691516 -0.6510675 0.030304616
-0.052831661 -0.66577673 0.97537041 0.28089571 -0.80646396 -0.5203014 0.096402325
-0.15981035 -0.66135722 0.9744522 -0.4298557 -0.8554135 0.28894943 0.23122016
-0.13943447 -0.66009098 1.1260631 -0.66090918 -0.6871711 0.30165362 0.10090928
-0.13474421 -0.66056681 0.94416142 -0.62076128 -0.44657072 -0.64438337 0.11054521
-0.15802026 -0.6647799 0.9732967 -0.38853487 -0.87481856 0.2893669 0.21801095
0.008332653 -0.6654892 0.99985576 -0.15728089 -0.96655011 -0.202592 0.016127432
0.037307881 -0.6681807 1.0122874 0.23039012 -0.97133178 -0.058609102 0.089435995
0.29198119 -0.65625209 0.98414928 0.42599988 -0.13623007 0.89440793 0.14515598
0.066027567 -0.66617477 0.98746073 0.17841092 -0.97193974 0.15330578 0.04593087
0.039430585 -0.66560614 1.0163771 0.37634674 -0.9258284 -0.034711305 0.067754932
-0.057820808 -0.56823486 0.94894946 0.45145777 -0.31446174 -0.83504462 0.070370995
-0.0099161183 -0.66170645 0.97567886 -0.16285744 -0.83982962 -0.51784521 0.050979506
0.059041403 -0.66354412 1.0248935 0.47527719 -0.87588692 0.08326827 0.045714248
-0.049161825 -0.54739165 0.94620121 0.31960472 -0.41613919 -0.85128194 0.039098956
0.065693341 -0.60083133 0.96078926 0.85231793 0.48260823 0.20160215 0.10966159
-0.14920564 -0.62917668 1.0380836 -0.98856294 -0.1124341 0.10050771 0.070791475
-0.15559518 -0.65998513 1.0952225 -0.92884058 -0.36838353 0.039353237 0.11013114
-0.12760422 -0.63763821 0.93608677 -0.65566039 -0.13043168 -0.74370492 0.048935223
0.063971199 -0.39461404 0.97226554 0.13686804 0.98906553 -0.054922491 0.0087506101
0.23336558 -0.42270419 1.0358045 0.56285238 0.82167542 -0.089703977 0.0092724962
0.40227062 -0.6599853 0.88332665 0.68823189 0.50224918 0.52352899 0.17846824
0.38126114 -0.63362145 0.87860793 0.69713563 0.69455433 0.17775321 0.023064567
-0.1800839 -0.65274471 0.96781009 -0.047078971 -0.30727312 0.95045614 0.12482539
-0.30231926 -0.40003216 1.0038373 -0.8432731 0.28427604 -0.45615524 0.030898063
-0.34196624 -0.47270277 1.0162519 -0.88229293 0.31098163 -0.3533406 0.055263005
-0.15857142 -0.64963728 0.97265834 -0.87599212 -0.055454575 -0.47912702 0.2074275
-0.30495271 -0.38443476 0.99422449 -0.76534665 0.13599156 -0.62908727 0.14304982
-0.27728468 -0.32335353 1.089062 0.37542841 0.92501098 0.058379337 0.026424168
0.49627778 -0.65250975 0.86732006 0.023597602 -0.96556294 0.25909728 0.023921197
0.40300122 -0.65571517 0.8607192 0.73311496 0.63015175 0.25583416 0.035783358
0.35765323 -0.62502509 0.90567833 0.47633308 0.62787277 0.61553442 0.04448127
0.48585859 -0.66477227 0.83338118 -0.059668325 -0.9215433 0.38366362 0.006552563
0.42702878 -0.62088788 0.90997553 0.46573406 -0.65020788 0.60026777 0.0372767
-0.15180945 -0.66092277 0.96788692 -0.46467054 -0.86899894 -0.17006509 0.21849091
-0.27459764 -0.3236672 1.0872635 0.4142651 0.90929443 0.039597664 0.025579009
0.066735528 -0.39457306 0.96896005 0.12434067 0.99208021 -0.017784359 0.0075240596
-0.1227747 -0.6722275 0.91582817 0.19474871 -0.93105942 -0.30854714 0.18155427
-0.19761787 -0.65285671 0.97050959 -0.051951788 -0.31262499 0.94845486 0.020399574
-0.25001368 -0.65667784 0.99224555 -0.26863506 0.15395585 -0.95085895 0.12019396
-0.28161043 -0.64498371 1.0124774 -0.31813744 -0.22816339 -0.92017937 0.12313341
0.47761133 -0.64997947 0.87183535 0.012874185 -0.95953757 0.28128615 0.038880713
0.41043651 -0.65844119 0.85483176 -0.11075387 -0.28565928 -0.95190978 0.14667356
-0.29942247 -0.65656376 1.0246438 0.1546585 -0.24193032 0.9578886 0.14153156
-0.18784 -0.66291529 0.96593052 -0.040580619 -0.2903302 0.95606565 0.041861448
-0.36215314 -0.47555473 1.0355576 -0.93227315 -0.055510595 -0.35747081 0.050416574
0.42762491 -0.62439698 0.90806258 0.4811132 -0.73847228 0.47242853 0.050273441
-0.2846761 -0.32254925 1.0007594 0.45059362 0.8758961 -0.17254387 0.069420792
-0.31972417 -0.40224773 1.0451076 -0.93683869 0.19992232 -0.28699186 0.0086031379
-0.27336025 -0.32340768 1.0835942 0.41414535 0.90957177 0.034100238 0.024685379
-0.17361359 -0.64700621 0.88602042 -0.5441308 -0.80967379 0.21988629 0
-0.11110302 -0.58908486 0.91982061 -0.19017203 -0.1993331 -0.96130168 0.08861088
-0.17178963 -0.64802015 0.88586694 -0.55665761 -0.83072245 0.0056933998 0
-0.11392462 -0.37608021 1.0715443 0.24304308 0.71167237 -0.6591301 0
-0.262986 -0.33347076 0.98721027 0.58232576 0.66266555 -0.47092584 0.1421269
-0.28061408 -0.65137237 1.0172676 -0.31813744 -0.22816339 -0.92017937 0.12313341
-0.32885671 -0.6510914 1.0049829 0.033036307 -0.99944764 0.0036099975 0.02634453
-0.27166304 -0.3299728 1.0272543 0.45110485 0.88943291 -0.07357733 0.041589387
-0.28352961 -0.3206993 1.0771407 0.37092727 0.92811155 0.031966202 0.019885801
0.39014563 -0.627069 0.86670178 0.75621349 0.62696332 0.18723822 0.030669194
-0.069423117 -0.64479375 0.87537807 -0.1587103 -0.93253613 -0.32432607 0.016016029
-0.10697784 -0.62694812 0.91952699 -0.45849615 -0.1213906 -0.88036668 0.045451786
0.040475789 -0.37914932 1.022794 0.20802927 0.91732872 -0.3394582 0.004978253
0.1364675 -0.4441376 1.1648685 -0.25688481 0.45925584 0.85034949 0.031333625
-0.27796087 -0.32330894 1.0523224 0.44820023 0.89316177 -0.037131254 0.0031020807
0.055740312 -0.3962211 1.1207823 -0.10479181 -0.32264709 0.94070053 0.018128833
-0.25518221 -0.33822244 1.0180955 0.58736968 0.79646695 -0.14365694 0.048559602
-0.25817159 -0.33629861 1.0265708 0.55578667 0.82710904 -0.083617829 0.018301614
-0.26932269 -0.32454956 1.0861253 0.41419533 0.90954214 0.034281678 0.024774306
-0.25239158 -0.33668107 1.0814785 0.43409473 0.89978504 -0.044142198 0.045589834
-0.26911241 -0.3235465 1.0822279 0.41414535 0.90957177 0.034100238 0.024685379
-0.25846094 -0.65564018 0.99819583 -0.28867158 0.14327374 -0.94664747 0.09971603
-0.28434801 -0.67931068 1.0229012 0.22389978 -0.32884249 0.91745925 0.060929999
0.073066927 -0.39166331 1.0127671 0.10705557 0.96959078 -0.22007461 0.010284018
0.016052358 -0.4208391 1.1123197 -0.063636191 -0.49646989 0.86571819 0.025594423
0.065080538 -0.39081639 1.0129534 0.1125287 0.96694613 -0.22880669 0.010831707
-0.26113638 -0.33284137 1.0440594 0.51567394 0.85500103 -0.05525944 0.0032202811
-0.14232908 -0.66191566 1.115648 -0.66845262 -0.73408341 0.11955163 0.10435435
-0.26755923 -0.33128387 0.99856263 0.65001047 0.69515646 -0.30699167 0.12228983
-0.04241829 -0.67555618 0.81928951 -0.11824581 -0.071477078 -0.99040848 0.00028436157
-0.26773801 -0.32459146 1.0803808 0.43321329 0.90104115 0.021235783 0.025312463
-0.31543335 -0.40996367 1.0400866 -0.91133678 0.24821194 -0.32841471 0.011199934
-0.2689501 -0.32748008 0.991445 0.59573925 0.67251569 -0.4391098 0.14109321
0.094872534 -0.39673081 0.96332276 0.14072682 0.98745483 0.071616225 0.0060277088
0.091982834 -0.41391292 1.1204576 0.26008561 0.46544048 0.8460027 0.075472169
-0.14555818 -0.67545551 0.96419817 -0.38527611 -0.87854129 -0.28236061 0.14185299
-0.10961875 -0.67374116 0.93682909 -0.05276306 -0.87212449 -0.48643082 0.10634152
-0.095328264 -0.67109436 1.050989 -0.17208435 -0.98113674 -0.088077471 0.047183126
0.065399282 -0.66471344 0.92737871 -0.034157347 -0.99906725 -0.026417229 0.0041182204
-0.13711698 -0.66394752 1.070851 -0.81194717 -0.55373234 -0.18472208 0.13956174
-0.058659237 -0.6588679 0.92673314 0.5032714 -0.79750103 -0.33273107 0.10272134
-0.12830853 -0.66080189 1.0459392 -0.84573996 -0.51846856 -0.1261519 0.10631513
-0.12983249 -0.66091979 1.0457455 -0.82046521 -0.56826293 -0.062562302 0.096806206
-0.10927064 -0.68232119 1.0633967 -0.54285592 -0.77943957 -0.31270018 0.094166838
-0.13571747 -0.49639302 0.93743932 -0.78928554 0.27923462 -0.54686046 0.076399185
-0.11844957 -0.63100642 0.92819566 -0.47362888 -0.13452619 -0.87038976 0.050069377
-0.14506239 -0.66159523 1.0586176 -0.81282163 -0.50526744 -0.28987205 0.13953923
-0.27913594 -0.37249461 0.98875856 -0.25732705 0.21244003 -0.94268346 0.049285837
-0.33699298 -0.47552854 1.0031427 -0.85376608 0.33230689 -0.40081856 0.054759771
-0.34958237 -0.48162794 1.0200815 -0.89815634 -0.034713529 -0.43830386 0.048071217
-0.33907679 -0.47440755 1.0056764 -0.86246544 0.33164352 -0.38231647 0.052739866
-0.34215885 -0.48671186 1.0126114 -0.86667407 -0.04022827 -0.49725014 0.041378774
0.095713533 -0.66260028 0.97417355 0.024833061 -0.98165411 0.18904653 0.027414074
-0.23412845 -0.41114354 0.96994454 -0.33733219 -0.23528929 0.91150743 0.071267374
-0.26757932 -0.3349992 0.99058318 0.61063319 0.66522962 -0.42964733 0.13613425
-0.15128581 -0.67046905 0.96490794 -0.39597267 -0.83942473 -0.3722522 0.15367338
-0.23203433 -0.41209009 0.97031236 -0.33733219 -0.23528929 0.91150743 0.071267374
-0.33680582 -0.47585937 1.006241 -0.86246544 0.33164352 -0.38231647 0.052739866
-0.2314657 -0.41281402 0.97016472 -0.33733219 -0.23528929 0.91150743 0.071267374
-0.1420901 -0.66592741 1.0824683 -0.74644244 -0.66350406 -0.050853077 0.11622894
-0.50288141 -0.68629295 0.87353981 -0.70616829 0.5733043 -0.41551 0.032300934
-0.5107618 -0.6785624 0.88919067 -0.70323622 0.42604178 -0.5691635 0.035917904
-0.2993829 -0.41075593 0.99604988 -0.81614447 0.22472852 -0.53235811 0.053016368
-0.26748174 -0.3329902 0.99370682 0.61063319 0.66522962 -0.42964733 0.13613425
-0.05242854 -0.6533041 0.92992646 0.59276849 -0.68478447 -0.42390531 0.12999091
-0.10704582 -0.66205728 0.92598414 -0.06374567 -0.80312043 -0.59239691 0.11550602
-0.11274888 -0.67392033 1.0407751 -0.35479724 -0.92909551 0.10440547 0.066975556
-0.16279869 -0.51641476 0.95993108 -0.6828112 -0.06952551 -0.72727925 0.0076357531
-0.14014705 -0.66536379 1.0603927 -0.80561489 -0.5266121 -0.2714116 0.15270722
-0.060678922 -0.6569742 0.92434418 0.514525 -0.81323844 -0.27185911 0.11848764
0.055692546 -0.66420352 0.92048383 -0.043757875 -0.99791205 -0.047505412 0.0035663908
0.074728437 -0.66669339 0.95699668 0.056010239 -0.99739605 0.045430515 0.032135181
-0.22540063 -0.41531533 0.97233492 -0.37323189 -0.093214378 0.92304343 0.076923251
0.10943076 -0.66825175 0.93919593 0.036703642 -0.99809021 -0.049687807 0.03032087
0.091727242 -0.39002663 1.0188671 -0.00053946872 0.96107757 -0.27627805 0.0050743795
0.073141798 -0.66590017 0.92983067 -0.0005770385 -0.99999708 -0.0023289842 0.0060336012
0.033549912 -0.67095155 0.98177308 -0.028830333 -0.99704647 -0.071183525 0.034616373
0.086009853 -0.66489017 0.94547606 -0.0029714152 -0.9996109 0.027733929 0.0097465366
0.095299013 -0.39703244 0.96405554 0.13832676 0.98897737 0.052815702 0.0068071056
0.081443407 -0.66484237 0.97220689 0.12350103 -0.9799189 0.15654545 0.041494031
-0.10572226 -0.6708312 0.93232143 -0.034440603 -0.85530376 -0.51698089 0.089473821
-0.25476027 -0.33430198 1.0914159 0.41524711 0.90943426 -0.022340799 0.052072067
-0.26049829 -0.33021092 1.0852447 0.47537857 0.87975562 -0.0067311265 0.014383757
0.17220291 -0.38678461 1.0859948 0.47618029 0.8719461 0.11385259 0.013255035
0.063766107 -0.39461511 0.99473137 0.10998818 0.98301178 -0.1469371 0.010058742
0.081846893 -0.56849432 0.93496263 0.70992863 0.17167281 0.68302989 0.040421788
-0.34785849 -0.50076324 1.0322338 -0.88096458 -0.2081589 -0.42493692 0.030534107
-0.24576324 -0.3394413 1.0840348 0.44781443 0.89276153 -0.049387176 0.048601411
-0.25844941 -0.33522344 1.0293062 0.54452372 0.83561981 -0.072342336 0.013253748
-0.26257968 -0.33566004 0.99600035 0.63433611 0.67604911 -0.37493357 0.13099083
-0.21084251 -0.35339749 1.0796613 0.47310367 0.86031777 -0.18980539 0.079521671
-0.2534748 -0.33611459 1.0725807 0.45347959 0.88925415 -0.059861969 0.032114111
-0.26430511 -0.32789448 1.0646094 0.47992015 0.87665564 -0.03393323 0.0070067495
-0.21435748 -0.51312023 1.0079203 -0.0045234752 0.73355186 0.67961848 0.033096425
0.085303329 -0.65623677 1.0666381 0.18335325 -0.97440392 -0.13007168 0.097824119
0.00034276233 -0.52533019 0.93402112 0.061467148 -0.54781908 -0.83433568 0.015114462
0.13243607 -0.38219523 1.0223706 0.027859524 0.93286133 -0.35915685 0.015890842
0.10350867 -0.39870256 0.98450404 -0.035509665 0.99020803 -0.1350081 0.0063987724
0.10742926 -0.65497738 1.0358731 -0.52363914 -0.81352609 0.2529375 0.10624634
-0.24891266 -0.34222394 1.0541114 0.51808184 0.85384971 -0.050317165 0.0030466078
0.062622696 -0.65628839 1.0186198 0.37800324 -0.91442448 0.14471126 0.051121503
-0.21974507 -0.41846788 0.97486115 -0.37362778 -0.093372293 0.92286724 0.077010833
-0.13909647 -0.67864293 0.96434563 -0.39959949 -0.86281538 -0.3096287 0.13169563
-0.083261125 -0.67063808 0.95516104 0.22385678 -0.92981988 -0.29210109 0.032881137
-0.010086061 -0.66348529 0.97730333 -0.16287485 -0.8396011 -0.51821011 0.050942332
-0.050443679 -0.51662624 0.91704559 0.051948033 -0.57259327 -0.81819212 0.016501686
-0.12068596 -0.59782064 0.92750102 -0.44841671 -0.26012647 -0.85513556 0.083903328
-0.33929613 -0.47624162 1.0130799 -0.88229293 0.31098163 -0.3533406 0.055263005
-0.022692459 -0.6472742 0.96564651 -0.05680972 -0.53932285 -0.84018058 0.10803995
0.10247131 -0.66332781 1.0984653 -0.47848326 -0.87805891 0.008141607 0.092732742
-0.14831348 -0.67003828 0.97405767 -0.33705035 -0.94140166 0.01265161 0.1843482
-0.08695104 -0.67687571 0.96841586 0.19098324 -0.9496215 -0.24848424 0.015613773
0.067229271 -0.38702977 1.0199052 0.11813027 0.95645279 -0.26691431 0.011239665
-0.23212059 -0.49547338 0.99956405 0.043266021 0.57397848 0.81772667 0.049189534
-0.1468505 -0.61744815 0.97576255 -0.93105584 0.28376862 -0.22936928 0.098332532
0.028851731 -0.67893475 1.0280991 0.24952748 -0.9240188 -0.28969848 0.073178433
0.096364439 -0.66755128 0.88295013 0.15450478 -0.98785776 -0.016292611 0.019302098
-0.14095925 -0.64520061 1.0488979 -0.93194598 -0.28664583 -0.22206075 0.13116349
-0.25975469 -0.34007457 0.99542016 0.63433611 0.67604911 -0.37493357 0.13099083
-0.19888316 -0.50259781 0.99071139 -0.33940274 -0.65979141 -0.67043346 0.054245077
0.10912415 -0.66829962 0.94141114 -0.026237544 -0.99960005 -0.010554379 0.013270126
0.096926332 -0.6636222 0.97597927 0.022149367 -0.97808522 0.20702343 0.027562231
-0.1156747 -0.59427488 0.92470038 -0.32390252 -0.20805936 -0.92292929 0.09372399
0.04205332 -0.67148674 0.96952403 -0.0070899781 -0.99860817 -0.052263401 0.030918775
-0.29728717 -0.41640511 0.99311376 -0.70820642 0.085937716 -0.7007556 0.044730384
-0.45465788 -0.68304533 0.78453803 -0.44703713 0.88418335 -0.13556436 0.0062358887
-0.42732266 -0.68798858 0.71202326 -0.62326294 0.65443647 -0.42808425 0.018442621
-0.49411631 -0.69416565 0.82549202 -0.74820095 0.56241196 -0.35197741 0.016105141
-0.46813327 -0.68934828 0.77584761 -0.6046859 0.76596737 -0.21828623 0.023370193
-0.50570458 -0.69541502 0.85546088 -0.71025628 0.60857004 -0.35380575 0.017904704
-0.18933231 -0.49199924 0.98528612 -0.41875055 -0.46913582 -0.77753431 0.048767727
-0.44965506 -0.68369138 0.75372219 -0.37749523 0.90946835 -0.17425442 0.0043816064
-0.26287878 -0.33515114 0.99979252 -0.66259545 -0.68868929 0.2944048 0.11320481
-0.41328636 -0.68677884 0.68630701 -0.72355968 0.53151011 -0.44040695 0.030167475
-0.49157399 -0.67938471 0.87475544 -0.70554149 0.57578015 -0.41314453 0.028775364
-0.45258063 -0.6834197 0.80199057 -0.44440687 0.88087803 -0.16296142 0.0055631883
-0.077280492 -0.57261103 0.92115396 0.42729861 -0.32431442 -0.84394073 0.022336898
-0.46311057 -0.68529671 0.79014897 -0.60407943 0.75138831 -0.2655251 0.018354246
-0.47301051 -0.67562187 0.83385432 -0.48818383 0.83481205 -0.25449064 0.0094357366
-0.53553492 -0.69073713 0.9329465 -0.93838429 -0.1304291 -0.32003626 0.021130262
-0.15359062 -0.66995007 0.96628022 -0.36698541 -0.88858294 -0.27521279 0.15912412
-0.21856247 -0.37880906 0.98464298 0.14713685 0.36780548 -0.91818845 0.014842041
-0.54656208 -0.68429792 0.97835916 -0.81836671 -0.46777028 -0.33386663 0.027328491
-0.1294574 -0.66793036 1.0267695 -0.71450108 -0.69962049 0.0043986351 0.084509462
-0.22539817 -0.4150407 0.97272348 -0.37323189 -0.093214378 0.92304343 0.076923251
-0.33553004 -0.47605753 1.0052679 -0.86246544 0.33164352 -0.38231647 0.052739866
-0.49155045 -0.68046921 0.85220009 -0.73493439 0.60494512 -0.30645221 0.0087935664
-0.49063346 -0.69869274 0.80794764 -0.75929689 0.54355359 -0.35779577 0.017628266
-0.50604719 -0.67736012 0.88691497 -0.73370576 0.4117924 -0.5404653 0.040866155
-0.34244695 -0.489553 1.014649 -0.86667407 -0.04022827 -0.49725014 0.041378774
-0.47098058 -0.68887562 0.78425503 -0.6159547 0.74415189 -0.25852984 0.0172731
-0.019364586 -0.64172846 0.95665741 -0.13819736 -0.51882195 -0.84363818 0.10579611
-0.53146821 -0.73623294 0.89461941 -0.94617313 0.28812739 -0.14744148 0.0013177671
0.029671673 -0.67104822 0.97859651 -0.12015211 -0.97841185 -0.16814798 0.03356792
-0.12749559 -0.67161846 0.94514924 -0.33562899 -0.77277887 -0.53867066 0.10046471
-0.41262108 -0.67672545 0.7053473 -0.69378591 0.56103122 -0.45155856 0.027247308
-0.46414599 -0.68781561 0.77275246 -0.6040557 0.76421654 -0.22603075 0.020365672
-0.47901177 -0.7231515 0.76658517 -0.76048487 0.57224667 -0.3069146 0.025382906
-0.49829841 -0.68130076 0.87291574 -0.69524318 0.57571477 -0.43033659 0.031125871
-0.50484848 -0.69238019 0.86252308 -0.70703977 0.60702652 -0.36278579 0.019287439
-0.50421447 -0.68445092 0.87698841 -0.71853018 0.49496529 -0.48859358 0.041344829
-0.42025399 -0.7052235 0.68865079 -0.69378591 0.56103122 -0.45155856 0.027247308
0.035421692 -0.67149597 0.98054826 -0.036620423 -0.99710089 -0.06669914 0.035285618
-0.11532972 -0.59528786 0.92511636 -0.32390252 -0.20805936 -0.92292929 0.09372399
-0.1485403 -0.66290271 0.96263993 -0.57154906 -0.64703 -0.5046621 0.18357572
-0.22045645 -0.3753401 0.9831354 0.15602748 0.36380917 -0.91831279 0.013357097
-0.2177102 -0.50266904 0.99020839 0.1915386 0.60530549 0.7726047 0.032517184
-0.34319299 -0.48655102 1.0138971 -0.86667407 -0.04022827 -0.49725014 0.041378774
-0.26755303 -0.4071601 0.97723895 -0.33096883 0.12057583 -0.93590653 0.046200473
-0.10331633 -0.66436672 0.9283939 -0.039330009 -0.80247265 -0.59539127 0.11756563
-0.050502334 -0.62398505 0.94634527 0.81933391 0.0097591104 -0.5732336 0.09715493
-0.25956577 -0.401416 0.97728801 -0.24012458 0.23945303 -0.94074565 0.053975869
-0.18583982 -0.50011617 0.99398696 0.32727444 0.75880015 0.56312847 0.046830669
-0.03331269 -0.64619797 0.96492624 0.082971327 -0.38854763 -0.91768533 0.15812707
-0.072921842 -0.65305114 0.90640873 -0.028336668 -0.90040338 -0.43413234 0.14814743
-0.02609775 -0.65700114 0.97170371 -0.022530133 -0.75588644 -0.65431494 0.11027936
-0.12492574 -0.67048854 0.94328421 -0.34357169 -0.74278295 -0.5746581 0.093308061
-0.34638956 -0.49870872 1.0280888 -0.93616778 -0.023804273 -0.35074675 0.040498242
-0.014238427 -0.65512168 0.96520907 -0.20447473 -0.74593282 -0.63385665 0.074122161
-0.14290552 -0.67123181 0.92895114 -0.32765621 -0.85589296 -0.40011072 0.12079753
0.065609753 -0.66695464 0.93502349 -0.010396848 -0.9998526 -0.013660208 0.0060522128
-0.064192794 -0.65958929 0.90978807 0.18471564 -0.94682509 -0.26344326 0.097047709
-0.1360203 -0.47445241 0.9748593 -0.94013089 0.29074991 -0.17781569 1.49417e-05
0.072579086 -0.66596889 0.93054134 0.0078305174 -0.99993861 -0.0078314971 0.0063532488
0.068935834 -0.3944144 1.0038471 0.11003459 0.98301959 -0.14684995 0.01007029
0.071678579 -0.39041391 1.0155063 0.11251599 0.9669174 -0.22893418 0.010831259
0.021330368 -0.66514945 0.96620154 -0.19715895 -0.9323296 -0.30313325 0.022588233
0.20275544 -0.60340077 0.95315003 0.85294783 -0.26923448 -0.44720554 0.0071525155
0.14259818 -0.3920581 1.0243894 0.17934979 0.96289378 -0.20166619 0.016690183
0.10496093 -0.40146223 0.97334254 -0.0066602305 0.99446619 -0.10484583 0.0099684875
-0.00025135852 -0.66298175 0.97355229 -0.19483672 -0.90486342 -0.37849826 0.013523546
-0.22439751 -0.41535985 0.97273088 -0.37323189 -0.093214378 0.92304343 0.076923251
0.077340066 -0.38918293 1.0190482 0.074091464 0.9619512 -0.26298386 0.011071728
0.17028435 -0.38632458 1.0897939 0.47618029 0.8719461 0.11385259 0.013255035
0.054704838 -0.67356092 0.97888047 0.085579991 -0.99404907 0.067398258 0.040042832
0.19383428 -0.3996762 0.97518373 0.43490371 0.84088671 0.32213089 0.021176782
0.084009983 -0.38767534 1.0206549 0.019002389 0.94951373 -0.31314942 0.0079475334
-0.060987893 -0.66480738 0.94154006 0.46578598 -0.79398763 -0.39067504 0.067675136
0.18703657 -0.39581671 1.0932355 0.52045524 0.8390103 0.15870742 0.017714398
0.14057723 -0.39016309 1.0245461 0.14001881 0.96930569 -0.20209207 0.018195974
0.095422871 -0.38983899 1.0183949 -0.0061350558 0.96882361 -0.24767555 0.0039438545
0.12236687 -0.66429597 0.9304778 0.0250526 -0.94371951 -0.32979673 0.025802044
-0.26370135 -0.33235466 1.0390898 0.48258308 0.87326509 -0.067243494 0.017548107
-0.26017743 -0.33040833 1.0853194 0.47537857 0.87975562 -0.0067311265 0.014383757
-0.042087466 -0.6039722 0.95733243 0.44082215 -0.088953361 -0.89317584 0.11257537
-0.098352909 -0.66435516 0.93033475 0.02769367 -0.82669389 -0.56197 0.099459864
-0.049687155 -0.53603518 0.9335047 0.23682447 -0.46964318 -0.85049951 0.035383835
-0.24117027 -0.343532 1.0838069 0.49354684 0.86891919 -0.03729748 0.052308828
-0.27549797 -0.32404241 1.0895604 0.37535724 0.92502898 0.058552448 0.026577532
-0.26341736 -0.33304614 1.0082232 0.60073191 0.77566499 -0.19355854 0.080133818
0.10554695 -0.39953795 0.9740684 -0.02345828 0.9931975 -0.11405458 0.0099088782
-0.27458137 -0.32574439 1.0068976 0.51335597 0.84091723 -0.1712423 0.06701342
-0.28078911 -0.32341331 1.0913225 0.35963422 0.93036848 0.071258239 0.026588304
0.22933815 -0.41975695 1.036569 0.54468143 0.83258498 -0.10061982 0.0067098131
0.095519245 -0.6661815 0.89862794 -0.015118596 -0.99875408 -0.047558159 0.0066815601
0.17632604 -0.38851026 1.0815923 0.48682177 0.86762059 0.10118791 0.011968439
0.17770544 -0.65942508 0.95886236 0.64017326 -0.67369735 -0.36920205 0.043380041
0.16049671 -0.66962117 0.94039267 0.37732193 -0.77603805 -0.5053643 0.068845354
0.13707756 -0.66571736 0.92857713 0.097198419 -0.82919025 -0.55045062 0.02923204
0.40559009 -0.65755212 0.88481188 0.57393581 0.50475574 -0.64484054 0.21625564
0.2322516 -0.4225944 1.0312757 0.54479635 0.82986617 -0.12049488 0.0072293356
-0.27541974 -0.3275995 1.0142572 0.45044613 0.88532275 -0.11533373 0.072022788
0.044293519 -0.38445386 1.0154949 0.18708307 0.94380355 -0.27246079 0.010326441
0.22276101 -0.4148362 1.0408859 0.52600658 0.84525812 -0.094105296 0.0053957552
0.16170128 -0.38240346 1.0843825 0.48223171 0.86858845 0.11404728 0.01548417
0.18717594 -0.39887169 1.1094829 0.38498095 0.85259348 0.35337511 0.013385409
0.1708151 -0.3988063 1.1153598 0.20475744 0.82865095 0.52097207 0.019293241
-0.27124849 -0.32902589 1.0151973 0.47789735 0.86779416 -0.13618962 0.079711877
-0.26636812 -0.33142722 1.095304 0.40786734 0.91111428 0.059286814 0.028489044
-0.20856375 -0.45932466 1.1091627 -0.10792343 -0.16883306 0.97971827 0.071687676
0.17276326 -0.39292312 1.0526401 0.32172555 0.93219817 -0.16582862 0.0065779435
0.17076534 -0.39289209 0.98155046 0.40319738 0.81624621 0.41373178 0.013847819
0.19483645 -0.40371644 0.9803161 0.46095502 0.8572191 0.22955558 0.023583023
-0.25668195 -0.33716026 1.0168935 0.58736968 0.79646695 -0.14365694 0.048559602
-0.2107165 -0.45401269 1.1088461 -0.67448825 0.047834348 -0.73673421 0.012990148
-0.21329068 -0.48896432 1.1027186 -0.052649118 -0.29424492 0.95427877 0.13420573
0.20514894 -0.41443151 1.1193378 0.33286971 0.74767298 0.57461542 0.028128192
0.15567626 -0.42128557 1.1479294 0.053818367 0.76186049 0.64550143 0.012339963
0.20704381 -0.44353449 1.1351154 0.29894218 0.68906111 0.66017306 0.04140326
0.22945382 -0.41706914 1.0583098 0.5597809 0.82794982 0.033828732 0.0069769514
0.24702592 -0.43203673 1.0479835 0.65386862 0.75649524 -0.013064648 0.0097904364
0.015359083 -0.40785262 1.1193196 -0.093415126 -0.44142559 0.89242202 0.027091976
0.24931259 -0.43559974 1.066723 0.63819033 0.76673698 0.069480367 0.0057336702
0.19474037 -0.4216567 1.1286383 0.22008167 0.73835093 0.63749653 0.020145928
0.14169286 -0.37337351 1.0863384 0.30401853 0.94243407 0.13925056 0.024094565
-0.2594808 -0.33444184 1.0147748 0.58790952 0.79542679 -0.14716858 0.05235792
0.080517985 -0.39980093 1.1166819 0.1250684 0.31221098 0.94174433 0.0029432345
-0.2396311 -0.34506166 1.0957239 0.49831572 0.86694443 -0.0094270259 0.067149177
0.26275802 -0.4453648 1.0430269 0.72435057 0.68747234 -0.05194293 0.014672101
-0.2728377 -0.32333773 1.0818874 0.41414535 0.90957177 0.034100238 0.024685379
-0.25565234 -0.53478372 1.0492887 -0.52280951 0.82308424 0.22181642 0.0056939889
0.23449056 -0.4725467 0.96472847 0.59880251 0.58835632 -0.54338968 0.11350394
0.23856667 -0.46709439 0.98834705 0.66158104 0.36428246 -0.65544558 0.030515769
0.28477067 -0.62586915 1.0354725 0.57726192 0.81640685 -0.015763547 0.13243102
0.26936889 -0.60749775 1.0345105 0.37465969 0.86148846 -0.34273571 0.11978164
0.25534752 -0.59417063 1.0434741 -0.029003538 -0.46010023 0.88739318 0.018927844
0.077815928 -0.66251665 1.0897548 -0.23634227 -0.97137904 0.023771144 0.10653316
0.079547197 -0.66365159 1.0825413 -0.09415292 -0.994277 -0.050481841 0.13758807
-0.074491151 -0.67779964 1.0698678 -0.29821461 0.49792242 0.81433487 0.071200497
-0.047469102 -0.67219216 1.0426828 0.31560862 -0.93710488 0.14908282 0.067669518
0.21883006 -0.41936964 1.128595 0.42432246 0.72970712 0.53616971 0.032616571
0.18533604 -0.66348469 1.008399 0.3691729 -0.88729763 -0.27643144 0.063386448
-0.24310233 -0.3444837 1.0162383 0.54191756 0.83020461 -0.13071233 0.049445834
0.18954055 -0.39866987 1.1053431 0.45599112 0.85236412 0.25602254 0.014153471
0.25688007 -0.43987268 1.035392 0.66380632 0.74492168 -0.066729344 0.011795442
0.17568569 -0.38827279 1.0778352 0.4944613 0.86463153 0.08899647 0.01157682
0.23218837 -0.42228648 1.0335089 0.55575883 0.82411486 -0.10939257 0.0081823086
0.185167 -0.66661227 1.118394 0.27133018 -0.82572049 0.49453565 0.013457247
0.16937068 -0.43302435 1.1466322 0.24406461 0.62838244 0.73862576 0.0076230727
0.092952408 -0.42406905 1.1223615 0.25063071 0.54549909 0.79975933 0.17709351
0.31590021 -0.56224811 1.0097506 0.3870112 0.14613427 -0.91042143 0.0047671702
0.21820568 -0.58991307 1.0538639 0.063548975 -0.13632567 0.98862374 0.02970648
0.35073406 -0.63985056 1.0621979 0.14574589 0.50491691 0.85077441 0.13133679
0.17164955 -0.67434472 1.1181428 -0.23409024 -0.89682359 0.37537864 0.18592599
0.24098985 -0.4281182 1.042613 0.60603374 0.79275578 -0.065280072 0.012678658
0.22950928 -0.41928273 1.0533361 0.56332535 0.82617718 0.0097918669 0.0076936288
0.18292071 -0.3931219 1.1029683 0.45438448 0.85523683 0.24920839 0.013561188
0.16779518 -0.38419408 1.0723495 0.47500786 0.87869477 0.047572035 0.0071436227
0.33606562 -0.64514917 0.94035184 0.61955333 0.55036765 0.55968672 0.064689204
0.24768829 -0.43314233 1.049049 0.65386862 0.75649524 -0.013064648 0.0097904364
0.2572512 -0.44440079 1.0627568 0.68044716 0.73114049 0.049246415 0.0072633913
0.31086898 -0.62633955 1.0629237 0.16317521 -0.52487594 -0.83539152 0.13437031
-0.272062 -0.32815602 1.097492 0.40091732 0.91067851 0.099649273 0.030015893
-0.25930101 -0.33122015 1.0923214 0.43204838 0.9013328 0.03055254 0.028378462
0.20282656 -0.40562785 0.97665387 0.47221124 0.84645706 0.24602246 0.014123113
0.1802011 -0.39814374 0.98322493 0.43289176 0.84215903 0.32151666 0.024446499
-0.27572286 -0.32707486 1.017135 0.44082087 0.89231348 -0.097230121 0.060147729
0.29456559 -0.65688807 0.97293693 0.75465554 0.13323443 0.64245129 0.11866718
0.064435437 -0.38682148 1.0213423 0.12606601 0.95201212 -0.2788913 0.011715674
0.1823698 -0.66251528 0.98105997 0.72868103 -0.5715239 -0.37733874 0.017204454
-0.27037543 -0.32837021 1.0167972 0.51996392 0.84639597 -0.11511484 0.034520064
0.24115033 -0.43108281 1.0148783 0.6094808 0.73112309 -0.30658156 0.029041287
0.23292775 -0.6656791 0.97810137 -0.21198311 -0.8698042 -0.44553763 0.048005
0.19041032 -0.39769432 0.97628057 0.43490371 0.84088671 0.32213089 0.021176782
0.15817355 -0.67039227 0.94045281 0.22094379 -0.80448741 -0.55134726 0.050762258
0.24143293 -0.4282054 1.0269175 0.59918213 0.78697687 -0.14713322 0.011272553
0.26717156 -0.46524146 1.0109475 0.75132918 0.49264428 -0.43909699 0.087229967
0.16664357 -0.6749993 0.96440101 0.54240519 -0.78135175 -0.30868453 0.033198919
-0.28067321 -0.31960064 1.0612074 0.43580657 0.8996219 -0.027439851 0.0062360936
0.50275463 -0.65009463 0.89007133 0.1417187 0.98346847 -0.1127189 0.050095543
0.15637177 -0.66467112 0.93213135 0.24287145 -0.71333033 -0.65739888 0.045187064
0.19184154 -0.55177653 0.88647419 0.4997347 -0.69181186 -0.52121162 0.0075550233
0.47008026 -0.67598122 0.81694907 0.080041714 0.92256784 -0.37744135 0.026345067
0.51956159 -0.65189928 0.9028275 0.31769341 0.94816971 0.0067221862 0.019893782
0.4766058 -0.64797997 0.90135449 0.17824201 0.94826776 -0.26271278 0.047461614
0.52029127 -0.65389049 0.8863253 0.27101338 0.9608441 -0.057709157 0.018136606
-0.25306788 -0.33614099 1.077704 0.43729767 0.89819872 -0.044830993 0.039548516
0.2009175 -0.66133463 0.9982965 0.6151045 -0.61731583 -0.490477 0.13689688
0.20269816 -0.61863363 0.97415292 0.88812369 -0.31556377 -0.33414936 0.017462146
0.53755087 -0.66359001 0.90732807 0.53139615 0.84475911 0.06324666 0.02296247
0.52693611 -0.65039879 0.88358194 0.31842789 0.94553608 -0.067567229 0.021348242
0.41266355 -0.66992027 0.87414336 0.72495705 0.61726773 0.30564329 0.12592906
0.37039399 -0.65396732 0.99522215 0.037991531 -0.85647756 -0.51478434 0.13923337
0.53129292 -0.6582455 0.85998076 0.35988593 0.9034695 -0.23286283 0.020225346
-0.13007577 -0.661089 0.94297194 -0.50041962 -0.56100905 -0.65943086 0.10401797
0.22400618 -0.66680229 1.0124073 -0.26823357 -0.866853 -0.4202579 0.033427808
0.51615238 -0.66460264 0.84137034 0.17087439 0.91855133 -0.35646248 0.0059670988
0.41764143 -0.6731497 0.87405282 0.78101796 0.51712966 0.35012555 0.16169584
0.48228142 -0.66617048 0.82981694 -0.059668325 -0.9215433 0.38366362 0.006552563
0.51087481 -0.66727459 0.83545727 0.1338841 0.90441215 -0.40510938 0.007930465
0.29305229 -0.61583042 0.99941748 0.56339949 -0.23139967 0.79311728 0.15661506
0.25454065 -0.43792874 1.04046 0.67101181 0.73942405 -0.054729544 0.011643265
0.27398992 -0.54891133 0.99721283 0.3634989 0.29514238 -0.88360602 0.003239484
0.24757263 -0.4340609 1.0581393 0.64242154 0.76534438 0.039274495 0.0075718267
0.30016991 -0.5715695 1.00052 0.42544842 0.10451844 -0.89892685 0.0089227473
0.43151695 -0.66475958 0.86676604 0.11803635 -0.48362857 -0.8672778 0.095196761
0.19900811 -0.66661412 1.0187387 0.69794762 0.68399072 -0.21219264 0.15784498
0.32800111 -0.63372397 0.99162513 -0.053884391 -0.65385455 0.75469911 0.055740435
0.39758742 -0.65426314 0.99985361 0.24091609 0.7771889 0.58132344 0.022205096
0.54007167 -0.66943479 0.93246049 0.73590094 0.67399532 0.064652897 0.010763799
0.39838135 -0.65502173 0.90580428 0.73357594 -0.42425913 0.53091478 0.15877824
0.35136253 -0.63753861 0.99705309 -0.060548168 -0.76337111 0.64311618 0.053974878
0.54573733 -0.66908914 0.89411217 0.61014062 0.79037005 0.055169385 0.016338453
0.47464466 -0.64773661 0.88674027 -0.11898421 -0.98300219 0.13981937 0.058351487
0.53576028 -0.66412675 0.95028359 0.87846625 0.47597432 0.041781038 0.00046395289
-0.069606811 -0.66334295 0.95062947 0.45392177 -0.80463177 -0.38278311 0.063412681
0.5515579 -0.67478311 0.88507879 0.67648101 0.73567849 0.03392072 0.010415928
0.351818 -0.66210973 0.92463768 0.3747991 0.65124249 0.65985519 0.056294218
0.22982822 -0.46391892 0.98592156 0.61967778 0.44577876 -0.64597267 0.031005673
0.17696558 -0.38926712 1.0914509 0.4925971 0.85921556 0.13819087 0.015110542
0.3732298 -0.6406827 0.98697084 -0.11483497 -0.69866997 0.70616794 0.073543705
0.30845132 -0.50926381 1.0311701 0.52757448 0.53209132 -0.6622265 0.010315104
0.53922123 -0.66976112 0.93049091 0.73590094 0.67399532 0.064652897 0.010763799
0.3360827 -0.63408244 0.99000579 -0.04334246 -0.68516189 0.72710013 0.051260166
-0.05601573 -0.66993135 0.98169649 0.27481106 -0.8609708 -0.42802832 0.071397096
-0.097771168 -0.67512816 0.94772893 0.098562829 -0.93619347 -0.33738294 0.040833816
0.32844564 -0.64625472 0.98215151 0.0036214448 -0.54993117 0.8352021 0.16979143
-0.051410884 -0.62260443 0.95030099 -0.84060955 -0.011311322 0.54152358 0.11497313
0.50701958 -0.67012239 0.82719535 0.1338841 0.90441215 -0.40510938 0.007930465
-0.025589675 -0.52992803 0.92850566 0.068447806 -0.56494111 -0.82228738 0.015809439
0.098960757 -0.66646069 0.93264925 -0.0096332496 -0.99990898 0.0094508873 0.007198446
0.25688395 -0.50757188 1.0010496 0.655415 0.170048 -0.73587692 0.0052243313
0.18485624 -0.39269054 1.075695 0.49369392 0.86513233 0.088387102 0.010898678
0.24760419 -0.48037338 0.99338955 0.69206893 0.2521489 -0.67635906 0.028478079
-0.13610984 -0.54266745 0.94366014 -0.75924104 0.0033336044 -0.650801 0.0075981799
0.33026129 -0.67028058 0.94258344 0.53404754 0.61790144 0.57705367 0.061528847
0.27508566 -0.50895137 1.0148144 0.5125252 0.20597465 -0.83360207 0.010808176
0.44492817 -0.64327788 0.88643134 0.086200953 0.59058976 -0.80235469 0.074441761
-0.0020904951 -0.51423675 0.91664827 0.063046798 -0.63619554 -0.7689476 0.0095718391
0.1411871 -0.4100351 0.93222779 0.46954256 0.87549341 0.1141976 0.00068293518
0.15286246 -0.69675517 1.074499 -0.22692557 -0.97362471 0.023656202 0.039737925
-0.1261394 -0.62333012 0.93745291 -0.70881838 -0.089483507 -0.69969213 0.036313727
0.36147329 -0.65715659 0.93583423 -0.011356073 -0.91127384 -0.41164416 0.13499576
0.3402631 -0.65430945 0.95982009 0.28341407 -0.85963637 0.4250904 0.13205412
-0.23557505 -0.50694495 1.0065459 -0.0093615586 0.56389648 0.82579243 0.060141571
0.084178738 -0.6570279 0.98867065 0.22248344 -0.94235718 0.24992786 0.0600935
0.075787701 -0.64718634 1.0137973 0.19336723 -0.95224601 0.23629777 0.069577634
-0.23362644 -0.51486099 1.0159953 0.010008822 0.77558357 0.6311655 0.040118143
0.20413557 -0.59982693 0.9534623 0.86955845 -0.25454289 -0.42317373 0.00783177
-0.12354276 -0.65871137 0.92853004 -0.40763387 -0.60784793 -0.68143642 0.12001075
-0.45501974 -0.69363087 0.74008608 -0.63077426 0.70924175 -0.3148016 0.014974268
-0.47185886 -0.69024801 0.79830432 -0.68602026 0.65567374 -0.31538564 0.023694975
-0.23574507 -0.40786359 0.97119313 0.26042747 0.31258398 -0.91349262 0.069551557
-0.26013851 -0.33083171 1.0651288 0.49372977 0.86898476 -0.033113379 0.0077806502
0.20434617 -0.41110855 1.0263759 0.46587726 0.87568587 -0.12701425 0.0041115186
0.09154918 -0.6275264 1.0270385 0.92069334 -0.11941021 -0.37157106 0.13010699
-0.49100685 -0.69444197 0.82125217 -0.74724454 0.55720836 -0.36213872 0.016725013
-0.50507647 -0.73812383 0.81321692 -0.86722142 0.25669959 -0.42665237 0.010111629
-0.50434268 -0.67239344 0.88735443 -0.71611702 0.40428126 -0.56897551 0.03851711
-0.49609506 -0.68257898 0.8652969 -0.70877481 0.60313958 -0.36587006 0.020938551
-0.48356733 -0.69846815 0.79382998 -0.75714266 0.55873591 -0.33845106 0.025866935
-0.17021959 -0.59145463 1.1018523 -0.46709064 -0.87689614 0.11348742 0.071473479
-0.50337726 -0.70066684 0.83983129 -0.80118287 0.51028597 -0.31259274 0.010789719
-0.43676925 -0.6875388 0.72667688 -0.55723077 0.75437695 -0.34700063 0.011069505
0.096665315 -0.64001745 1.0280255 0.21342884 -0.97695297 0.0033247918 0.10395651
-0.50286669 -0.75820845 0.8122254 -0.92069918 0.091618277 -0.37936661 0.0058641769
-0.52931184 -0.66462594 0.90660506 -0.51535845 -0.85515755 0.055778559 0.12635437
-0.51209229 -0.69525826 0.86541897 -0.72837842 0.58337891 -0.3593522 0.02201944
0.083407968 -0.65930355 1.0021057 0.22291212 -0.94399542 0.24327524 0.054090459
0.062088702 -0.6675275 0.95733601 0.035243358 -0.99919009 0.019419579 0.031773131
-0.14457081 -0.62858111 1.0370116 -0.98667938 -0.13874941 0.084925644 0.070490785
-0.12933533 -0.67096978 1.1230226 -0.61813837 -0.73930633 0.26707873 0.10290121
-0.52224535 -0.70398271 0.88572544 -0.7942484 0.37813205 -0.47558987 0.034309149
0.096351787 -0.6643216 1.097405 -0.48233354 -0.87550128 -0.029187616 0.10999049
-0.13040707 -0.58566236 0.93343645 -0.80168885 -0.15427503 -0.5774895 0.026958818
-0.20779745 -0.52361685 1.0273869 0.085911199 0.80718845 0.58400857 0.012688706
-0.5333764 -0.74893856 0.87273389 -0.9461208 0.28804266 -0.1479421 0.0013254733
-0.48008463 -0.69378179 0.79691583 -0.72153896 0.60975152 -0.32800096 0.022834277
-0.15861253 -0.66329855 0.97065938 -0.39804575 -0.90741086 0.13477859 0.22705778
-0.42935386 -0.68149358 0.7248913 -0.6113894 0.63833469 -0.46768779 0.0095663276
-0.30421007 -0.41387892 1.0010114 -0.87739396 0.20834169 -0.4321731 0.038578149
0.20233792 -0.59052312 0.95964551 0.86229426 -0.2888847 -0.41592559 0.0056842263
-0.26647726 -0.32946593 1.0076723 0.59224582 0.77960962 -0.20360181 0.085910931
-0.48247272 -0.69410348 0.80348307 -0.72173291 0.60177708 -0.34200311 0.019032415
-0.52146071 -0.71721286 0.86424488 -0.84518248 0.41738066 -0.33385625 0.03408365
-0.34919161 -0.47879049 1.0300159 -0.93406272 0.23034258 -0.27289018 0.060121346
0.044450935 -0.678617 0.98449433 0.01979793 -0.99926186 -0.032921527 0.036465641
-0.35412085 -0.49453995 1.0470309 -0.89037895 -0.21979427 -0.39864242 0.036569409
-0.030839868 -0.56217551 0.95426571 0.14026402 -0.44260716 -0.88567764 0.053785045
-0.47824287 -0.69360834 0.79299659 -0.72125483 0.62458819 -0.29946792 0.023162825
-0.52889258 -0.67493486 0.91564047 -0.82421887 0.13604096 -0.54968727 0.039807953
-0.051716775 -0.57667595 0.94969422 0.48910305 -0.21072021 -0.84638947 0.054590538
0.3901687 -0.68756026 0.9589783 0.2506575 -0.95502585 0.15841888 0.15868506
