# .PCD v0.7 - Point Cloud Data file format
VERSION 0.7
FIELDS x y z
SIZE 4 4 4
TYPE F F F
COUNT 1 1 1
WIDTH 739
HEIGHT 1
VIEWPOINT 0 0 0 1 0 0 0
POINTS 739
DATA ascii
-0.13076679 -0.72318792 0.73799407
-0.29026559 -0.62098461 0.65333682
-0.213833 -0.87447441 1.33565
-0.081914477 -0.70332283 0.72399938
0.024317119 0.001239702 1.475464
-0.43954331 -0.71868497 1.0284359
-0.2221802 -0.71051228 1.11306
-0.31193629 -0.62179422 1.3300411
-0.2239231 -0.85949558 1.062178
-0.51748341 -0.90572268 1.2661279
-0.40621489 -0.88599658 1.3003139
-0.3857199 -0.89046919 1.305668
-0.1157109 -0.70311862 1.126714
-0.18755651 -0.83852899 1.234991
-0.1530252 -0.74608582 1.174499
-0.50145549 -0.91307968 1.217219
-0.25280091 -0.55519062 0.75284451
-0.25944009 -0.88043308 1.157693
-0.22134431 -0.88181782 0.99056321
-0.18808401 -0.84345102 1.0046771
-0.2307438 -0.84196562 1.3581899
-0.27980629 -0.88663691 1.241047
0.38303411 -0.40845469 1.35763
0.39139399 -0.41870359 1.419776
0.62176663 -0.80573261 1.404086
0.1829863 -0.86515611 0.75894147
0.2225264 -0.85881913 0.77157378
0.37776101 -0.83257002 0.94223022
0.4601962 -0.8332544 0.85778731
0.2306945 -0.68600971 0.92869473
0.4548732 -0.6760934 0.97998089
-0.058666538 -0.60416907 0.74965829
0.40238029 -0.83779341 1.340364
0.24819361 -0.85128528 0.76687711
0.071144611 -0.8777371 0.82643199
0.031931911 -0.85203242 0.92969972
0.50491291 -0.80367768 1.356292
0.12911069 -0.83271557 0.97962308
0.36100271 -0.84340608 1.288637
0.1908695 -0.6335426 1.393103
-0.092078634 -0.58558202 0.79770869
0.1088017 -0.83377802 1.199728
0.4392513 -0.82891351 0.94919193
0.67504358 -0.79650718 1.487761
0.02694002 -0.78318739 1.0145561
0.021986989 -0.83705568 0.9387489
0.44320181 -0.82445031 1.012058
0.143536 -0.83951789 1.0399719
-0.05899426 -0.59911251 0.77309978
0.02044576 -0.74464428 1.05194
0.0082841218 -0.84443879 0.92833757
0.1108749 -0.82715857 1.058378
0.2255758 -0.75246829 1.388003
0.4275443 -0.83491403 0.95493239
0.1628308 -0.86276042 0.80202729
0.1485028 -0.83795393 1.01389
0.019951221 -0.8581965 0.90651238
0.40451291 -0.83597177 0.93859971
0.1683891 -0.84561539 1.0465389
0.1395399 -0.8443253 0.95535308
-0.01713502 0.0269676 1.476483
-0.1725855 -0.59949023 0.71775597
-0.20530289 -0.59031188 0.71576941
0.40504351 -0.85071683 1.301815
0.32399371 -0.84685868 1.081504
-0.077570319 -0.61424732 0.82312012
0.125412 -0.84025931 1.14747
0.045289729 -0.84341639 0.93162727
-0.088524222 -0.8971079 0.77394158
-0.030380789 -0.67070222 1.02728
0.47742751 -0.80514562 0.86741722
0.1371733 -0.84299111 0.96131313
0.25416651 -0.8532781 0.79889172
-0.19317199 -0.59650117 0.70250708
0.3172619 -0.8411805 0.76519269
-0.02242109 -0.84322548 0.91613501
0.33500201 -0.85084432 1.2763391
0.48206761 -0.82518512 1.373859
-0.1886522 -0.55751789 0.73605299
0.59395361 -0.82068461 1.477115
-0.081190288 -0.74990648 1.023753
0.38844419 -0.82623029 1.102173
0.15706331 -0.86714238 0.90517551
0.067791551 -0.85732442 0.92193359
-0.051296782 -0.64369053 0.73418301
0.42030311 -0.82919413 0.97672021
0.49417481 -0.80831718 0.89033812
-0.041312691 -0.8199684 0.95892203
0.67123371 -0.74705029 1.493872
0.13943911 -0.64208752 0.78843802
-0.34120691 -0.74184442 1.322319
0.68287992 -0.82125539 1.288581
-0.1822347 0.017599519 1.1873749
-0.1902954 -0.81783712 1.376442
-0.1577477 -0.72545493 1.128879
0.65133619 -0.82284468 1.133952
0.74124521 -0.69829541 1.307652
0.69034147 -0.81845021 1.480528
0.64314443 -0.82492268 1.100664
-0.25638431 -0.89325082 1.139093
0.7340548 -0.79703432 1.3418961
0.74328178 -0.69825512 1.400803
0.035181489 -0.82361913 0.99329358
0.59132493 -0.83410722 1.380066
-0.1407942 0.029407481 1.137416
0.74969077 -0.79010051 1.27888
0.001205564 0.04833867 1.4433891
0.049550291 -0.79711848 1.027534
-0.32003871 -0.87434632 1.312319
-0.04208082 -0.793567 0.99287438
0.22853971 -0.85484791 1.136006
-0.35458699 -0.63575298 1.341969
0.022287849 -0.87608242 0.92515761
0.0069332421 -0.79577482 1.009795
-0.1285058 -0.63481933 1.120298
-0.1556461 -0.81439102 1.384268
0.61851948 -0.81845957 1.1172
0.43628839 -0.83408451 1.159683
-0.2605384 -0.80476189 1.414212
-0.2412463 -0.88663059 1.092759
0.65338367 -0.81857151 1.466464
-0.32026029 -0.72010767 1.355311
0.07769224 -0.74364102 0.53915519
0.44282311 -0.83467042 0.90833479
0.35684809 -0.4488073 1.496576
0.491175 -0.55796731 1.490211
0.4662261 -0.84014702 1.423559
0.40565109 -0.41084871 1.462368
-0.34300461 -0.87523061 1.327716
0.53080279 -0.84552902 1.393258
-0.042290632 -0.71743721 1.027312
0.284069 -0.276903 1.49896
0.49276349 -0.83462191 1.332679
0.74378669 -0.70569122 1.3737071
0.110683 -0.83740091 1.254588
-0.20786031 -0.29121411 1.412273
-0.57468611 -0.91662461 1.205982
-0.40117171 -0.73564792 1.1809371
-0.56083238 -0.90476179 1.200965
-0.35461149 -0.67900389 1.354647
-0.57631779 -0.90867537 1.2265069
0.2234499 -0.45652071 1.392422
-0.2831167 -0.85734022 1.3198121
-0.33597031 -0.6659227 1.339341
0.48960501 -0.5080688 1.4358881
-0.59348011 -0.89973122 1.269803
-0.086932093 -0.80882788 0.97841269
-0.42654589 -0.6916092 1.448328
-0.52120262 -0.8177678 0.83800822
0.1265596 -0.83403611 1.103734
-0.50106502 -0.83884293 0.7948184
-0.26247069 -0.30332449 1.388551
-0.4018997 -0.81289482 1.420534
-0.44963261 -0.95897108 0.95758301
-0.1028537 -0.74969888 1.028966
-0.2203398 -0.81069088 1.4045891
-0.3209995 -0.67927831 1.329205
-0.2258175 -0.73452902 1.410854
-0.59300888 -0.90958369 1.205654
-0.234607 -0.28396299 1.307842
-0.331689 -0.56216258 1.331706
0.017299181 -0.70851302 1.080462
-0.57090122 -0.91460538 1.275557
-0.1320989 -0.68771988 1.1456521
0.0067964201 0.017451121 1.463577
-0.281225 -0.76868898 1.320515
-0.35131779 -0.5992955 0.91143042
-0.1687465 -0.62117863 0.74884361
-0.01801963 -0.61393499 0.44370189
-0.1045915 -0.61205161 0.83092499
-0.01195813 -0.64026678 0.57824183
-0.18987399 -0.5960899 0.70545799
-0.2057327 0.044338249 0.614963
0.01490857 -0.62281138 0.45415369
-0.1157107 -0.0083743278 0.76968312
-0.19943149 0.034685429 0.6370095
-0.3851819 0.032372881 0.76563811
-0.1171 -0.59635609 0.97704637
-0.36214289 0.024668939 0.73487848
-0.1342696 -0.5766747 0.91061127
-0.41078079 0.032908749 0.8331756
-0.4069742 0.02198483 0.8412565
-0.3045148 0.019453781 0.68995768
-0.44329551 0.036181111 0.92995918
-0.0429818 -0.0093814321 0.87901127
-0.2007992 -0.0129438 0.86323148
-0.075282879 -0.62608528 0.58792102
-0.092883073 0.043793719 0.64169443
-0.075902604 -0.001158282 0.89512563
-0.1870783 -0.63296062 0.53102869
-0.36229429 0.01558701 0.96678209
-0.23439141 -0.65953302 0.58271402
-0.1189706 -0.01550889 0.9365955
-0.16840211 -0.57220721 0.73979878
-0.1664338 0.043986391 0.59074807
-0.1629726 -0.60863018 0.70809889
-0.3068282 0.02107086 1.010227
-0.471297 -0.53300738 0.37159631
-0.1376455 -0.56930488 0.77534783
-0.2056177 0.01470445 0.65890062
-0.42071551 0.019849019 0.86132818
-0.1228893 -0.57347101 0.7779572
-0.1085921 -0.6111232 0.85171437
-0.04678826 -0.52907962 1.059708
-0.3511582 0.03350265 0.73239678
-0.1703449 -0.59925431 0.80496329
-0.38948029 0.040941119 0.96968222
-0.0099771256 -0.63163757 0.51550442
-0.40906331 0.02914094 0.79903269
-0.1132857 -0.57144767 0.88008112
-0.1166436 -0.5876376 0.90635359
-0.41324601 0.02227382 0.8309769
-0.28518999 -0.0061249882 0.80556941
-0.2023453 -0.57373887 0.3721835
-0.2280563 0.03461745 0.63338113
0.075414233 0.029320261 0.77905172
-0.068238817 -0.63402742 0.86847782
-0.07509359 -0.62986761 0.71905029
-0.064719513 -0.59577137 0.82031429
-0.30593181 -0.0095124627 0.9897781
-0.2284541 0.02524385 0.64808422
-0.1495046 -0.63606173 0.76295418
0.071876027 -0.52460521 0.47499141
-0.096162073 -0.59083891 0.85646349
-0.096734397 -0.60265368 0.94413882
-0.075402327 -0.62509549 0.88585639
-0.115326 -0.56631911 0.84471458
-0.017715661 -0.63282079 0.68227363
-0.1375113 -0.55348021 0.78376162
-0.070591882 -0.61999178 0.88820499
-0.1563811 0.03694658 0.60423511
-0.14417119 -0.61112452 0.7384215
-0.028485671 -0.63032532 0.67912591
-0.1124879 -0.01264971 0.78534991
-0.1035985 -0.57167542 0.83462811
-0.01278655 -0.53391349 0.4336043
-0.1445951 -0.0048168711 0.81536609
-0.4450554 0.039182879 0.94717997
-0.1170995 -0.56521142 0.86137831
-0.094985314 -0.01130304 0.76787633
-0.33543581 -0.64075571 0.49905109
-0.19475441 -0.60875952 0.6885649
-0.3390919 -0.00348401 0.82537842
5.5292621e-05 -0.34558639 1.094432
0.021221479 -0.63092792 0.686616
0.027490029 -0.63245481 0.69146037
-0.27230161 0.015925439 1.035623
0.02200626 0.025746441 0.83392018
0.026328741 0.02572836 0.87029761
-0.2012649 0.01161947 0.66857529
-0.35339579 0.003037635 0.92481798
-0.1522194 -0.55084878 0.76901728
-0.083014347 -0.62938088 0.91114593
-0.1465189 -0.57451159 0.92234361
-0.090503618 -0.59690082 0.92490858
-0.074488401 -0.0096123721 0.85587949
-0.008790466 -0.63683009 0.97778642
-0.1022376 -0.01595355 0.94230819
-0.027684139 -0.0064077019 0.87701672
-0.062063571 -0.61443931 0.85725528
-0.12533499 -0.58263397 1.074262
-0.1746231 -0.60321689 0.71832341
-0.1850723 -0.59923518 0.76246887
-0.1065826 -0.0096370308 0.77526641
-0.071417607 -0.59884489 0.810736
-0.099856183 -0.6174323 0.70025039
-0.1950347 -0.59854662 0.70868349
-0.094909072 -0.58668208 0.81574148
0.054627411 0.030656589 0.71578437
-0.094676606 -0.58622003 0.83014858
-0.01615819 -0.63851589 0.59243739
-0.034807678 -0.63567132 0.56975251
-0.4033187 0.0053619659 0.84988892
-0.3337526 -0.0050550709 0.85604751
-0.1985601 -0.0080504948 0.78649539
-0.47554669 -0.55455172 0.37570229
-0.2324793 -0.0084890686 0.76919848
-0.12076 -0.57037741 0.77766418
0.003782307 0.0115287 0.91424882
-0.1852009 -0.0088794697 0.86648202
-0.1003197 -0.59946108 0.9467293
-0.098487869 -0.58647728 0.87228608
-0.076890409 -0.59884298 0.86833858
-0.072574101 -0.0155896 0.89700067
-0.20224451 -0.01567626 0.8654418
-0.069850624 -0.015282 0.8541972
-0.221055 -0.01034348 0.78277701
0.027361089 0.025094699 0.85401529
0.01822504 0.02502007 0.79008949
-0.03165042 -0.64115041 0.59571677
-0.033167221 -0.63077408 0.6931054
-0.1206362 -0.55395907 0.8440311
-0.14309999 -0.02026693 0.95546222
0.025810249 0.03117891 0.89062572
-0.3191095 0.021387501 1.018311
-0.40268689 0.02857298 0.90669852
0.036421649 0.02623206 0.88859802
0.063557401 0.030610161 0.89558709
-0.1547544 -0.01156207 0.82975417
-0.086829849 -0.61977118 0.93732011
-0.31780031 0.031814191 1.044076
0.02012804 0.020845771 0.892133
-0.071757033 -0.60019612 0.84577149
-0.106259 -0.58213067 0.78004658
-0.075327277 -0.5962854 1.125137
-0.059175901 -0.61524999 0.82684147
0.021969549 -0.63267422 0.88487148
0.056984901 -0.52208769 0.46252191
0.1090612 -0.62876999 0.94844681
0.06120817 -0.63076037 0.63032418
-0.4373129 -0.64111632 0.46948129
-0.43976009 0.05050287 0.81743473
-0.25364771 -0.60250038 0.76333529
-0.238566 -0.56521142 0.7930215
-0.2451984 -0.56970608 0.78097057
-0.23576561 -0.59177017 0.76257741
-0.26408809 -0.5755561 0.7802555
-0.3487131 -0.59959787 0.80047232
-0.38326171 -0.62349123 0.81753951
-0.3275758 -0.59546208 0.73641568
-0.36171779 -0.58973342 0.83787459
-0.59967798 -0.61857122 1.021903
-0.17435969 -0.61026669 0.74861431
-0.2403194 0.05483906 0.63752502
-0.2380617 0.05409034 0.63709939
-0.2153019 -0.60028142 0.7706672
-0.34772721 -0.60197783 0.77609771
-0.3894048 -0.6185621 0.81844628
-0.28075919 0.054686628 0.66777891
-0.295237 0.00093828369 0.78080302
-0.1155285 0.033981849 0.72711498
-0.245101 0.053928081 0.66534358
-0.2080479 0.041093759 0.68756717
-0.085023448 0.03532913 0.74531692
-0.30514321 0.001483798 0.77828622
-0.2705127 0.05566502 0.63792241
-0.23758189 0.03877582 0.68783981
-0.2685864 0.04896871 0.67628407
-0.068645187 -0.0047936072 0.91826272
-0.1044237 -0.0130447 0.94559449
-0.0075975321 -0.63695729 0.64446408
-0.042635251 0.02473861 0.81481278
-0.44492349 0.041969739 0.94441313
-0.34636959 -0.0021357569 0.92055207
-0.2451593 -0.001444631 1.217469
-0.096604787 0.0068732589 1.01469
-0.079483107 0.0034480051 0.94856179
-0.2401365 -0.003190025 0.83514571
-0.3419342 0.0049020578 0.81721318
-0.2055238 0.03568688 1.183789
-0.22085109 0.032784969 1.176296
-0.44337881 0.038286511 0.92783862
-0.14465021 -0.0045856852 0.81533593
-0.27114481 -0.0054817391 0.81829047
-0.260079 -0.0025864351 0.83114952
-0.3732653 -0.61696023 0.77347022
-0.1468761 -0.008771725 0.99321711
-0.1844283 -0.61425638 0.76753348
-0.4170804 -0.61796403 0.98784602
-0.041357569 -0.64478701 0.64580148
-0.50893432 -0.61468953 1.0241081
-0.1977869 -0.60784918 0.76163793
-0.32917669 0.059133101 0.63472468
-0.063934512 -0.63765872 0.63437343
-0.36939079 -0.66205049 1.050469
-0.33613229 0.05601462 0.67264009
-0.35965031 -0.63052332 1.008891
-0.21647321 0.047840539 1.191473
-0.31745669 -0.60755408 0.79471147
-0.2814858 0.05053525 0.67959231
-0.3597872 0.05182853 0.67187178
-0.032335579 0.01731888 0.96172231
-0.01925868 0.01923223 0.95283723
-0.3496094 -0.6142754 0.72941339
-0.1425451 0.012037 0.74472851
-0.37033829 0.05180328 0.67849022
-0.34916791 0.040277511 0.7291584
-0.037170678 -0.63025808 0.62748688
-0.095916122 0.031019291 0.73937112
-0.0147573 0.02253378 0.92209148
-0.051885191 -0.63686138 0.6306501
-0.3140623 -0.62297601 0.79305089
-0.038147699 -0.64463592 0.64883357
-0.41066679 -0.6158005 0.98897731
-0.03761873 0.020854371 0.8692317
-0.2305561 -0.0057370551 0.85190451
-0.074135102 -0.01141457 0.91823232
-0.01524962 0.02424584 0.84152442
-0.045285851 0.02699705 0.79878902
-0.059339661 0.02534169 0.78002077
-0.1123346 0.034842599 0.71996391
-0.073904142 0.00096763117 0.8247394
-0.072296768 0.041805461 0.73112679
-0.3107532 0.040886089 0.63259149
-0.0081658876 0.02266681 1.033612
-0.077579871 0.02821142 0.75827348
-0.066450924 0.0065000248 0.8229298
-0.39109921 -0.64507931 0.86994898
-0.3666192 0.05568891 0.68120241
-0.34815869 -0.62212658 0.74662262
-0.021219971 -0.6316008 0.64071977
0.0093309404 -0.63949698 0.64246577
-0.16015349 -0.65120089 0.58749402
-0.26721779 -0.004826996 0.82567292
-0.33752361 0.053350572 0.67631918
-0.14779951 -0.62398177 0.77369601
-0.3235347 -0.61276418 0.74762172
-0.33966979 -0.61641133 0.78961408
-0.22067641 -0.576401 0.78521079
-0.25087351 0.03391511 0.69392759
-0.22345421 0.052214399 0.65898269
-0.2676473 0.049490489 0.67492288
-0.1339584 0.032181211 0.7165975
-0.25100929 0.054999739 0.64302999
0.019290719 -0.63133389 0.68055421
-0.2168888 -0.60039419 0.76719302
-0.46674311 -0.25437051 1.0387861
-0.50939369 0.034128711 0.87942392
0.18704709 -0.6144461 0.62502903
0.1621021 -0.62382388 0.73348778
0.2306025 -0.53415269 0.60925269
0.1863814 -0.6210137 0.72422409
0.1764956 -0.53637582 0.58808053
0.1094472 -0.62847781 0.79324472
0.17695691 -0.62248611 0.74241757
0.14945491 -0.62022388 0.67294598
0.1703544 -0.54900002 0.58459139
0.2374379 -0.54155391 0.62216192
-0.44840401 -0.18782321 1.05609
0.21214411 -0.5483101 0.6167959
-0.5073027 0.031701598 0.87457073
0.2614426 -0.62335962 1.0802031
0.1813629 -0.63689321 1.141765
0.19716319 -0.63994938 1.139544
0.2003044 -0.54552072 0.60237348
0.13351721 -0.63315809 0.78470242
0.24094281 -0.62196058 0.79487562
0.35569191 -0.59957701 0.67011559
0.2077885 -0.63550198 0.75376862
0.2873694 -0.61027437 0.64882332
0.2034076 -0.62810832 0.62375051
-0.50867867 0.030478319 0.87349927
0.28358889 -0.62166941 0.70034331
0.4316099 -0.52690017 0.70330793
0.3861725 -0.6133613 1.121524
-0.4477174 -0.1866312 1.046335
0.25303021 -0.6290257 1.130365
0.45965931 -0.60435861 1.102723
0.087954797 -0.64159161 1.048156
0.45351499 -0.59308279 0.71312332
0.054587141 -0.6265344 0.65206122
0.14836881 -0.57996929 0.57526672
-0.29494789 -0.3000215 0.84695679
-0.50087333 0.03437946 0.82703239
-0.50894183 0.03727733 0.84683907
-0.25382781 -0.1523324 0.93688953
0.45685869 -0.52628553 0.70161289
-0.48264331 0.02890465 1.0179991
-0.47779819 -0.26364401 1.04248
-0.4739534 -0.24206419 1.042819
-0.47711951 -0.2544165 1.040323
0.29180789 -0.62883168 1.1874371
-0.49594659 -0.28214589 1.051697
-0.37499049 -0.041854721 0.90371042
-0.2753098 -0.15654729 0.91468972
-0.26591229 -0.16253489 0.85746711
-0.1108874 -0.1838465 1.094018
0.53676438 -0.52362019 0.75303823
0.43698281 -0.53530222 0.72046918
0.1636837 -0.53927213 0.58013338
-0.50753301 0.0320176 0.84885281
0.51415032 -0.58499539 0.74863547
0.43575099 -0.61486697 0.77461642
0.079830363 -0.63912678 0.7088021
-0.26027989 -0.084850363 1.2040811
-0.4856275 0.030944681 1.0167921
0.61340398 -0.49875751 0.74045992
0.46579859 -0.57149351 0.72011679
0.18921091 -0.54979801 0.5930599
-0.48871371 -0.28020069 1.027007
0.1317427 -0.54553223 0.57501489
-0.2459573 -0.06576138 1.200264
0.54972178 -0.57612127 0.75428432
0.39448091 -0.60913998 0.72343469
-0.4708561 -0.2471565 1.049951
0.54612982 -0.54411417 0.75020748
0.40094659 -0.53506362 1.174444
-0.50888962 0.028153859 0.92105561
0.2019441 -0.62754118 1.192739
0.54351652 -0.57462579 0.73845071
0.1470658 -0.60702282 0.59120327
-0.26264101 -0.1616223 0.93824381
0.26882041 -0.62010503 1.223356
0.1907263 -0.61129528 0.76642871
-0.1162001 -0.49332631 0.68552238
-0.31293079 -0.46718359 0.85998601
-0.28685901 -0.52504182 0.95238292
-0.1064137 -0.62894541 0.70095432
-0.26161051 -0.29956469 0.83198369
-0.25090969 -0.58759773 0.76832068
-0.205439 -0.60168248 0.75898159
-0.2459154 -0.5885008 0.76121593
-0.32506031 -0.56049031 0.82200909
-0.2468262 -0.56080508 0.79074049
-0.25188741 -0.55589151 0.78828287
-0.1155762 -0.60449249 0.7831257
-0.28314579 -0.48578259 0.82415682
-0.12565941 -0.60176831 0.78510231
0.09237732 -0.61907458 0.790407
-0.2185542 -0.59967279 0.76172292
-0.1221865 -0.60332298 0.77167201
-0.30807909 -0.5030157 0.84262377
0.51063311 -0.54292542 0.82385379
-0.1338302 -0.62964082 0.75540757
-0.2138515 -0.60531747 0.74668771
0.4742921 -0.61434293 0.84980828
-0.045383491 -0.60542881 0.86660701
0.0050398191 -0.61906081 0.88425571
-0.092435934 -0.48425081 0.68093759
-0.04227351 -0.4942247 0.65953529
0.29126829 -0.63089621 0.64754492
0.6472283 -0.54346341 0.57494283
-0.2208125 -0.66743082 0.85660058
-0.25364369 -0.64727283 0.86127669
-0.2860851 -0.64357412 0.84300339
-0.15069211 -0.4748764 0.78114009
0.36481261 -0.62814832 0.59846252
-0.089747667 -0.51275229 0.67057562
0.36175579 -0.63472593 0.58899891
-0.050605431 -0.56833082 0.63314128
0.082017682 -0.61458319 0.63028902
0.067117319 -0.60607028 0.63210541
-0.092750363 -0.53549802 0.66280961
-0.1511741 -0.61466962 0.57230109
-0.041770879 -0.60726053 0.61103392
-0.12501369 -0.6181283 0.56819463
-0.1758817 -0.63408703 0.62265933
-0.1970073 -0.61517799 0.65521282
0.1545148 -0.6428808 0.49841681
-0.1342542 -0.6586504 0.50238973
-0.076285869 -0.58688611 0.62517267
-0.06619709 -0.59566969 0.61931342
-0.1664589 -0.59696388 0.60556901
-0.1305975 -0.61014003 0.57666153
-0.172893 -0.60789162 0.6066165
-0.1149031 -0.61815488 0.63521707
-0.1721597 -0.62480718 0.61688632
-0.2134798 -0.64700752 0.60556269
-0.18077821 -0.63012052 0.61018252
-0.1473193 -0.62778902 0.54137319
-0.17169259 -0.63155907 0.5793553
-0.17523269 -0.63118142 0.61026281
-0.121214 -0.60493189 0.62134892
-0.1620581 -0.60105538 0.63264138
0.2498157 -0.63269418 0.50093168
-0.27717939 -0.2601409 0.8757596
0.45879209 -0.63145143 0.51552278
-0.13035309 -0.65540379 0.49295789
-0.089609943 -0.58321053 0.6293748
0.63877338 -0.6016714 0.57652497
0.38495779 -0.62727791 0.48406419
0.13183349 -0.63768631 0.50968277
-0.1860202 -0.66930342 0.4673073
0.15262561 -0.64646918 0.47330219
-0.0091339769 -0.61380851 0.61267853
-0.12709171 -0.1453739 1.04853
-0.1215321 -0.61081082 0.61252838
0.056841221 -0.61652482 0.63568163
-0.1201947 -0.57543349 0.66030037
-0.1729337 -0.63937628 0.64596742
-0.1011866 -0.094124481 1.060729
-0.077040121 -0.1701833 0.69681227
-0.02131805 -0.49837449 0.66578609
-0.110921 -0.1700505 1.064822
-0.096771523 -0.05976234 1.05546
0.070364483 -0.64374298 0.59853047
-0.059004281 -0.65644222 0.45890439
0.2910777 -0.63818163 0.67569011
0.090410069 -0.62109989 0.62033957
-0.1645858 -0.63091338 0.5850085
0.2839365 -0.64721781 0.67591512
-0.097228847 -0.083512321 1.076373
-0.2277378 -0.2625975 0.96017891
-0.1492333 -0.073142029 1.043947
-0.095810764 0.064480148 1.088907
-0.05114083 -0.006700865 1.027091
-0.1114104 -0.1252276 1.102438
-0.1230162 -0.62774152 0.55904102
-0.06725274 -0.01352808 1.029578
0.66982973 -0.62568539 0.76342827
-0.035502441 -0.1759719 0.68620563
-0.28247261 0.02860423 0.61254632
-0.28304711 0.025637889 0.61164701
-0.3121874 0.021382591 0.70139593
-0.30252069 0.023809791 0.65623832
-0.22348391 0.028664339 0.53696299
-0.25693139 0.02817435 0.57127941
-0.1122353 -0.092968121 1.069731
-0.12901691 -0.1594997 1.047626
-0.099499121 -0.05647957 1.073427
-0.1163863 0.064972967 1.116451
0.018720539 -0.071731068 1.003574
-0.0921259 0.0372869 1.096694
-0.33340129 -0.31542161 0.85738093
-0.1129669 -0.5130865 0.69669408
-0.13478521 -0.1005485 1.116044
-0.30900449 0.032381929 0.77025521
-0.123631 0.048265159 1.120136
-0.1747652 -0.1822364 1.0469871
0.67378038 -0.63259858 0.76243299
-0.32614169 -0.65817177 0.7204228
-0.09179657 -0.50257349 0.77999341
-0.39541399 -0.64728701 0.82974988
-0.38824081 -0.65234298 0.81012303
-0.2194286 0.034625541 0.5308013
0.1542623 -0.6617142 0.47012821
-0.0077099781 -0.62493128 0.59771591
-0.1239747 -0.61069411 0.58079457
-0.1209023 -0.02840679 1.086269
-0.076649547 -0.48224059 0.66631472
-0.3170746 -0.66012198 0.79197848
-0.2029817 -0.64117777 0.91211379
-0.095965363 -0.1330484 1.084393
-0.2340952 -0.1991719 1.051033
-0.01184216 -0.021849381 1.037406
-0.24177299 -0.072060198 1.005005
-0.19419239 -0.191716 0.98345059
-0.097410731 -0.039762601 1.023591
0.076190993 -0.60769057 0.67177218
0.1286018 -0.63197792 0.6617583
-0.01236063 -0.60827011 0.60248768
0.081610084 -0.61418301 0.63631618
-0.045750499 -0.59900087 0.60341293
-0.045295771 -0.64767432 0.51514852
-0.042291012 -0.1746897 0.68501568
-0.02664561 -0.1595168 0.68176162
-0.071853049 -0.6483475 0.46244001
0.041801792 -0.62785548 0.60454237
0.1203931 -0.62903482 0.66620058
0.25260511 -0.62700778 0.67213303
0.2401883 -0.6442973 0.66821039
0.01246163 -0.61972731 0.59841979
0.00064298703 -0.60177171 0.60400391
0.2438297 -0.64024282 0.68181407
0.07049384 -0.60893571 0.69545549
0.60962099 -0.56977659 0.92710358
-0.05074688 -0.63699663 0.42689699
0.3578718 -0.62472707 0.79166251
0.29197279 -0.63191217 0.78670949
0.5745315 -0.61635071 0.9333111
0.58194852 -0.5440377 0.99183148
0.088802487 -0.61220962 0.70791548
-0.02719876 -0.60492432 0.5927794
0.044012189 -0.587062 0.68912989
0.60399407 -0.58477092 0.98590809
-0.074569121 -0.59609449 0.5788669
-0.056508642 -0.5606156 0.62901729
-0.058152929 -0.59532481 0.61012149
-0.072005667 -0.59152287 0.60407531
-0.1695556 -0.58352262 0.60042453
-0.2017785 -0.59298527 0.6618104
-0.2176386 -0.63771808 0.60433078
-0.14085799 -0.58774883 0.56543529
-0.098781243 -0.52626961 0.65712589
-0.1388565 -0.61156368 0.55729473
-0.084734209 -0.52646071 0.6521824
0.1196501 -0.63272578 0.73262292
-0.1155299 -0.091391511 1.071157
-0.14157631 -0.13983759 1.040437
0.1520461 -0.25901029 1.188568
-0.016843289 0.030626111 1.017579
-0.005803565 0.03483811 1.027746
-0.053484309 0.030936111 1.0192389
-0.40508309 -0.62693042 0.82173133
-0.222215 -0.59499681 0.80387568
-0.101004 -0.56440479 0.62071371
-0.083438963 -0.5189696 0.66058427
-0.1652132 -0.1734141 0.95221621
-0.18700621 -0.62498152 0.89955097
-0.069800787 0.026810151 1.04126
-0.036076311 0.046738241 1.031425
-0.1066356 -0.13073801 1.077181
-0.081374452 -0.57855219 0.61294448
-0.1199665 -0.61843371 0.53790492
-0.28474411 -0.37167221 0.85909343
-0.1732619 -0.61925977 0.57048851
-0.060083121 0.01421545 1.03538
-0.1709684 -0.59747761 0.83073801
0.44273281 -0.625283 0.8998459
-0.154816 -0.55568951 0.92384791
-0.1032773 -0.54785848 0.97507322
0.01224161 0.056437232 1.055519
-0.075869173 -0.62744731 0.9298085
0.56909478 -0.58806068 1.034829
0.32355639 -0.62938309 0.82626778
-0.1836794 -0.60207719 0.83124292
0.2045469 -0.60907638 0.78170931
-0.20756359 -0.62052143 0.91983879
0.497578 -0.62923789 0.82859433
0.2152119 -0.61879098 0.82611322
0.42445311 -0.62178588 0.92947549
-0.1085005 -0.59387022 0.57743639
-0.1902595 -0.1860864 0.92850912
-0.2820906 -0.25260451 0.8670727
-0.40668809 -0.63274258 0.80060887
-0.32664159 -0.64424622 0.78738248
-0.2495252 -0.6447649 0.85517508
0.57443857 -0.55518138 0.98723543
0.47786289 -0.6176613 0.95240343
0.2807954 -0.62843132 0.66866678
-0.05361544 -0.59472102 0.87311822
0.1077149 -0.60754043 0.77252549
0.088639267 -0.64398199 0.49230519
0.2266573 -0.62108171 0.85751897
-0.085818 -0.57148659 0.61914682
0.1236994 -0.63869798 0.70044142
-0.269427 -0.54917282 0.95242763
0.45870161 -0.63406658 1.042266
-0.1363512 -0.61687559 0.55410773
-0.2822364 -0.56986928 0.84535748
0.29809049 -0.63321441 0.84265852
-0.1022756 -0.60614061 0.57450759
-0.005517846 -0.61363071 0.59404719
-0.45486659 -0.62224442 0.74734157
-0.43290171 -0.62927192 0.79636109
-0.050795749 -0.61436272 0.58014208
-0.1557489 -0.62500918 0.56848443
-0.033066239 -0.59467828 0.60544729
-0.44058251 -0.5940969 0.80727172
-0.4686681 -0.61335099 0.75702423
-0.42925161 -0.63002288 0.80739439
0.01788516 -0.61180067 0.60642707
-0.3273465 -0.63861489 0.86462271
-0.1763119 -0.62261802 0.5880127
-0.080171511 -0.59341711 0.61088443
-0.13910639 -0.59589988 0.6272313
-0.16592669 -0.64780623 0.59127629
-0.065360777 -0.59783798 0.59036052
0.048564691 -0.62724972 0.59508681
