# .PCD v0.7 - Point Cloud Data file format
VERSION 0.7
FIELDS x y z normal_x normal_y normal_z curvature
SIZE 4 4 4 4 4 4 4
TYPE F F F F F F F
COUNT 1 1 1 1 1 1 1
WIDTH 136
HEIGHT 1
VIEWPOINT 0 0 0 1 0 0 0
POINTS 136
DATA ascii
-0.096585847 -0.58662677 0.80240959 -0.56764299 -0.78961664 0.23299564 0.0867268
-0.17615226 -0.60328388 0.71968418 -0.13410716 -0.98821098 -0.073853463 0.04725733
-0.20612611 -0.59431398 0.71434104 -0.19498454 -0.97835356 -0.069319919 0.04535193
-0.07433603 -0.60314447 0.82773089 -0.70867556 -0.69744629 0.106525 0.050211441
-0.16612025 -0.61269104 0.75124395 0.021955226 -0.99270242 0.11857453 0.057583433
-0.10129796 -0.59780657 0.8349191 -0.68633968 -0.70494533 0.17885734 0.073190458
-0.010698306 -0.64250928 0.58052564 -0.10560096 -0.90727979 -0.40705261 0.1029067
-0.19069204 -0.59829563 0.70602274 -0.20668705 -0.96958441 -0.1310976 0.050744612
-0.072417833 -0.62073678 0.57797623 0.24085225 0.72911906 -0.64060563 0.046911895
-0.16988413 -0.57187861 0.73950386 0.018147998 -0.99188048 0.12587246 0.062034786
-0.16271481 -0.60794365 0.70800143 -0.19319622 -0.97119713 -0.13946809 0.068824224
-0.12181948 -0.57363856 0.77623338 -0.14688785 -0.9484067 0.28097811 0.078987755
-0.11071932 -0.60259199 0.84983206 -0.69828838 -0.70662868 0.11432078 0.054070298
-0.11293748 -0.57115215 0.88009483 0.74749768 0.65747595 0.094723359 0.036529019
-0.23217624 0.032320306 0.63647354 0.34749463 0.9285937 0.13023542 0.025787432
-0.065360278 -0.63328898 0.86951172 0.69173336 0.7057566 0.15301169 0.036230721
-0.070815191 -0.60358715 0.8198325 -0.71005607 -0.69582027 0.10795543 0.054037213
-0.22274177 0.029642265 0.64687228 0.34749463 0.9285937 0.13023542 0.025787432
-0.096173272 -0.59084779 0.856466 -0.70814693 -0.70606375 -0.0014221949 0.046882473
-0.073670141 -0.62465113 0.88647854 0.70582998 0.68807256 0.1684051 0.036096424
-0.11385372 -0.56509417 0.84492534 -0.62088978 -0.76911622 0.15151297 0.05550687
-0.074687615 -0.62104249 0.88673395 0.70582998 0.68807256 0.1684051 0.036096424
-0.14457195 -0.61408699 0.73753148 0.086154312 -0.99564862 0.035514124 0.066887379
-0.10593375 -0.57347947 0.83428073 -0.67962044 -0.72594661 0.1054393 0.052318111
-0.06968423 -0.61651552 0.85637635 0.71696442 0.68339115 0.13761778 0.029595276
-0.175587 -0.60424209 0.71884447 -0.13410716 -0.98821098 -0.073853463 0.04725733
-0.1876467 -0.60191017 0.75473142 -0.067159086 -0.97835243 0.19574532 0.054987717
-0.073213309 -0.60114729 0.81059408 -0.70986712 -0.69602513 0.10787814 0.05399647
-0.19425085 -0.5964331 0.70814234 -0.18161133 -0.97370321 -0.13754825 0.045035809
-0.095930539 -0.58805418 0.81546384 -0.63765424 -0.73851478 0.21907318 0.078408688
-0.095867977 -0.58720583 0.82942104 -0.70867556 -0.69744629 0.106525 0.050211441
-0.016017802 -0.6372897 0.5895313 -0.19217911 -0.89829409 -0.39513922 0.10748225
-0.12027483 -0.57045341 0.77688241 -0.38327616 -0.74852765 0.54111522 0.069498532
-0.096817479 -0.58530265 0.87111777 0.71696442 0.68339115 0.13761778 0.029595276
-0.082986951 -0.60682124 0.86472672 0.71696442 0.68339115 0.13761778 0.029595276
-0.026254499 -0.62561744 0.58946997 -0.37049469 -0.92877322 0.010681489 0.12971899
-0.072502553 -0.60493565 0.84563607 -0.70827103 -0.70593899 -0.0015297286 0.046954185
-0.11216231 -0.58124959 0.78534585 -0.38093126 -0.83665806 0.39356655 0.077633463
-0.066116251 -0.61659163 0.82747281 -0.68817025 -0.71566677 0.11934245 0.065087557
-0.25312886 -0.59992486 0.75973547 -0.36516801 -0.92593324 0.096436225 0.061990824
-0.2381721 -0.5649842 0.79245162 -0.24693419 -0.83519083 0.49140593 0.047240026
-0.24539036 -0.57176328 0.7832759 -0.24693419 -0.83519083 0.49140593 0.047240026
-0.23606114 -0.5937435 0.76454538 -0.2780748 -0.95972431 0.040043633 0.06611035
-0.26397797 -0.57621455 0.78100061 -0.27478191 -0.82179624 0.49914506 0.056840159
-0.17368919 -0.60770023 0.7499572 0.010307378 -0.9920944 0.12506932 0.053926937
-0.24456729 0.04858046 0.640863 0.34749463 0.9285937 0.13023542 0.025787432
-0.24270265 0.04725261 0.6407463 0.34749463 0.9285937 0.13023542 0.025787432
-0.21474774 -0.5980255 0.76988339 -0.28229588 -0.95866573 0.035624903 0.054748628
-0.27669662 0.046535712 0.66833431 0.34749463 0.9285937 0.13023542 0.025787432
-0.24709614 0.046851147 0.66357893 0.34749463 0.9285937 0.13023542 0.025787432
-0.27050102 0.05600471 0.63796699 0.34749463 0.9285937 0.13023542 0.025787432
-0.23759949 0.03864406 0.68776488 0.34749463 0.9285937 0.13023542 0.025787432
-0.26853523 0.049327873 0.67637092 0.34749463 0.9285937 0.13023542 0.025787432
-0.0079234261 -0.63288373 0.6456356 -0.19323766 -0.94882405 -0.2497844 0.15174645
-0.18319374 -0.61059171 0.76724136 -0.047231395 -0.97453403 0.21920879 0.052666701
-0.19723828 -0.60586172 0.76122218 -0.20547318 -0.97175694 0.11605739 0.043573461
-0.28157458 0.049450282 0.67905152 0.34749463 0.9285937 0.13023542 0.025787432
-0.0365518 -0.63233423 0.62647146 -0.50371605 -0.84154004 0.19514231 0.13545014
-0.052082043 -0.6364702 0.6310637 -0.33922973 -0.81816322 0.46425432 0.13491194
-0.038079675 -0.64490891 0.6486429 -0.31916106 -0.82628423 -0.46410194 0.11192786
-0.020776771 -0.63520646 0.63797504 -0.29659885 -0.94431341 -0.1424824 0.12702359
0.0093309404 -0.63949698 0.64246577 0.042844262 -0.93656051 -0.34787747 0.097802818
-0.15923917 -0.65070242 0.58791649 0.54489309 -0.78545982 0.29350364 0.10417037
-0.15030907 -0.61167693 0.77352977 0.07119289 -0.99410605 0.081759475 0.0447479
-0.22471805 -0.58249575 0.78867143 -0.21868153 -0.95193869 0.21445517 0.091858283
-0.23547238 0.043918103 0.65815198 0.34749463 0.9285937 0.13023542 0.025787432
-0.26763922 0.049547076 0.67493659 0.34749463 0.9285937 0.13023542 0.025787432
-0.25215632 0.05194217 0.6424706 0.34749463 0.9285937 0.13023542 0.025787432
-0.21648116 -0.59873474 0.76661646 -0.28226799 -0.95867127 0.035696175 0.054713897
0.054587141 -0.6265344 0.65206122 0.09979444 -0.91819477 -0.38335285 0.046706442
-0.25095811 -0.58779353 0.76855373 -0.33880669 -0.91324061 0.22627772 0.064102031
-0.20573495 -0.60289288 0.75977564 -0.28183913 -0.9589538 0.031212192 0.050540067
-0.24650681 -0.59199238 0.76471496 -0.34508187 -0.93275034 0.10438055 0.056167744
-0.24702376 -0.56177461 0.79186994 -0.27478191 -0.82179624 0.49914506 0.056840159
-0.11621533 -0.60428542 0.78433406 -0.29295987 -0.89242929 0.34313923 0.072363086
-0.12315664 -0.60257918 0.78037035 -0.20024857 -0.92406636 0.32557926 0.074619211
-0.21867168 -0.6001941 0.76220524 -0.28184435 -0.95895237 0.031210873 0.050507579
-0.12395056 -0.60287702 0.7787782 -0.16365246 -0.94909334 0.26914635 0.061867706
-0.21148616 -0.59780562 0.74837947 -0.28183913 -0.9589538 0.031212192 0.050540067
-0.050039768 -0.56741792 0.63095939 0.44305471 0.70965588 -0.54780573 0.11496675
-0.14991234 -0.61707592 0.57366276 0.33049983 -0.91269922 0.24031235 0.11121476
-0.043345649 -0.61044079 0.60725802 0.35923579 0.79701722 -0.48550302 0.12183584
-0.12605569 -0.6120916 0.56416512 0.26052824 -0.92854458 0.26444307 0.081997156
-0.17462648 -0.63429409 0.62277395 0.57210183 -0.75698924 0.3157005 0.12654389
-0.075631715 -0.58049852 0.61823612 0.19393107 0.62960726 -0.75232005 0.10356996
-0.065904848 -0.58949453 0.61244887 0.27210388 0.6992017 -0.66111761 0.1232708
-0.16431905 -0.59765118 0.6048398 0.53632164 -0.80262762 0.26105168 0.089643478
-0.13028897 -0.61103308 0.57671005 0.28256711 -0.89374918 0.34837925 0.076012477
-0.1700702 -0.60839075 0.60661674 0.54956311 -0.79097331 0.26896411 0.11216138
-0.17245409 -0.62475717 0.61686319 0.63601124 -0.70945221 0.30359063 0.12973234
-0.17375156 -0.62988156 0.61183608 0.63107759 -0.72706288 0.27040836 0.12067513
-0.14760967 -0.6236375 0.54063118 -0.58923811 0.66041631 -0.46545535 0.12516639
-0.16470738 -0.63072973 0.58209103 0.54489309 -0.78545982 0.29350364 0.10417037
-0.17142671 -0.63138604 0.61065292 0.63107759 -0.72706288 0.27040836 0.12067513
-0.12148977 -0.60360098 0.6195538 0.18082902 -0.87910867 0.44098619 0.091754355
-0.15475361 -0.60469007 0.62630534 0.49635184 -0.82798159 0.26092401 0.078962959
-0.091634125 -0.58179289 0.61979878 0.13119818 0.77049047 -0.62380409 0.097783454
-0.0096254023 -0.61927646 0.60882968 0.36609975 0.8193391 -0.4411965 0.12714867
-0.1204497 -0.60888219 0.61219901 0.19057578 -0.92959404 0.31549296 0.090785824
0.056841221 -0.61652482 0.63568163 0.093702056 -0.9188866 -0.38323265 0.049809862
-0.16572854 -0.63089281 0.58462805 0.54489309 -0.78545982 0.29350364 0.10417037
-0.12506439 -0.61759698 0.55601263 0.21272314 -0.94542497 0.246821 0.086770073
-0.0074964669 -0.62420487 0.59590304 -0.25719923 -0.95303863 -0.15989323 0.13741231
-0.12461023 -0.60885459 0.58069462 0.27258262 -0.89766842 0.3462514 0.072929353
-0.012716332 -0.60664773 0.60331309 0.37365526 0.81250244 -0.4474611 0.13718037
-0.046797574 -0.59978026 0.60343158 0.35923579 0.79701722 -0.48550302 0.12183584
0.041525494 -0.62753499 0.60436589 0.12606026 -0.96870196 -0.2138347 0.097499549
0.012144856 -0.62079209 0.6002484 -0.0086621223 -0.93087018 -0.36524737 0.1023033
-0.00029779307 -0.60386336 0.60732502 0.36644337 0.82006854 -0.43955302 0.1333423
-0.028769743 -0.60822058 0.60047597 0.41228518 0.82723993 -0.38170034 0.1244004
-0.077869862 -0.60427189 0.58599043 0.22243172 0.74419874 -0.62983519 0.055130769
-0.0571579 -0.56166345 0.63152164 0.02268602 0.31726262 -0.94806635 0.092253007
-0.057685211 -0.59212244 0.60771662 0.28386912 0.71086526 -0.64349741 0.11498707
-0.072561808 -0.59399486 0.6057598 0.27509311 0.73821563 -0.61592329 0.10035451
-0.16836742 -0.5837841 0.60004354 -0.53632164 0.80262762 -0.26105168 0.089643478
-0.14095925 -0.58776164 0.56562853 -0.33720061 0.87634379 -0.34397277 0.077836677
-0.13776575 -0.61679572 0.56039864 0.33049983 -0.91269922 0.24031235 0.11121476
-0.22183007 -0.59481472 0.80392551 -0.2181385 -0.85572135 0.46920854 0.030462643
-0.098845512 -0.5627802 0.6212976 0.013783406 0.80576742 -0.59207171 0.06221782
-0.081846215 -0.58120716 0.61497068 0.14495343 0.76053238 -0.63291305 0.10245503
-0.12015068 -0.62336498 0.5389002 0.30361623 -0.94235623 -0.14064884 0.091105476
-0.16180551 -0.61922103 0.57731873 0.54479831 -0.78555936 0.29341316 0.10414168
-0.1080192 -0.59432387 0.57434952 -0.12250617 0.87262213 -0.47278196 0.067605257
-0.08627034 -0.57319802 0.62207717 0.14033449 0.73025024 -0.66861111 0.12306454
-0.13602345 -0.61922288 0.55550075 0.33049983 -0.91269922 0.24031235 0.11121476
-0.10290111 -0.60663891 0.57732779 0.01843188 -0.85614675 0.51640403 0.076362461
-0.0061133709 -0.61584234 0.59945852 -0.25719923 -0.95303863 -0.15989323 0.13741231
-0.054563828 -0.61874145 0.58941275 0.28567225 0.72024959 -0.63216448 0.093366526
-0.15567409 -0.62525028 0.56841481 0.54479831 -0.78555936 0.29341316 0.10414168
-0.034339372 -0.6012193 0.60779446 0.45947066 0.79195338 -0.40211502 0.1207596
0.017961029 -0.61157864 0.60595155 -0.0086621223 -0.93087018 -0.36524737 0.1023033
-0.16766766 -0.62277359 0.59089082 0.54489309 -0.78545982 0.29350364 0.10417037
-0.076137088 -0.58687496 0.60977697 0.27345407 0.74246162 -0.61153382 0.10449308
-0.14023697 -0.60144025 0.62783396 0.38227221 -0.88244593 0.27414772 0.070196234
-0.16301851 -0.6464904 0.59211344 0.54489309 -0.78545982 0.29350364 0.10417037
-0.066132903 -0.60329527 0.59398788 0.30229643 0.71739352 -0.62766504 0.089057103
