# .PCD v0.7 - Point Cloud Data file format
VERSION 0.7
FIELDS x y z normal_x normal_y normal_z curvature
SIZE 4 4 4 4 4 4 4
TYPE F F F F F F F
COUNT 1 1 1 1 1 1 1
WIDTH 614
HEIGHT 1
VIEWPOINT 0 0 0 1 0 0 0
POINTS 614
DATA ascii
-0.02715564 -0.56537479 0.91647339 -7.7532677e-05 -0.99999988 0.00027977576 0
-0.1931572 -0.56537479 0.88249677 -0.00013859021 -1 0.00018327426 0
-0.1165655 -0.56537479 0.88611221 3.5558803e-06 -0.99999994 0.00039308277 0
-0.1748797 -0.56537479 0.95253319 -6.7953923e-05 -1 0.00016419779 0
-0.061319921 -0.56537479 0.99768728 3.2136719e-05 -0.9999997 0.00067018077 0
-0.0375285 -0.56537479 0.7944876 -4.7765567e-05 -0.99999988 0.00044552583 0
-0.1430171 -0.56519568 0.6405859 0.033516604 -0.99338311 -0.10984776 0.032919087
-0.1526545 -0.56537479 0.93492949 -9.0331901e-05 -1 0.00028251746 0
-0.083593898 -0.56536853 0.63730448 -0.029362738 -0.99323863 -0.1123157 0.0305799
-0.2242149 -0.56537479 0.63507879 -0.12427107 -0.99200553 -0.02194971 0.10022939
-0.2010034 -0.56537479 0.67362881 0.0013805133 -0.99999815 -0.0013577018 0
0.071370482 -0.56537479 1.04362 -0.013162805 -0.99971658 0.019835763 0.0092159426
-0.1975926 -0.56537479 0.64515978 -0.0097878492 -0.99650294 -0.082982838 0.059998274
-0.1265389 -0.56526804 0.64191389 0.0077195559 -0.99367553 -0.1120244 0.03410897
-0.1465984 -0.56537479 0.68333513 0.017228138 -0.99909604 -0.038862444 0.005596255
-0.17500959 -0.56537479 0.88605303 -0.00021059379 -0.99999994 0.00031143453 0
-0.046282161 -0.56537479 0.93709981 -5.6686262e-05 -0.99999994 0.00042690898 0
-0.1378644 -0.56476831 0.62880576 0.025114952 -0.99133605 -0.12892652 0.040174264
-0.084673569 -0.56537479 0.8061831 -0.00013843439 -0.99999988 0.00042005829 0
-0.08068572 -0.56537479 0.92271757 8.3001356e-07 -1 0.00035005773 0
-0.062025469 -0.56537479 0.84004152 -0.00010930123 -0.99999988 0.00047590907 0
-0.220403 -0.56537479 0.67517298 -0.075106896 -0.99690747 -0.023117233 0.047053605
-0.2494365 -0.56537479 0.64848918 -0.2248324 -0.97436422 0.0080476319 0.10463303
-0.14770991 -0.56537479 0.68908721 0.0066413321 -0.99986595 -0.014968965 0.0020020606
-0.1206138 -0.56537479 0.71695912 -0.00027002086 -0.99999982 0.00042388681 0
0.05652773 -0.56537479 0.96134001 3.3215172e-05 -0.99999994 0.00039117175 0
-0.1669132 -0.56537479 0.81125718 0.00012993065 -0.99999988 0.00048598231 0
0.017204851 -0.56537479 0.89377069 -6.8805639e-06 -0.99999988 0.00056539458 0
-0.084851488 -0.56537479 0.79479301 -0.00013635319 -0.99999988 0.00041820586 0
-0.12637191 -0.56537479 0.98235548 -0.00014115755 -0.99999994 0.00033327003 0
-0.1916106 -0.56537479 0.78756422 -1.8666462e-05 -1 3.5008172e-05 0
-0.13255391 -0.56537479 0.96792507 -8.5041524e-05 -0.99999994 0.00033481471 0
-0.1915139 -0.56537479 0.90703517 -0.00013426036 -1 0.00014341831 0
-0.1499649 -0.56537479 0.66981149 0.026889686 -0.99767655 -0.062598601 0.012206829
-0.1744324 -0.56537479 0.75760812 -1.4845215e-05 -1 0.00013328118 0
-0.13117917 -0.56450206 0.63201022 0.014573651 -0.99079943 -0.13455209 0.040857058
-0.2328821 -0.56537479 0.6612367 -0.10848351 -0.99388593 -0.020546097 0.066629454
-0.22932009 -0.56537479 0.64320242 -0.12664154 -0.99151945 -0.029174063 0.097007923
-0.1764358 -0.56537479 0.66817051 0.020430284 -0.99928105 -0.031936105 0.0045957724
-0.14666399 -0.56537479 0.76067322 -0.0001517653 -1 0.00027778026 0
0.077841341 -0.56537479 0.871687 4.6278874e-05 -0.99999988 0.00044606652 0
-0.1648778 -0.56537479 0.66831642 0.030031664 -0.99835712 -0.048796631 0.010173913
-0.044580609 -0.56537479 0.85308862 -6.0586273e-05 -0.99999994 0.00026855699 0
-0.17876311 -0.56537479 0.66834033 0.020563308 -0.99930853 -0.030980064 0.0047445884
-0.16525835 -0.56509584 0.6417194 0.050540827 -0.99268377 -0.10965677 0.02887412
-0.068927951 -0.56537479 0.7177 -3.4048291e-05 -0.99999988 0.00048148347 0
-0.1842348 -0.56537479 0.69296062 0.00079626724 -0.99999905 -0.0011212979 0
0.02910359 -0.56537479 0.91952461 6.9799185e-05 -0.99999988 0.00047103522 0
0.053432401 -0.56537479 1.03653 -0.021771681 -0.99902165 0.03849414 0.0088963658
-0.2121224 -0.56537479 0.68874109 0.0001340025 -0.99999994 0.0002018745 0
0.039852072 -0.56537479 0.7889396 4.5660283e-05 -0.99999994 0.00028182834 0
-0.1207531 -0.56537479 0.95303363 -6.6199849e-05 -1 0.00025152261 0
-0.1455989 -0.56537479 0.91016167 -6.1857274e-05 -1 0.00020114092 0
-0.1758966 -0.56537479 0.68268919 0.0092096319 -0.9998647 -0.013629653 0.0026733992
-0.22872031 -0.56537479 0.67386252 -0.089368559 -0.99561882 -0.02750208 0.053599697
-0.1082411 -0.56537479 0.68150443 0.0051626218 -0.99839991 -0.056312103 0.012784448
-0.2124735 -0.56537479 0.68235862 0.00022100733 -0.99999994 7.8117038e-05 0
-0.091326132 -0.56537479 0.76216531 -0.00013775981 -0.99999988 0.00031170118 0
0.0039657801 -0.56537479 0.93430352 -5.9068793e-06 -1 0.000322982 0
-0.01007317 -0.56537479 0.94010037 -1.8152987e-05 -1 0.00034676696 0
-0.039359082 -0.56537479 0.75749242 -1.8864586e-05 -0.99999994 0.00040271063 0
-0.035290729 -0.56537479 0.81725347 -3.8178216e-05 -0.99999994 0.00036910869 0
-0.0056778789 -0.56537479 1.0066119 5.7393394e-05 -0.99999928 0.0012005469 0
0.1247729 -0.56537479 0.99797451 -2.0662883e-05 -0.99999988 0.00048184933 0
-0.001651883 -0.56537479 0.9698441 9.8599507e-05 -0.99999982 0.0005088434 0
-0.092377223 -0.56537479 0.99451238 -0.00012714045 -0.99999994 0.00038283181 0
-0.094782211 -0.56537479 1.049953 0.017074719 -0.99903345 0.04050418 0.0032920768
-0.1930331 -0.56537479 0.88229531 -0.00013859021 -1 0.00018327426 0
-0.161902 -0.56537479 0.82132173 0.00011890185 -0.99999994 0.00050929008 0
-0.0214641 -0.56537479 0.87641299 -8.1377228e-05 -0.99999994 0.00031465231 0
-0.099686429 -0.56537479 0.78851259 -0.00013831117 -0.99999988 0.00038825581 0
0.046742011 -0.56537479 0.90935218 9.8831428e-05 -0.99999988 0.00051889679 0
-0.046085238 -0.56537479 0.69606543 -2.7532742e-05 -0.99999994 0.00020559445 0
-0.0004667789 -0.56537479 0.91896957 -7.9042657e-05 -0.99999988 0.00038438369 0
-0.031442668 -0.56537479 0.88393521 -7.9117774e-05 -0.99999994 0.00030891967 0
-0.01217672 -0.56537479 0.84745508 3.665825e-05 -0.99999994 0.00043727507 0
0.084140301 -0.56537479 0.72272122 0.0001270573 -1 0.00028481268 0
0.1453682 -0.56537479 0.71194887 0.00030739338 -0.99999994 0.00020820306 0
0.1784278 -0.56537479 0.88139302 0.020280574 -0.9997564 -0.0087137679 0.0067232372
0.094764978 -0.56537479 0.69373792 -0.0010031441 -0.99999523 -0.0029020021 0
-0.1153576 -0.56537479 0.6859163 0.0049715149 -0.99934298 -0.035901364 0.0058480739
0.1330228 -0.56537479 1.0531271 0.0020906117 -0.99626863 0.086281396 0.022022286
0.17802151 -0.56537479 1.021116 3.4937781e-05 -0.99999976 0.00062994636 0
0.059007879 -0.56537479 1.085713 0.0037112038 -0.95146054 0.30774856 0.081632651
0.066575773 -0.56537479 1.040264 -0.012813023 -0.9997291 0.01943003 0.0084457751
0.092071474 -0.56537479 1.09323 0.080939293 -0.89634603 0.43590444 0.11462036
0.1963069 -0.56537479 1.015201 0.00013461117 -0.9999997 0.00070319651 0
0.1798476 -0.56537479 1.0541871 -0.0058766906 -0.9996224 0.026842525 0.0065286048
0.226808 -0.56537479 1.076412 0.00010479625 -0.99999976 0.00068626099 0
0.1001985 -0.56537479 1.078831 0.044937517 -0.93241984 0.35857204 0.095267363
0.1512965 -0.56537479 0.80759728 0.0007863791 -0.99999946 0.00064499822 0
-0.011472686 -0.56118584 1.1000983 0.019781493 -0.7692315 0.63866389 0.13043335
0.0094799995 -0.55745769 1.0958527 0.22608709 -0.58700556 0.77737325 0.12382084
0.165301 -0.56537479 1.048371 -0.0082695782 -0.99885386 0.047143705 0.013726174
0.1249943 -0.56537479 0.87101579 3.3601373e-05 -0.99999982 0.00052196818 0
0.1788948 -0.56537479 0.93177271 8.0043013e-05 -1 0.00028407222 0
0.18718401 -0.56537479 1.055158 0.00024828943 -0.99999928 0.0010855078 0
0.20957109 -0.56537479 1.045833 0.00026206952 -0.99999958 0.00084552332 0
0.1060824 -0.56537479 1.095557 0.078177549 -0.77654707 0.62519032 0.12693514
-0.054905891 -0.56537479 0.68698788 -0.00032595653 -0.99999994 -0.00015789056 0
0.1651608 -0.56537479 0.8074913 0.010245156 -0.99993843 0.0042761522 0.0034615421
0.2138426 -0.56537479 0.69302893 0.15520968 -0.98726481 -0.034900911 0.036949623
0.16602521 -0.56537479 0.67360872 0.023897149 -0.99966729 -0.0097113149 0.0062136445
0.2113039 -0.56537479 0.69498771 0.14611199 -0.98853505 -0.038076151 0.035429876
0.19867329 -0.56537479 0.83599472 0.21580102 -0.97625291 0.018983131 0.074466161
0.15308671 -0.56537479 0.7429682 5.30957e-05 -0.99999994 0.00038921929 0
0.1226824 -0.56537479 0.83903688 3.2168937e-05 -0.99999994 0.00026878068 0
0.20615441 -0.56537479 1.031021 0.0002595085 -0.9999997 0.00073518895 0
0.2121551 -0.56537479 1.047345 0.00030293717 -0.99999964 0.00086566969 0
-0.017893916 -0.56399339 1.0945051 0.033264995 -0.91199446 0.40885156 0.11068354
0.1117176 -0.56537479 1.043226 0.008182331 -0.99812984 0.060580354 0.017851334
-0.01514477 -0.56537479 0.68269742 0.00041599665 -0.9999997 -0.00075830688 0
0.1486403 -0.56537479 1.041517 -0.0033220351 -0.99925679 0.038403504 0.011467689
0.1830567 -0.56537479 0.6989879 0.081758671 -0.99647033 -0.019036474 0.019987907
0.1812118 -0.56537479 0.76130992 0.03391578 -0.99942231 -0.0021534057 0.012512497
0.1870279 -0.56537479 0.68481582 0.104069 -0.99446535 -0.014435553 0.027136555
0.081939787 -0.56537479 0.68394679 -0.0034591367 -0.99995202 -0.0091656577 0
0.18441661 -0.56537479 0.68486547 0.10508896 -0.9943493 -0.015025601 0.027182814
0.18322469 -0.56537479 0.71638727 0.042677354 -0.99902403 -0.011387999 0.012722854
0.217379 -0.56537479 0.77007198 0.443901 -0.89475214 -0.048687201 0.096077532
0.1791722 -0.56537479 0.7413829 0.056139626 -0.99842262 -0.00085591176 0.021012519
0.2126949 -0.56537479 0.70671958 0.1910546 -0.98122585 -0.026343631 0.047001377
0.21079729 -0.56537479 0.76091611 0.34428361 -0.93844342 -0.028156504 0.080983609
0.22105481 -0.56537479 0.78456593 0.58550692 -0.80919039 -0.048913613 0.12067427
0.1874896 -0.56537479 0.70588171 0.079087265 -0.9965986 -0.023163013 0.020864146
0.24014039 -0.56537479 1.0185339 0.0002486358 -0.99999982 0.00032593575 0
0.22300109 -0.56537479 0.74771619 0.36363357 -0.93114322 -0.027255785 0.073923595
0.1975715 -0.56537479 0.68565762 0.10953959 -0.99379885 -0.019103764 0.028259698
0.19028489 -0.56537479 1.036798 0.00016073306 -0.99999958 0.00090428762 0
0.232263 -0.56537479 1.063848 0.00020765213 -0.99999994 0.0004396899 0
0.1137247 -0.56537479 1.042089 0.0081673637 -0.99836594 0.056559604 0.017343733
0.21424539 -0.56537479 1.055783 0.00024509951 -0.99999964 0.00078215502 0
-0.07069689 -0.56537479 0.67969358 -0.0039521144 -0.99996984 -0.0066849194 0
0.22076041 -0.56537479 1.06994 9.3469025e-05 -0.99999976 0.00066297251 0
0.13750049 -0.56537479 1.0997 0.089739613 -0.90554118 0.41465887 0.093804367
0.2215869 -0.56537479 1.069291 0.00015367717 -0.99999994 0.0005091023 0
0.1995157 -0.56537479 1.035206 0.00023114853 -0.9999997 0.00083564105 0
0.18828329 -0.56537479 0.93729597 0.00012055574 -0.99999988 0.00033793945 0
-0.006580824 -0.56028986 1.0997211 0.031674232 -0.69822514 0.71517712 0.12869473
0.1785415 -0.56537479 0.70820552 0.077597246 -0.99664587 -0.025993744 0.021232937
0.2000605 -0.56537479 0.79142821 0.23716061 -0.97137493 0.01362046 0.092413276
0.2018121 -0.56537479 0.82937717 0.22563033 -0.97302514 0.048093855 0.0744453
0.22990111 -0.56537479 0.85408407 0.44352019 -0.89626002 0.0027908944 0.089571685
0.22753701 -0.56307757 0.84704536 0.4552058 -0.88982689 0.031554118 0.093711704
0.23575249 -0.56537479 0.93312597 0.053581633 -0.99853081 -0.0080754953 0.030651499
0.2208126 -0.56537479 0.92961973 0.041831635 -0.99910718 -0.0059133605 0.0231907
0.1786907 -0.56537479 0.75367337 0.03171974 -0.99949646 0.00078708329 0.012386684
0.19038559 -0.56537479 0.7284615 0.12584683 -0.99204886 -0.001317628 0.046383739
0.19597889 -0.56537479 0.6968894 0.1173306 -0.99259317 -0.031502228 0.029080145
0.22010081 -0.56537479 0.81700969 0.38315496 -0.92148525 0.063695535 0.10280611
0.2237168 -0.56537479 0.86134678 0.33759922 -0.94088578 -0.027581546 0.078658804
0.21525089 -0.56537479 0.81771308 0.27945313 -0.95787382 0.066209294 0.09063787
0.23713709 -0.56537479 0.9300549 0.052163009 -0.99862087 -0.0059547578 0.031351902
0.21282268 -0.56470251 0.6701026 0.24717543 -0.9677248 -0.049121402 0.060163707
0.2120427 -0.56537479 1.057752 0.00028426651 -0.99999946 0.00098536711 0
0.2007838 -0.56537479 0.81718463 0.22406055 -0.97305882 0.054345109 0.078125909
0.192725 -0.56537479 0.66045243 0.16569886 -0.98554331 -0.035331566 0.051745594
0.19142149 -0.56537479 0.92176938 8.1184829e-05 -0.99999988 0.00035868262 0
0.172794 -0.56537479 0.69121021 0.055680361 -0.99835211 -0.013884095 0.014051926
0.208305 -0.56537479 1.037311 0.00021723774 -0.99999976 0.00064483506 0
0.039670505 -0.56453717 1.0884904 -0.029376104 -0.94919819 0.31330457 0.094976515
0.18311121 -0.56537479 1.047842 0.00016662513 -0.99999958 0.00097254169 0
0.083655953 -0.56537479 1.079318 0.065594509 -0.9471277 0.31408063 0.085557692
0.18600421 -0.56537479 0.690669 0.10744903 -0.99388605 -0.025403127 0.027254162
0.21560609 -0.56537479 0.75383788 0.28558511 -0.95793629 -0.028267851 0.070534624
0.1856551 -0.56537479 0.91755158 0.00012627544 -0.99999994 0.00039006639 0
0.2015488 -0.56537479 1.055845 0.00031724613 -0.99999928 0.0011531574 0
0.2013091 -0.56537479 1.041873 0.00027342871 -0.99999946 0.00097009458 0
0.1044848 -0.56537479 0.96409512 -1.0489799e-05 -0.99999994 0.00027883661 0
0.1686344 -0.56537479 1.0564311 -0.0077206581 -0.99868625 0.050657485 0.014828232
0.09631601 -0.56537479 1.095049 0.078259423 -0.873779 0.47998515 0.11907867
0.2307605 -0.56537479 0.84947842 0.53214329 -0.84546697 0.044824637 0.097407527
0.096328318 -0.56537479 1.095104 0.078259423 -0.873779 0.47998515 0.11907867
0.1659741 -0.56537479 0.68888652 0.019460233 -0.9997856 -0.0070736739 0.003507742
0.1707086 -0.56537479 0.68059403 0.05272384 -0.99860084 -0.0040841284 0.015073079
0.18681949 -0.56537479 0.74884337 0.12780565 -0.99176872 -0.0077828798 0.045241259
0.18955781 -0.56537479 1.029888 0.00012300345 -0.99999964 0.00083393784 0
0.063430659 -0.56537479 1.0492671 -0.038439035 -0.9982754 0.04436956 0.013500335
0.1987991 -0.56537479 1.030555 0.00017560465 -0.99999976 0.00068462774 0
0.1779861 -0.56537479 1.047612 -0.0063970746 -0.99969691 0.023775864 0.0060969675
0.1646312 -0.56537479 1.045799 -0.0082054883 -0.9990949 0.041738123 0.012584724
0.1596604 -0.56537479 1.0481319 -0.0048331004 -0.99914831 0.040979985 0.012076905
-0.049565818 -0.56537479 1.05267 0.048953302 -0.99315286 0.10607099 0.024711842
0.1985836 -0.56537479 0.97346991 0.000219519 -0.99999994 0.00029360713 0
0.059999648 -0.56537479 1.049342 -0.054833576 -0.99625826 0.066803269 0.016896071
0.0521341 -0.56537479 1.043039 -0.050331134 -0.99569398 0.077847108 0.016169654
-0.1008645 -0.56537479 1.016211 0.00012145469 -0.99999917 0.0013111247 0
0.1969128 -0.56537479 1.041579 0.00027465803 -0.99999946 0.00097941863 0
-0.0051382179 -0.56537479 0.96164852 5.9308495e-05 -0.99999994 0.00044522143 0
-0.1008642 -0.56537479 1.006653 -0.00014586093 -0.99999988 0.0004744794 0
-0.0080989748 -0.56537479 1.000991 0.000713619 -0.99999756 0.0021094917 0
0.166575 -0.56537479 1.04503 -0.0038055668 -0.99979699 0.019783851 0.0051460434
-0.017945349 -0.56537479 0.94164592 -4.1818919e-05 -1 0.00023940844 0
-0.103769 -0.56537479 1.038309 0.0052765361 -0.99989545 0.013464023 7.3000738e-05
0.077122129 -0.56537479 1.0435179 -0.010323389 -0.99981874 0.016000014 0.0092691388
-0.1143503 -0.56537479 1.03608 0.002265125 -0.99996316 0.0082788896 0
-0.0041190982 -0.56537479 1.0062979 -1.0997866e-05 -0.9999994 0.0011141197 0
-0.03137669 -0.56537479 0.9435513 -3.4228025e-05 -0.99999994 0.00027218004 0
-0.1052018 -0.56537479 0.90734208 -1.3287985e-05 -0.99999994 0.00020167082 0
0.032881681 -0.56537479 0.94771349 8.1633916e-05 -0.99999994 0.00036761136 0
0.1154076 -0.56537479 0.84138942 2.7168307e-05 -0.99999994 0.00029798792 0
-0.06843587 -0.56537479 1.054831 0.0053886641 -0.99771357 0.067368694 0.0070516914
0.1160122 -0.56537479 0.83432192 3.3575282e-06 -0.99999994 0.00036851547 0
-0.022606879 -0.56537479 1.058848 0.025049321 -0.98594433 0.16518556 0.048053995
0.1274707 -0.56537479 1.0477639 0.0066910889 -0.99630028 0.085679173 0.022125967
0.05433169 -0.56537479 0.96993202 3.9230011e-07 -0.99999988 0.00039468086 0
0.1037347 -0.56537479 0.88229471 7.6110991e-05 -0.99999994 0.00045349996 0
0.08877027 -0.56537479 0.90154529 8.0079146e-05 -0.99999994 0.00037233299 0
0.07904584 -0.56537479 1.041628 -0.010027391 -0.99983382 0.015229319 0.0093623735
0.01570636 -0.56537479 0.94628298 7.2361268e-05 -0.99999988 0.00040428765 0
0.1311655 -0.56537479 1.045917 0.002364869 -0.99703348 0.076932691 0.020744298
0.0049671684 -0.55861425 1.0972053 0.18691321 -0.67397946 0.71471328 0.12369294
-0.054032974 -0.5616262 1.0952346 0.040075358 -0.94089752 0.33631197 0.10871188
-0.1016082 -0.56537479 1.015505 0.00015313628 -0.99999917 0.0012829937 0
-0.006342933 -0.56537479 1.001902 0.00066429126 -0.9999975 0.0021415611 0
0.062992163 -0.56537479 1.053496 -0.063257776 -0.99549532 0.070623375 0.020133244
0.079814732 -0.56537479 1.050157 -0.00094256998 -0.99933285 0.03650777 0.017384261
0.044039931 -0.56537479 0.99070209 -7.2721421e-05 -0.99999994 0.00044983852 0
0.1639532 -0.56537479 1.0775321 -0.0062595205 -0.98537898 0.17026183 0.046331666
0.1060513 -0.56537479 1.078755 0.047988661 -0.90597832 0.42059538 0.10512637
0.1310817 -0.56537479 1.0501961 0.0044745351 -0.99615341 0.087511212 0.022136103
0.05948681 -0.56537479 1.002406 -8.4347084e-05 -0.99999982 0.00054042629 0
0.097466171 -0.56537479 1.094355 0.07691355 -0.8761723 0.47582185 0.11977132
0.042020019 -0.56537479 0.88089198 3.8846007e-05 -0.99999988 0.0004570235 0
0.22204819 -0.56537479 1.060376 0.00026289333 -0.99999964 0.00079863443 0
0.1861428 -0.56537479 1.080312 -0.015748303 -0.99704039 0.075249866 0.02180797
0.12605479 -0.56537479 1.0496351 0.0066910889 -0.99630028 0.085679173 0.022125967
0.1057133 -0.56537479 0.87570262 7.5849799e-05 -0.99999988 0.00050762756 0
0.21168689 -0.56537479 1.065202 0.000134113 -0.9999997 0.00074435369 0
0.2012684 -0.56537479 1.0809 0.00018157413 -0.99999958 0.0009213842 0
0.2261015 -0.56537479 1.046054 0.0002577978 -0.99999976 0.00059398846 0
0.05098772 -0.56537479 1.044296 -0.047063831 -0.99584883 0.077910051 0.016451878
0.2358214 -0.56537479 0.98297489 0.00019072012 -1 7.1023365e-05 0
0.2188388 -0.56537479 1.066056 0.00014558785 -0.99999988 0.00054191233 0
0.202989 -0.56537479 1.067829 0.00019177365 -0.99999934 0.0011566922 0
0.21579839 -0.56537479 1.0565079 0.00024509951 -0.99999964 0.00078215502 0
0.1812323 -0.56537479 0.91832048 8.0914499e-05 -0.99999994 0.0002404571 0
0.2012656 -0.56537479 0.97539222 0.00021869355 -1 0.00029571188 0
0.19599099 -0.56537479 1.038029 0.0001715418 -0.99999964 0.00085821713 0
0.1197857 -0.56537479 0.84116077 2.6937092e-05 -0.99999994 0.0003133913 0
0.17908581 -0.56537479 0.9125042 8.2095095e-05 -0.99999994 0.00038373933 0
0.15752541 -0.56537479 1.0482759 -0.0044448385 -0.99915713 0.040807813 0.012043914
0.22683281 -0.56537479 0.86940682 0.27078375 -0.96161348 -0.044449598 0.069772042
0.23615441 -0.56537479 0.85879958 0.48305354 -0.87552768 -0.010519104 0.089975044
0.2423569 -0.56537479 0.98550802 0.0002122805 -1 0.00010679305 0
0.186903 -0.56537479 1.0301991 0.00010742296 -0.99999964 0.00086428848 0
0.1919544 -0.56537479 1.0119081 0.00013288893 -0.99999982 0.00068605138 0
0.23228019 -0.56537479 0.94852722 0.054939233 -0.9983381 -0.01739509 0.026734775
0.2221265 -0.56537479 0.93430501 0.042906005 -0.99904901 -0.0077536451 0.022393391
0.14338329 -0.56537479 0.72485143 3.2006736e-07 -0.99999994 0.00051526987 0
0.19071101 -0.56537479 0.86334288 0.11998678 -0.9924885 -0.023867764 0.044555143
0.223548 -0.56537479 0.78869802 0.63485616 -0.77034146 -0.059428543 0.12287876
0.2182775 -0.56537479 0.71245372 0.20270126 -0.97889805 -0.025899399 0.051015921
0.20441189 -0.56537479 0.89575958 0.060427275 -0.99798787 -0.019204447 0.019320186
0.2112802 -0.56537479 0.84197909 0.28763655 -0.95761937 0.015182211 0.082814023
0.24245851 -0.56537479 0.95484579 0.070301443 -0.99721259 -0.02499425 0.033553086
0.2256795 -0.56537479 0.79428202 0.55509019 -0.83131802 -0.02802036 0.11399844
0.22967041 -0.56537479 0.86650229 0.326509 -0.94463378 -0.032541279 0.074402779
0.228946 -0.56537479 1.0005701 0.00032924619 -0.99999988 0.00031587135 0
0.2154658 -0.56537479 1.0569969 0.00024509951 -0.99999964 0.00078215502 0
0.2438546 -0.56537479 0.98982048 0.00020118731 -1 0.00011162558 0
0.2387197 -0.56537479 0.84537983 0.73202586 -0.67944354 0.049945317 0.10691116
0.2214392 -0.56537479 0.8105973 0.50097048 -0.86537397 0.012508 0.11444755
0.1589008 -0.56537479 0.89025873 2.0654301e-05 -0.99999988 0.00046901318 0
0.22303361 -0.56537479 0.90915918 0.11932912 -0.99216574 -0.036981117 0.041140418
0.1749498 -0.56537479 0.87106752 0.020026753 -0.99977988 -0.0062517524 0.0067825564
0.2141732 -0.56537479 0.74677008 0.26022074 -0.96548927 -0.010753844 0.066619173
0.080210388 -0.56537479 0.78275859 -7.2538933e-05 -0.99999994 0.00037646887 0
0.2169925 -0.56537479 0.88594532 0.14305346 -0.98900396 -0.03750927 0.045356967
0.2130456 -0.56537479 0.82574213 0.26848057 -0.96163571 0.056347098 0.086692594
0.17821001 -0.56537479 0.68075192 0.083225764 -0.99646342 -0.011582229 0.023987079
0.21530411 -0.56537479 0.71152991 0.20008768 -0.97947061 -0.024540408 0.049831055
0.2193312 -0.56537479 0.75085503 0.32143891 -0.94635957 -0.032873161 0.073475815
0.23214559 -0.56537479 0.80017042 0.66882902 -0.74188256 -0.047729105 0.109834
0.1610415 -0.56537479 0.88676399 0.00065023726 -0.99999976 -2.2925591e-05 0
0.19629499 -0.56537479 0.78730732 0.18834859 -0.98205012 0.010118868 0.075795412
0.2392619 -0.56537479 0.93826038 0.056681931 -0.9983331 -0.010873034 0.030730015
0.17710771 -0.56537479 1.085673 -0.0055457181 -0.99690515 0.078418776 0.019936012
0.1566442 -0.56537479 1.026423 8.733623e-05 -0.99999982 0.00053455122 0
0.22800229 -0.56537479 0.75443703 0.51903713 -0.85328811 -0.049998205 0.089807332
0.19241861 -0.56537479 1.0825911 -0.02846208 -0.99504644 0.095250182 0.026187979
0.1796709 -0.56537479 0.84363317 0.080557391 -0.99674338 0.0036412473 0.031107549
0.1878223 -0.56537479 0.83277452 0.14917247 -0.98870885 0.014227592 0.059371926
0.2339118 -0.56537479 0.71529412 0.33267176 -0.94262975 -0.027903669 0.069200449
0.01408786 -0.56537479 0.9441489 6.3292704e-05 -0.99999988 0.00040394813 0
0.2119263 -0.56537479 0.75120938 0.25748679 -0.9658649 -0.02838226 0.065852813
0.062410709 -0.56537479 1.088534 0.015990751 -0.92449647 0.38085529 0.089378245
0.2383177 -0.56537479 0.93989861 0.059927873 -0.99808699 -0.015195969 0.030420044
0.2147771 -0.56537479 1.043375 0.00025841684 -0.99999976 0.0005749038 0
0.20364951 -0.56537479 0.81369692 0.22705144 -0.97151458 0.067874998 0.080995001
0.1647252 -0.56537479 0.71042061 0.0016703012 -0.99999839 -0.00072938431 0
0.223253 -0.56537479 0.94383121 0.045668162 -0.99889833 -0.010796189 0.023109596
0.20075411 -0.56537479 0.7077328 0.12311378 -0.9920491 -0.026105374 0.030948935
-0.019723253 -0.56415617 1.1028463 0.043978464 -0.86106408 0.50659114 0.12154923
0.1154782 -0.56537479 1.090674 0.069193095 -0.86982065 0.48849177 0.10690396
-0.006873399 -0.56537479 0.96011913 6.0840579e-05 -0.99999994 0.00043347894 0
0.0064254836 -0.55836844 1.0968459 0.17680779 -0.67731237 0.71413362 0.12208366
-0.020771991 -0.56431925 1.1024456 0.050788783 -0.86251873 0.50346988 0.11903271
0.0096703507 -0.55637628 1.0975633 0.23763967 -0.53490591 0.81080389 0.12169353
-0.1463823 -0.56537479 1.116329 0.017583884 -0.89912933 0.43732962 0.093724519
-0.1014641 -0.56537479 1.101481 0.020099789 -0.95858747 0.28408825 0.077380635
-0.1324182 -0.56537479 1.109715 0.029213117 -0.94596952 0.32293677 0.065284833
-0.058238104 -0.56243694 1.0993028 0.039661501 -0.9333418 0.35679141 0.10773008
-0.15242057 -0.56415516 1.0963753 0.01579462 -0.94551617 0.32519177 0.091818728
-0.1953399 -0.56537479 1.1050709 -0.032312185 -0.72668463 0.68621093 0.17379883
-0.17101461 -0.56537479 1.073591 0.026385807 -0.99186105 0.12456091 0.056124486
-0.15538028 -0.56419969 1.0984938 0.013991781 -0.93948489 0.34230441 0.096832879
-0.049222339 -0.55805677 1.1093534 0.013098896 -0.73987347 0.67261851 0.12556128
-0.1936979 -0.56537479 1.0979691 -0.031897239 -0.82879329 0.55864513 0.17215346
-0.017284149 -0.56537479 0.9772836 0.00017010096 -0.99999988 0.00054623559 0
-0.19037411 -0.56537479 1.062642 1.6256683e-05 -0.99951482 0.031144788 0.019706151
0.0077874358 -0.56537479 0.94157928 4.1433552e-05 -0.99999988 0.00035019376 0
0.05470321 -0.56537479 0.96117967 3.3215172e-05 -0.99999994 0.00039117175 0
-0.2218798 -0.56537479 1.095467 -0.25165987 -0.87139589 0.42111358 0.18576369
-0.057131 -0.56237859 1.0972208 0.037006181 -0.94274569 0.331453 0.10293282
-0.014555806 -0.56404638 1.0912182 0.017835248 -0.93774247 0.3468731 0.094460279
-0.13909221 -0.56537479 1.114856 0.018388698 -0.88833922 0.45881933 0.089592189
-0.070714958 -0.55881524 1.1061825 0.026333613 -0.91305411 0.40698734 0.12117178
-0.01449092 -0.56350994 1.0959314 0.014862739 -0.87937421 0.47589919 0.10993405
-0.1900025 -0.56537479 1.1121711 -0.0063396818 -0.77352339 0.63373601 0.16704328
-0.17140549 -0.56537479 1.112762 -0.0254639 -0.8564682 0.5155713 0.11103349
-0.1915319 -0.56537479 1.103956 0.029622324 -0.8125028 0.58220416 0.1656297
0.0065471097 -0.56144208 1.0927699 0.10386756 -0.84896225 0.5181455 0.11217131
-0.025121868 -0.56476432 1.0972164 0.055649057 -0.93121028 0.36020893 0.093642265
-0.1050006 -0.56537479 1.0932781 0.016528841 -0.97595406 0.21734883 0.060540233
-0.1252625 -0.56537479 1.061415 0.0029391446 -0.99742872 0.071605861 0.019807395
-0.038806848 -0.56356937 1.0970414 0.048545931 -0.92658466 0.37293974 0.10422457
-0.009833904 -0.56230474 1.0967329 0.023115465 -0.84969378 0.52676952 0.11797392
-0.066816241 -0.56537479 1.058394 0.010806475 -0.99692076 0.077667162 0.011875276
-0.1036558 -0.56537479 1.095649 0.021049362 -0.96604073 0.25753117 0.072920091
-0.1081985 -0.56537479 0.84938192 -2.0103339e-06 -0.99999994 0.00032964212 0
-0.22528949 -0.56537479 1.0998 -0.33718693 -0.81784993 0.46629015 0.19654834
-0.0068134372 -0.56537479 1.003998 7.087706e-05 -0.99999982 0.00061026443 0
-0.1452136 -0.56537479 1.0612299 0.013155694 -0.99787056 0.063885137 0.021828298
-0.042696282 -0.55808741 1.1196823 0.056548156 -0.60051191 0.7976138 0.10171969
-0.1689038 -0.56537479 1.107587 -0.027914733 -0.88386881 0.46690115 0.11063859
0.1256092 -0.56537479 0.72001249 7.5341923e-05 -0.99999988 0.00047961425 0
-0.20829061 -0.56537479 0.84042662 2.6225876e-05 -1 -0.00014641174 9.4305076e-05
-0.2106019 -0.56537479 0.84683567 1.5436453e-05 -1 -0.00012357457 9.277284e-05
-0.1991656 -0.56537479 0.83385241 -4.9945688e-06 -1 -0.00011745955 4.0049923e-05
-0.2179254 -0.56537479 0.85898697 6.8177134e-05 -1 -0.00021589738 8.5495332e-05
-0.1901684 -0.56537479 1.078176 0.089374259 -0.97344887 0.21073583 0.10113988
-0.1868936 -0.56537479 0.84435749 -7.7992867e-05 -1 0.00020563503 0
-0.18662059 -0.56537479 1.093491 0.023528809 -0.87697524 0.47995925 0.15172815
-0.2009605 -0.56537479 1.073301 -0.10380874 -0.98749584 0.11864164 0.089318037
0.010483849 -0.56229317 1.0910581 0.12170005 -0.87193185 0.47426149 0.1042248
-0.1203073 -0.56537479 0.95030862 -8.2577899e-05 -0.99999988 0.00023040482 0
-0.223849 -0.56537479 0.68172091 0.0002198627 -0.99999994 0.00028830653 0
-0.2190519 -0.56537479 0.68605959 0.00024805352 -1 0.00012940408 0
-0.1859778 -0.56537479 1.055658 0.008126555 -0.999901 0.011489236 0.0045696385
-0.14696211 -0.56537479 1.060575 0.013633046 -0.9979465 0.062585279 0.021791922
-0.15825661 -0.56537479 0.85890979 -5.2745756e-05 -0.99999994 0.00029466004 0
-0.018945839 -0.56537479 0.94291508 -3.8723079e-05 -1 0.00027393681 0
-0.2032914 -0.56537479 0.87105691 -7.1040595e-05 -1 4.5339235e-05 0
-0.2249482 -0.56537479 1.097932 -0.33718693 -0.81784993 0.46629015 0.19654834
-0.093715392 -0.56243002 1.1040673 -0.012410581 -0.91189891 0.41022709 0.10792375
-0.00061861536 -0.55710721 1.1013173 0.11351908 -0.5417335 0.8328495 0.12032501
-0.2303753 -0.56537479 1.095299 -0.27304068 -0.94140011 0.1980271 0.15547664
-0.057439905 -0.55729985 1.1108398 0.0056261201 -0.67715949 0.73581475 0.13425651
-0.21688271 -0.56537479 0.85282552 7.091622e-05 -1 -0.00023670163 9.1069058e-05
-0.21838669 -0.56537479 0.98154563 0.00012647909 -1 -0.00011707415 0.00016652168
-0.1888103 -0.56537479 1.106342 0.018553197 -0.78514868 0.61902934 0.16145928
-0.021540573 -0.56108415 1.1261241 0.099070325 -0.59660482 0.79639673 0.095310315
-0.1245153 -0.56537479 1.003597 -8.8351204e-05 -0.99999994 0.00042441013 0
-0.1992154 -0.56537479 0.9864707 -6.3987063e-06 -1 -3.5901077e-05 2.2805585e-05
-0.085255593 -0.56537479 1.04106 0.0083818762 -0.99922627 0.038426731 0.0033278454
-0.2414065 -0.56537479 0.6713779 -0.14686704 -0.98872823 -0.029097686 0.073412783
-0.22298419 -0.56537479 0.65185583 -0.11227839 -0.99331075 -0.026966631 0.086319745
-0.2019964 -0.56537479 0.92621368 -5.0185838e-05 -1 9.0965281e-05 0
-0.21122549 -0.56537479 0.73324019 -7.6704018e-05 -1 0.00016268469 0
-0.2100697 -0.56537479 1.074303 -0.13421328 -0.98577422 0.1011736 0.087351151
-0.121502 -0.56537479 0.96797973 -0.00010221496 -1 0.00029006533 0
-0.19779889 -0.56537479 1.059203 0.011926152 -0.9998498 0.012578109 0.0052146926
-0.1988616 -0.56537479 0.98460472 -3.0333276e-05 -1 2.5109054e-07 0
-0.071292818 -0.56537479 1.0739779 0.022916531 -0.99339586 0.11242574 0.037014753
-0.19983511 -0.56537479 1.024969 0.0003679677 -0.99999976 0.00055234088 0
-0.095777065 -0.563676 1.1071385 -0.012582066 -0.95069605 0.30986887 0.078744315
-0.078590818 -0.56111825 1.1004988 -0.0027134877 -0.96353346 0.26757392 0.090284079
-0.2216372 -0.56537479 1.1070451 -0.32768017 -0.78705746 0.5226531 0.1889527
-0.035253461 -0.56388283 1.0966349 0.048545931 -0.92658466 0.37293974 0.10422457
-0.1721572 -0.56537479 1.102608 -0.027945798 -0.88381892 0.46699375 0.11061335
-0.010834516 -0.55952066 1.1234674 0.10829394 -0.46710059 0.87754744 0.10297344
-0.2212522 -0.56537479 0.68342221 0.00027397941 -0.99999994 0.00026220517 0
-0.2015928 -0.56537479 0.96560222 4.6333793e-05 -0.99999994 -0.00020659059 0.00017966061
-0.1873586 -0.56537479 0.9662993 -4.1248197e-05 -1 0.00010454908 0
-0.21208081 -0.56537479 0.99499881 8.1495586e-05 -1 -0.00023230574 0.0001513325
-0.13907 -0.56537479 1.07047 0.011992774 -0.99746925 0.070080981 0.022509636
-0.2513251 -0.56537479 0.73810762 4.8646056e-05 -1 -9.391905e-05 0.00019517921
-0.1031682 -0.56537479 0.73469162 -0.0002068239 -0.99999988 0.00041796049 0
-0.2063871 -0.56537479 0.84109467 2.6225876e-05 -1 -0.00014641174 9.4305076e-05
-0.20666841 -0.56537479 0.84188592 3.2136908e-05 -1 -0.00013509669 9.0708279e-05
-0.20742659 -0.56537479 0.89814079 -0.00013860931 -1 8.7640365e-05 0
-0.13442039 -0.56537479 0.81606311 0.0001023732 -0.99999994 0.00048349539 0
-0.1492361 -0.56537479 0.88456178 -0.0001469182 -0.99999994 0.0003321101 0
-0.1941877 -0.56537479 0.99290228 -4.4164295e-05 -1 -0.00010494667 0
-0.1408944 -0.56537479 0.88832319 -8.8001063e-05 -1 0.00018765814 0
-0.1974915 -0.56537479 0.87496221 -0.0001225625 -1 0.00017889557 0
-0.197017 -0.56537479 1.055444 0.011212158 -0.99986631 0.011900469 0.0049786391
-0.21965951 -0.56537479 1.065837 -0.15087718 -0.98727345 0.050271437 0.067609318
-0.16807561 -0.56537479 1.067475 0.02264333 -0.99351865 0.11139136 0.051611938
-0.20089421 -0.56537479 0.95292288 -7.0257151e-06 -1 -0.00018964161 7.0661241e-05
-0.1987993 -0.56537479 0.92126822 -0.00010799062 -1 0.00018439873 0
0.011220478 -0.55976552 1.0933276 0.19079334 -0.75697392 0.62497067 0.11940482
-0.1900465 -0.56537479 1.076604 0.089374259 -0.97344887 0.21073583 0.10113988
-0.15336309 -0.56537479 0.72897267 -0.00026875778 -0.99999982 0.00056140887 0
-0.22162519 -0.56537479 0.85304189 0.00015890955 -1 -0.00027340549 0.00021933051
-0.2010249 -0.56537479 1.071076 -0.10491037 -0.98869681 0.10710882 0.08325965
-0.20049819 -0.56537479 1.014405 -1.6180744e-05 -1 -3.4699358e-05 0
-0.17997 -0.56537479 1.109921 0.0019423707 -0.84733242 0.53105944 0.12488669
0.1691549 -0.56537479 0.7944088 0.010982188 -0.99991637 0.0068337056 0.0035190384
-0.2049204 -0.56537479 1.036873 0.0027636567 -0.9999944 0.0018492151 0
-0.02032936 -0.56537479 0.86708409 -2.2872649e-05 -0.99999994 0.00025330955 0
-0.1935904 -0.56537479 1.018906 0.00011576308 -0.99999976 0.00067504984 0
-0.1812734 -0.56537479 1.053754 0.0067674876 -0.99991125 0.011475013 0.0039665955
-0.032327 -0.56537479 0.73824978 -1.3027432e-05 -0.99999994 0.00048302827 0
-0.030399321 -0.56537479 1.05677 0.04986405 -0.98839527 0.14348705 0.04215166
-0.1961184 -0.56537479 1.049969 0.012313901 -0.99984175 0.012840856 0.0048792763
-0.079073131 -0.56537479 1.052949 0.010265097 -0.99792808 0.063515119 0.0071757818
-0.100175 -0.56401604 1.1018819 0.012787403 -0.95733798 0.28868729 0.078066513
-0.21108469 -0.56537479 0.84637469 7.4917356e-05 -1 -0.00019702685 0.00014559114
-0.1971242 -0.56537479 1.001386 -5.0013143e-05 -1 -6.2691841e-05 0
0.023210989 -0.56537479 0.76780438 2.6482861e-05 -0.99999994 0.00041620963 0
-0.1159253 -0.56537479 0.86186022 1.7184568e-05 -0.99999994 0.00038752137 0
-0.1421622 -0.56537479 0.87987769 -0.00010382966 -0.99999994 0.00030729026 0
-0.1248738 -0.56537479 0.94477153 -0.00012446645 -0.99999994 0.0003148067 0
-0.01421884 -0.56537479 0.83762509 -1.7732123e-06 -0.99999994 0.00043558478 0
-0.1193809 -0.56537479 0.68834043 0.0025564255 -0.99978292 -0.02067755 0.0029049411
-0.07027033 -0.56537479 0.79433322 -0.00019628373 -0.99999994 0.00049818697 0
-0.094045192 -0.56537479 0.81723279 -5.8759269e-05 -0.99999994 0.0004560785 0
-0.0050391261 -0.56537479 0.73460579 1.0283273e-05 -0.99999994 0.00046150159 0
0.03202416 -0.56537479 0.96883738 1.1443983e-06 -0.99999994 0.00034373705 0
-0.03768922 -0.56537479 0.86602658 -4.2929329e-05 -1 0.00023117063 0
0.070210703 -0.56537479 0.82871789 -3.276749e-05 -0.99999988 0.00044474221 0
-0.1388561 -0.56537479 0.98111278 -0.00012482864 -1 0.00029016065 0
-0.08618176 -0.56537479 0.91043419 6.0295937e-05 -0.99999988 0.00047200537 0
-0.007863462 -0.56537479 0.88329738 -7.976222e-05 -0.99999994 0.00033359026 0
-0.1204553 -0.56537479 0.86262578 1.7508442e-05 -0.99999994 0.00033942534 0
-0.061347481 -0.56537479 0.84560871 -0.00011706996 -0.99999994 0.00043819117 0
-0.086544298 -0.56537479 0.90512478 6.7093686e-05 -0.99999982 0.00042778242 0
-0.00082023442 -0.56537479 0.8585726 -3.2923847e-06 -0.99999994 0.00040272769 0
-0.1139971 -0.56537479 0.74361968 -0.00023136059 -1 0.00041547575 0
0.080510497 -0.56537479 0.87719017 2.378643e-05 -0.99999994 0.00040850361 0
-0.051767137 -0.55793959 1.1095346 0.01227215 -0.73904181 0.6735478 0.12712821
0.013171013 -0.55552644 1.0967119 0.2379363 -0.56744307 0.78828591 0.12216464
-0.1783396 -0.56537479 0.8817504 -0.00018915327 -0.99999994 0.00034783187 0
-0.1298341 -0.56537479 1.00669 -5.8647722e-05 -0.99999994 0.00036674103 0
-0.1986028 -0.56537479 1.1045949 -0.074784122 -0.75790972 0.64805883 0.17885014
-0.1686614 -0.56537479 0.88267571 -0.00017444893 -1 0.00026328015 0
-0.16873869 -0.56537479 1.079541 0.0079916418 -0.98411107 0.17737423 0.071959235
0.002642391 -0.56608891 1.0852515 0.019780166 -0.96867907 0.24752679 0.065394603
-0.1202501 -0.56537479 0.95221943 -7.7932564e-05 -1 0.0002500343 0
0.1103688 -0.56537479 1.089553 0.074669525 -0.85255581 0.51727462 0.10915938
0.048636783 -0.56504035 1.0865426 -0.021044979 -0.93852192 0.34457752 0.097862527
-0.1012745 -0.56537479 1.099738 0.019881912 -0.96029621 0.27827284 0.075695373
-0.057211619 -0.56537479 0.84467107 -0.00011392732 -0.99999994 0.00041651822 0
-0.056783929 -0.56537479 1.038254 0.0052296789 -0.99968231 0.024657045 0.00046048104
-0.1976784 -0.56537479 1.099512 -0.041345224 -0.77270323 0.63341957 0.1738604
-0.016923876 -0.56414205 1.0920928 0.014706647 -0.93635207 0.35075432 0.10138117
-0.1494682 -0.56537479 1.062284 0.015869154 -0.99757248 0.067804679 0.02382407
-0.072441876 -0.5588057 1.1068012 -0.01212237 -0.85808623 0.51336253 0.13498104
-0.15170982 -0.5642277 1.0931294 0.022315806 -0.96371675 0.26599252 0.083186477
-0.1004561 -0.56537479 1.091347 0.018125616 -0.97290641 0.23048741 0.069402844
0.075916037 -0.56537479 0.78460681 -9.6887255e-05 -0.99999982 0.00041558003 0
0.1411348 -0.56537479 0.69415259 0.00065919093 -0.99999934 -0.00098104135 0
-0.071560107 -0.56537479 0.77761543 -9.0574307e-05 -0.99999994 0.00031809174 0
-0.067312963 -0.56537479 1.0297461 0.0029694943 -0.99986416 0.016210718 0.00013010677
-0.019254824 -0.56448352 1.0918598 0.035719354 -0.93928975 0.34126064 0.10837508
-0.15573196 -0.56417143 1.0998671 0.01116276 -0.92693019 0.37506786 0.098537765
-0.056051642 -0.56183934 1.0952127 0.036496766 -0.94909394 0.31287184 0.10070555
-0.08720395 -0.56490391 1.0882334 -0.027396509 -0.98020071 0.19610181 0.064591877
-0.18774471 -0.56537479 0.93743569 -8.3763516e-05 -1 0.00022026256 0
-0.014747333 -0.56461298 1.0861031 0.018583367 -0.95504886 0.29586527 0.083576262
-0.043457799 -0.56537479 0.75803763 -8.5806523e-06 -0.99999994 0.00038762068 0
-0.1321758 -0.56537479 1.106402 0.032658186 -0.95760721 0.2862201 0.064332061
0.044396471 -0.56537479 0.80911273 1.3076826e-05 -0.99999994 0.00030441291 0
-0.079684012 -0.56143695 1.0995239 -0.0099289641 -0.95830548 0.28557312 0.087349318
0.1214606 -0.56537479 1.095354 0.07563068 -0.87137103 0.48476031 0.10336123
0.041356102 -0.56537479 0.82116842 7.9332767e-06 -1 0.00027466103 0
-0.064505517 -0.56537479 0.67795151 -0.0040605948 -0.99997163 -0.00635164 0
-0.12796579 -0.56537479 1.060541 0.0022525189 -0.9979437 0.064056315 0.019097039
0.1341767 -0.56537479 1.094903 0.074996203 -0.91585118 0.39445156 0.089334339
-0.1953174 -0.56537479 1.102537 -0.041345224 -0.77270323 0.63341957 0.1738604
-0.1468482 -0.56537479 1.1142451 0.023292171 -0.90499413 0.424786 0.08904805
-0.064869568 -0.56537479 0.70043111 -0.00016006155 -1 5.7042173e-05 0
-0.12324 -0.56537479 0.95858687 -9.760847e-05 -1 0.00033417731 0
0.104895 -0.56537479 0.83849472 -7.4930113e-06 -0.99999994 0.00041647544 0
0.092236638 -0.56537479 0.86760622 8.7090069e-05 -0.99999994 0.0004318128 0
0.033303078 -0.56537479 0.81890208 3.1748725e-05 -1 0.00027328957 0
-0.1207968 -0.56537479 1.057044 -0.00065493217 -0.99823546 0.059376854 0.015696423
0.0024242101 -0.56537479 0.70251358 -6.4504988e-05 -0.99999988 0.00044569233 0
-0.161149 -0.56537479 1.016672 1.2128988e-06 -0.99999803 0.0019820717 0
-0.020134309 -0.56537479 0.86375928 -2.5647827e-05 -0.99999994 0.00028672951 0
-0.0080980137 -0.56537479 1.001974 0.000713619 -0.99999756 0.0021094917 0
-0.1042736 -0.56537479 1.0897239 0.022994742 -0.9735797 0.22718665 0.069454603
-0.064237587 -0.56537479 1.027971 0.003113931 -0.99986422 0.016184758 8.9286172e-05
-0.095065258 -0.56416833 1.1030911 -0.0075509306 -0.95453435 0.29800534 0.082781971
-0.0044527049 -0.56537479 0.83993638 4.2325832e-05 -0.99999994 0.00037715814 0
-0.03222831 -0.56537479 0.84539747 -7.8222431e-05 -0.99999994 0.00041855307 0
0.1208384 -0.56537479 0.82265222 4.443989e-05 -1 0.00037542815 0
0.045299619 -0.56537479 0.82609779 2.3584895e-05 -0.99999994 0.00037021199 0
0.045989662 -0.5640955 1.092667 -0.019473899 -0.94622934 0.32290989 0.099973507
0.092152923 -0.56537479 0.77024418 1.4634441e-05 -0.99999994 0.000273849 0
-0.1339398 -0.56537479 0.74155152 -0.00020348385 -0.99999988 0.00042083132 0
-0.1430604 -0.56537479 0.71472073 -0.00020583204 -1 0.00012285927 0
-0.16432621 -0.56537479 0.87659973 -0.00019279585 -0.99999994 0.0003485877 0
-0.1192396 -0.56537479 0.77405792 -0.00014781671 -0.99999994 0.00032904249 0
0.078626223 -0.56537479 0.86450338 6.7853151e-05 -0.99999994 0.00045059441 0
-0.1666825 -0.56537479 1.077551 0.019696373 -0.99144673 0.12901691 0.055767212
0.017346675 -0.56364501 1.0888408 0.083826832 -0.89053518 0.44712427 0.10542932
-0.1345263 -0.56537479 1.029134 -0.00043048133 -0.99999595 0.0028098763 0
0.1764507 -0.56537479 0.91135049 4.7754169e-05 -0.99999994 0.00029530784 0
0.095351651 -0.56537479 1.092674 0.071771234 -0.88781178 0.45457572 0.11527093
0.1749042 -0.56537479 0.85380888 0.037402354 -0.99925709 -0.009290712 0.012938301
-0.1906717 -0.56537479 1.096609 0.040191293 -0.86006993 0.50859076 0.16264406
-0.1113352 -0.56537479 1.109355 0.010377358 -0.94930059 0.31419826 0.071445435
-0.063031197 -0.56537479 0.92903161 -3.3649667e-05 -0.99999994 0.00034402608 0
-0.20662349 -0.56537479 1.101774 -0.15393105 -0.82605988 0.5421533 0.17887078
0.078455657 -0.56537479 1.094961 0.038389891 -0.91882014 0.39280498 0.083059289
-0.15094291 -0.56537479 0.74811012 -0.00016282509 -1 0.00036218169 0
-0.1813141 -0.56537479 0.82954752 -1.8385685e-05 -1 0.00023779107 0
-0.1105957 -0.56537479 0.73347688 -0.0002214284 -0.99999988 0.00041486783 0
-0.1749638 -0.56537479 1.097278 -0.018351102 -0.90865314 0.41714832 0.11443356
-0.038835112 -0.56335407 1.0953633 0.045838252 -0.93887353 0.34119684 0.10113834
-0.1015212 -0.56537479 0.81545782 -5.2849351e-05 -0.99999982 0.00041921207 0
-0.1102644 -0.56537479 0.92484248 -4.8900041e-05 -0.99999994 0.00039348885 0
-0.0060297619 -0.56537479 0.7007432 -2.958496e-05 -0.99999994 0.00040049473 0
0.1765881 -0.56537479 0.90538329 0.00063222216 -0.99999964 -0.00054910197 0
0.01329911 -0.56537479 0.98990679 -0.00018551684 -0.9999994 0.0011043112 0
0.091229893 -0.56537479 0.90055257 9.680511e-05 -0.99999994 0.00040366052 0
-0.0062851976 -0.56323886 1.0888346 0.0349673 -0.93792051 0.34508312 0.089037091
0.060311761 -0.56537479 1.0795619 -0.0026119326 -0.95656705 0.29150057 0.076010838
0.019119959 -0.56707829 1.0847454 0.010262405 -0.96615952 0.25774109 0.073639788
0.0057497113 -0.55858552 1.0968859 0.18691321 -0.67397946 0.71471328 0.12369294
0.1063617 -0.56537479 1.091516 0.073750041 -0.81088048 0.58054602 0.12165789
0.1202758 -0.56537479 1.078248 0.02721058 -0.92269546 0.38456821 0.092975743
0.071258202 -0.56537479 1.085795 0.011186562 -0.95166719 0.30692732 0.070464052
0.092104703 -0.56537479 0.69907951 -0.0007587361 -0.99999702 -0.0023310382 0
-0.1581493 -0.56537479 0.93049687 -7.7606135e-05 -1 0.00023244251 0
0.07320188 -0.56537479 0.91707671 9.8861834e-05 -0.99999994 0.00035415436 0
-0.12813631 -0.56537479 0.93134552 -9.3502895e-05 -1 0.00025904857 0
-0.1704468 -0.56537479 1.065636 0.02264333 -0.99351865 0.11139136 0.051611938
0.1681266 -0.56537479 0.70825362 0.0017087482 -0.99999827 -0.00070325105 0
0.07474421 -0.56537479 0.79046768 -0.00010366442 -0.99999994 0.00041895159 0
0.1844487 -0.56537479 0.88336909 0.037818789 -0.99919391 -0.013465127 0.015137308
-0.17198411 -0.56537479 0.93106878 -0.00010969902 -0.99999988 0.00022215795 0
0.014889739 -0.56231809 1.090296 0.14230672 -0.84108025 0.52185524 0.11006252
-0.075510003 -0.56537479 1.039593 0.0059139631 -0.99929827 0.036986072 0.0028323419
0.1836618 -0.56537479 0.9245019 7.2322553e-05 -0.99999994 0.00025285647 0
-0.068047896 -0.56236696 1.0927708 0.017132068 -0.96443367 0.26376942 0.09199506
-0.058331925 -0.55780292 1.1092074 -0.00042027724 -0.76466382 0.64442927 0.13258789
-0.050684039 -0.56537479 0.93018878 -2.6349806e-05 -0.99999994 0.00030344541 0
0.01490784 -0.56537479 0.86529827 9.9500248e-06 -0.99999988 0.00047426089 0
-0.051856522 -0.56537479 0.91934502 -3.5137749e-05 -1 0.00033631039 0
-0.012855524 -0.5631969 1.0957164 0.012339487 -0.88161737 0.47180355 0.10940836
0.029353401 -0.56040621 1.0909275 0.085503452 -0.81679827 0.57055205 0.12881488
-0.1880533 -0.56537479 1.1122299 0.0071767876 -0.78031224 0.62534893 0.16447738
-0.097658247 -0.56537479 0.9689846 -8.0193728e-05 -0.99999988 0.00029635715 0
0.053174909 -0.56537479 0.95530373 8.0233542e-05 -0.99999994 0.00038754608 0
0.1174547 -0.56537479 0.91466838 -7.313296e-06 -0.99999994 0.00039259726 0
-0.072700441 -0.56262565 1.0949919 0.014477978 -0.96392632 0.26577514 0.093838818
0.1119643 -0.56537479 1.097262 0.09574534 -0.82206815 0.56128138 0.11967185
0.029097021 -0.56408173 1.0851444 -0.0015995873 -0.94853002 0.31668326 0.095494054
0.097626083 -0.56537479 1.087797 0.052607056 -0.86577386 0.49766269 0.11356556
0.044509161 -0.56537479 0.90942192 9.324526e-05 -0.99999988 0.00055453886 0
0.1037619 -0.56537479 1.078208 0.041416992 -0.91143495 0.40935433 0.1043451
-0.026081171 -0.56537479 1.041988 0.037648704 -0.99373734 0.10520817 0.025519649
-0.1706731 -0.56537479 0.73582858 -0.00028822102 -0.99999982 0.00049368921 0
-0.19259641 -0.56537479 0.70170701 3.0258117e-05 -1 7.7739867e-05 0
-0.099584877 -0.56537479 0.91887188 -2.6503752e-05 -0.99999994 0.00044677229 0
-0.065335587 -0.56537479 0.83229709 -0.00015729859 -0.99999988 0.00050097593 0
-0.2068423 -0.56537479 0.6913147 7.5143762e-05 -0.99999994 0.00023812825 0
-0.1765327 -0.56537479 0.682423 0.0093691442 -0.99986345 -0.013606408 0.0027168915
-0.13040221 -0.56537479 1.062014 0.0079564862 -0.99797642 0.063084692 0.019346448
-0.1149299 -0.56537479 1.031576 0.0021497929 -0.99996489 0.0081027877 0
-0.14348669 -0.56537479 1.11475 0.015149305 -0.89387876 0.44805282 0.090360239
-0.1028851 -0.56537479 1.018088 0.00016599827 -0.99999917 0.0012746372 0
0.1025248 -0.56537479 0.94177163 2.3067882e-05 -0.99999994 0.00035014364 0
0.13928559 -0.56537479 0.80913931 7.5947173e-05 -0.99999988 0.00043760886 0
0.13358781 -0.56537479 0.69000697 -0.00088488735 -0.99999791 -0.0018349333 0
0.01359749 -0.56537479 0.95464033 6.565603e-05 -0.99999994 0.00044684226 0
0.02057731 -0.56537479 0.94288832 6.9269656e-05 -0.99999994 0.00034790399 0
0.1767776 -0.56537479 0.91555572 5.7976173e-05 -0.99999994 0.00029552207 0
0.028906791 -0.56537479 0.9036212 1.7571105e-05 -0.99999982 0.00061593408 0
-0.01061112 -0.56537479 0.85978979 -2.3537115e-05 -1 0.00028801436 0
0.06582047 -0.56537479 0.69505608 -0.00019057143 -0.99999326 -0.0036625371 0
-0.0064808349 -0.56537479 0.97600871 6.9994661e-05 -0.99999988 0.00048773779 0
0.01280265 -0.56537479 0.88299102 -5.6522676e-06 -0.99999994 0.00035960358 0
0.15325829 -0.56537479 0.72362608 9.4997786e-06 -0.99999988 0.00050044386 0
0.028714029 -0.56537479 0.92023408 6.9517358e-05 -0.99999988 0.00043018354 0
0.1319842 -0.56537479 1.040795 0.0042042392 -0.99929869 0.037206654 0.010172457
-0.04819436 -0.56537479 1.037692 0.0048436671 -0.99964875 0.026054701 0.00060375687
0.048670828 -0.56537479 1.026777 -0.0064479727 -0.99967563 0.024638336 0.0073134345
0.078592017 -0.56537479 0.98600668 -1.1214075e-05 -0.99999994 0.00031236821 0
-0.048215229 -0.56537479 1.05503 0.061422288 -0.99157917 0.11400887 0.028474627
-0.034283001 -0.56537479 1.0371 0.026324367 -0.99824721 0.053004477 0.0067871008
0.16837581 -0.56537479 1.047707 -0.0090634366 -0.99895382 0.044822786 0.013560405
-0.027193779 -0.56537479 1.056196 0.038653933 -0.98930812 0.14062484 0.03619203
0.062667377 -0.56537479 1.049279 -0.041121032 -0.99781436 0.051727369 0.014480817
-0.01078098 -0.56537479 1.018358 0.0019426363 -0.99996209 0.0084813545 0
0.076285481 -0.56537479 1.0484051 -0.012392499 -0.99976867 0.017579937 0.0096143987
0.128189 -0.56537479 1.04689 0.0061404887 -0.99662244 0.081889592 0.021567758
-0.062766917 -0.56537479 0.77876103 -0.00010569365 -1 0.00033720082 0
-0.1119361 -0.56537479 0.69505012 0.00096829562 -0.99998206 -0.0059129684 0
0.02148989 -0.56537479 0.69349247 0.00084941555 -0.99999887 -0.0012608668 0
0.076359019 -0.56537479 0.9407655 4.7498506e-05 -0.99999994 0.00037037226 0
0.092919894 -0.56537479 1.085824 0.071939103 -0.90403426 0.42136312 0.10975015
0.017187649 -0.56537479 1.020546 -0.0033781412 -0.9997431 0.022413993 0.0013724153
-0.02299118 -0.56537479 0.9650715 0.0001343255 -0.99999988 0.00052431907 0
0.03393745 -0.56537479 1.042206 -0.034933392 -0.99546891 0.088438392 0.021726269
-0.070680052 -0.56537479 1.059365 0.0076316125 -0.9977091 0.067218579 0.0070276302
0.053976271 -0.56537479 0.89288789 6.2232059e-05 -0.99999994 0.00039969414 0
-0.1289532 -0.56537479 1.050591 -0.0011398902 -0.99864781 0.051972404 0.015246633
0.092896968 -0.56537479 0.82249987 -1.0940017e-05 -0.99999994 0.00035785043 0
-0.1726691 -0.56537479 1.0665261 0.025702061 -0.99326915 0.11294159 0.052342154
