# .PCD v0.7 - Point Cloud Data file format
VERSION 0.7
FIELDS x y z
SIZE 4 4 4
TYPE F F F
COUNT 1 1 1
WIDTH 1437
HEIGHT 1
VIEWPOINT 0 0 0 1 0 0 0
POINTS 1437
DATA ascii
0.05948681 -0.3514584 1.002406
0.13891441 -0.52012759 1.096934
0.23375119 -0.52014297 1.078859
0.097466171 -0.48572791 1.094355
0.1083101 -0.55911988 1.11716
0.059975561 -0.55672109 1.1219651
0.1632068 -0.55580509 1.113942
0.2381538 -0.55553359 1.13175
0.042020019 -0.1906969 0.88089198
0.2049381 -0.56030017 1.107404
0.22204819 -0.3822588 1.060376
0.1861428 -0.426954 1.080312
0.26891211 -0.5552029 1.047255
0.12605479 -0.2149595 1.0496351
0.1057133 -0.19101749 0.87570262
0.21168689 -0.37445971 1.065202
0.2012684 -0.4268595 1.0809
0.2261015 -0.3762812 1.046054
0.05098772 -0.1908005 1.044296
0.2358214 -0.41651419 0.98297489
0.2188388 -0.41269261 1.066056
0.202989 -0.37989891 1.067829
0.26144311 -0.55781192 0.91908401
0.21579839 -0.36129639 1.0565079
0.1812323 -0.35774559 0.91832048
0.2012656 -0.203403 0.97539222
0.19599099 -0.2265287 1.038029
0.1197857 -0.1925052 0.84116077
0.17908581 -0.1907983 0.9125042
0.15752541 -0.20694859 1.0482759
0.22683281 -0.4420729 0.86940682
0.23615441 -0.50872213 0.85879958
0.2423569 -0.4699885 0.98550802
0.186903 -0.1941101 1.0301991
0.1919544 -0.1933977 1.0119081
0.23228019 -0.45896989 0.94852722
0.2221265 -0.38321909 0.93430501
0.14338329 -0.30325001 0.72485143
0.19071101 -0.2013302 0.86334288
0.223548 -0.4170512 0.78869802
0.2182775 -0.48578829 0.71245372
0.20441189 -0.20164301 0.89575958
0.2112802 -0.35426399 0.84197909
0.24245851 -0.43589911 0.95484579
0.2256795 -0.4969911 0.79428202
0.22967041 -0.46981311 0.86650229
0.228946 -0.39319339 1.0005701
0.2154658 -0.36377421 1.0569969
0.2438546 -0.46089891 0.98982048
0.2387197 -0.5056265 0.84537983
0.2214392 -0.42430529 0.8105973
0.1589008 -0.3544316 0.89025873
0.2430335 -0.55754268 1.107891
0.22303361 -0.39348689 0.90915918
0.1749498 -0.19506881 0.87106752
0.2141732 -0.42049959 0.74677008
0.080210388 -0.189015 0.78275859
0.2169925 -0.39738759 0.88594532
0.1825666 -0.35562959 0.93823642
0.2130456 -0.4270016 0.82574213
0.1374259 -0.35769069 0.89091182
0.17821001 -0.30869031 0.68075192
0.21530411 -0.4023554 0.71152991
0.2193312 -0.4351283 0.75085503
0.23214559 -0.39248559 0.80017042
0.1610415 -0.3496913 0.88676399
0.19629499 -0.36736429 0.78730732
0.2347495 -0.50668281 1.080534
0.2392619 -0.46207601 0.93826038
0.17710771 -0.39692119 1.085673
0.1566442 -0.19726861 1.026423
0.22800229 -0.40731931 0.75443703
0.19241861 -0.41049141 1.0825911
0.1796709 -0.241552 0.84363317
0.1151597 -0.35057351 0.83608902
0.1878223 -0.2200741 0.83277452
0.2339118 -0.508416 0.71529412
0.1560367 -0.35445741 0.74407393
0.01408786 -0.1840824 0.9441489
0.2119263 -0.46433151 0.75120938
0.062410709 -0.46267849 1.088534
0.2383177 -0.4779287 0.93989861
0.2147771 -0.34587541 1.043375
0.1161986 -0.29465979 0.72959739
0.20364951 -0.36730921 0.81369692
0.1647252 -0.28587869 0.71042061
0.223253 -0.39320141 0.94383121
0.1371804 -0.26847771 0.74294752
0.1259969 -0.35593671 0.83655798
0.20075411 -0.36071029 0.7077328
-0.01970333 -0.51217282 1.10297
0.1154782 -0.4972004 1.090674
-0.006873399 -0.35178971 0.96011913
0.0090146959 -0.53310502 1.102559
-0.020748259 -0.51335591 1.102545
0.01472023 -0.53593481 1.11172
-0.1463823 -0.5101912 1.116329
-0.1014641 -0.43967491 1.101481
-0.1324182 -0.4792347 1.109715
-0.058327232 -0.4611052 1.1008691
-0.1523854 -0.38363069 1.096401
-0.1953399 -0.4597328 1.1050709
-0.17101461 -0.29269969 1.073591
-0.15534431 -0.40838009 1.098516
-0.05016911 -0.53441942 1.112746
-0.1936979 -0.40461579 1.0979691
-0.017284149 -0.3567329 0.9772836
-0.19037411 -0.2582387 1.062642
0.0077874358 -0.3476235 0.94157928
0.05470321 -0.32464191 0.96117967
-0.2218798 -0.43180209 1.095467
-0.057191819 -0.4643594 1.09837
-0.0144771 -0.44350031 1.091324
-0.13909221 -0.51571608 1.114856
-0.070470721 -0.53407919 1.10941
-0.01426491 -0.47371331 1.096209
-0.1900025 -0.49622399 1.1121711
-0.17140549 -0.50365943 1.112762
-0.2107299 -0.52921438 1.110101
-0.2230664 -0.55877638 1.132352
-0.1915319 -0.4504779 1.103956
0.0077686012 -0.53157622 1.096724
-0.02510279 -0.4752427 1.09727
-0.1050006 -0.37680459 1.0932781
-0.1252625 -0.2128697 1.061415
-0.038898502 -0.4749997 1.0975111
-0.0091240406 -0.4814316 1.097954
-0.066816241 -0.22601961 1.058394
-0.1036558 -0.37835261 1.095649
-0.1081985 -0.1960775 0.84938192
-0.22528949 -0.4844726 1.0998
-0.0068134372 -0.35547391 1.003998
-0.1452136 -0.2061162 1.0612299
-0.23602331 -0.42077759 1.002642
-0.2548106 -0.54324192 0.99428892
-0.052955631 -0.5598532 1.134671
-0.1689038 -0.48484921 1.107587
0.1256092 -0.1907514 0.72001249
-0.2578609 -0.54311621 0.89499283
-0.089448363 -0.55761689 1.181574
-0.20829061 -0.3572613 0.84042662
-0.2106019 -0.36535901 0.84683567
-0.2392641 -0.50330728 1.103622
-0.22030979 -0.3694573 0.75054568
-0.2231441 -0.29500699 0.69719332
-0.1880955 -0.33110681 0.74563122
-0.1991656 -0.35627031 0.83385241
-0.2179254 -0.36024421 0.85898697
-0.1901684 -0.34023511 1.078176
-0.1868936 -0.35938811 0.84435749
-0.25669861 -0.53468561 0.88426179
-0.22949781 -0.42096391 1.03064
-0.2246244 -0.50472462 1.102482
-0.2657356 -0.52822882 0.82565612
-0.18662059 -0.39592811 1.093491
-0.2379104 -0.47016731 1.065022
-0.2348565 -0.46510729 1.039263
-0.1527546 -0.29149741 1.068822
-0.2009605 -0.3326005 1.073301
0.01134697 -0.48448849 1.09421
-0.2394467 -0.3958832 0.77023882
-0.2120665 -0.29093409 0.72335267
-0.076865397 -0.5590663 1.128063
-0.1203073 -0.1906698 0.95030862
-0.2448342 -0.42704001 0.76961207
-0.223849 -0.35476881 0.68172091
-0.23955031 -0.4183892 0.87923282
-0.2190519 -0.3862294 0.68605959
-0.21206149 -0.25823939 0.71024847
-0.1899102 -0.33502489 0.74100512
-0.19515669 -0.36224931 0.74538982
-0.229121 -0.39334789 0.966102
-0.23634189 -0.3974936 0.77134669
-0.24010549 -0.46588579 0.93179518
-0.25712389 -0.4755756 0.68313569
-0.2433012 -0.51478291 0.85475332
-0.2705338 -0.53943342 0.69140643
-0.26870379 -0.53774053 0.76486218
-0.26345381 -0.55690658 0.92612892
-0.24560539 -0.50926858 0.96762472
-0.238336 -0.51481009 1.092011
-0.241432 -0.53086078 1.052748
-0.1859778 -0.20513 1.055658
-0.14696211 -0.2049759 1.060575
-0.15825661 -0.1964643 0.85890979
-0.018945839 -0.34697211 0.94291508
-0.2032914 -0.36267611 0.87105691
-0.2249482 -0.4801105 1.097932
-0.093562163 -0.47115469 1.104828
0.0030655561 -0.54112029 1.107716
-0.2303753 -0.4957701 1.095299
-0.058108568 -0.53561407 1.114994
-0.21688271 -0.36872229 0.85282552
-0.24668799 -0.48926529 0.85937113
-0.21838669 -0.358702 0.98154563
-0.1509673 -0.55958438 1.132126
-0.26581669 -0.55738121 1.02472
-0.1888103 -0.47796381 1.106342
-0.02125713 -0.55636221 1.1267689
-0.1245153 -0.189854 1.003597
-0.1982117 -0.53550577 1.111756
-0.37425321 -0.56027949 1.094236
-0.2602323 -0.50784171 0.83699542
-0.34857181 -0.5582993 1.107538
-0.25411811 -0.50080222 0.79294813
-0.1992154 -0.2070445 0.9864707
-0.27510029 -0.55906451 0.8966437
-0.16213439 -0.29419881 0.76683009
-0.17675669 -0.35520849 0.77498281
-0.085255593 -0.1916317 1.04106
-0.25044689 -0.44377741 0.73451263
-0.25115031 -0.51384223 0.80546188
-0.2435015 -0.43773481 0.84329921
-0.2414065 -0.38728651 0.6713779
-0.2493349 -0.49334639 0.89858168
-0.26469451 -0.54558963 0.80242521
-0.26193121 -0.55931008 0.9433918
-0.2593061 -0.51436079 0.62818652
-0.249631 -0.4365353 0.68806028
-0.22298419 -0.36704561 0.65185583
-0.47317341 -0.55752552 1.154147
-0.47477949 -0.55886507 1.186056
-0.2019964 -0.20648231 0.92621368
-0.21122549 -0.2064732 0.73324019
-0.2100697 -0.31705219 1.074303
-0.121502 -0.197203 0.96797973
-0.19779889 -0.33660299 1.059203
-0.1988616 -0.2079217 0.98460472
-0.071292818 -0.41784471 1.0739779
-0.19983511 -0.2030651 1.024969
-0.1789431 -0.2760132 0.76059961
-0.2403049 -0.41576549 0.88324147
-0.095731936 -0.48292989 1.1073329
-0.078456968 -0.4901236 1.103261
-0.25048029 -0.53538078 1.050647
-0.2216372 -0.4942241 1.1070451
-0.099383377 -0.5594995 1.128507
-0.1791234 -0.55542839 1.1335469
-0.03532207 -0.49515611 1.096994
-0.1721572 -0.46227831 1.102608
-0.01038447 -0.55823249 1.124625
-0.2212522 -0.35162279 0.68342221
-0.2015928 -0.33766699 0.96560222
-0.2002275 -0.28844041 1.038946
-0.1873586 -0.35490999 0.9662993
-0.21208081 -0.36090639 0.99499881
-0.24395759 -0.44354349 0.96654469
-0.13907 -0.21761291 1.07047
-0.4328194 -0.55812228 0.80462652
-0.2513251 -0.4145574 0.73810762
-0.245286 -0.53759289 1.004087
-0.27726221 -0.56008101 0.87482399
-0.1031682 -0.2008896 0.73469162
-0.40024751 -0.55365992 0.76847368
-0.2063871 -0.2087055 0.84109467
-0.26152179 -0.559605 1.073041
-0.20666841 -0.2060259 0.84188592
-0.20742659 -0.22159749 0.89814079
-0.13442039 -0.1921939 0.81606311
-0.1492361 -0.1915286 0.88456178
-0.1941877 -0.2092654 0.99290228
-0.1997619 -0.2237584 0.97803068
-0.1408944 -0.19802821 0.88832319
-0.1974915 -0.1919578 0.87496221
-0.197017 -0.23317529 1.055444
-0.21965951 -0.35946739 1.065837
-0.16807561 -0.2373676 1.067475
-0.2320793 -0.4275586 1.041551
-0.20089421 -0.36282659 0.95292288
-0.1987993 -0.22497509 0.92126822
-0.30579409 -0.55780667 1.209173
-0.1262534 -0.53987241 1.1085269
0.01279157 -0.53703058 1.0990649
-0.1900465 -0.34115031 1.076604
-0.15336309 -0.1957549 0.72897267
-0.22162519 -0.36798969 0.85304189
-0.2010249 -0.3332462 1.071076
-0.2364161 -0.42343611 1.00542
-0.24476489 -0.4869037 1.003435
-0.20049819 -0.220953 1.014405
-0.24065191 -0.45228249 0.96230072
-0.17997 -0.49259499 1.109921
-0.25311491 -0.55565792 0.89437312
0.1691549 -0.2003572 0.7944088
-0.25075209 -0.53287488 0.97824287
-0.14812779 -0.3511211 0.870058
-0.2049204 -0.36051211 1.036873
-0.02032936 -0.1918149 0.86708409
-0.1935904 -0.2083585 1.018906
-0.1812734 -0.21595851 1.053754
-0.032327 -0.1986762 0.73824978
-0.030399321 -0.2103547 1.05677
-0.1961184 -0.2173748 1.049969
-0.079073131 -0.2156892 1.052949
-0.1000735 -0.44288951 1.102115
-0.21108469 -0.20600609 0.84637469
-0.1971242 -0.2188006 1.001386
0.023210989 -0.18998539 0.76780438
-0.1159253 -0.1869337 0.86186022
-0.1421622 -0.190218 0.87987769
-0.1248738 -0.1874997 0.94477153
-0.01421884 -0.1885546 0.83762509
-0.1193809 -0.19590791 0.68834043
-0.07027033 -0.1921958 0.79433322
-0.094045192 -0.1966061 0.81723279
-0.0050391261 -0.20288721 0.73460579
0.03202416 -0.19154941 0.96883738
-0.03768922 -0.19779409 0.86602658
0.070210703 -0.19595499 0.82871789
-0.1388561 -0.1964837 0.98111278
-0.08618176 -0.1925984 0.91043419
-0.007863462 -0.20297059 0.88329738
-0.1204553 -0.195123 0.86262578
-0.061347481 -0.19559421 0.84560871
-0.086544298 -0.1898388 0.90512478
-0.00082023442 -0.19266561 0.8585726
-0.1139971 -0.19701961 0.74361968
0.080510497 -0.20110209 0.87719017
-0.05343825 -0.53776371 1.11349
0.016536411 -0.54370171 1.107688
-0.1783396 -0.1946326 0.8817504
-0.1298341 -0.1926989 1.00669
-0.1986028 -0.46019259 1.1045949
-0.1686614 -0.19645619 0.88267571
-0.16873869 -0.34630761 1.079541
0.0025592151 -0.3998253 1.084734
-0.1202501 -0.19615529 0.95221943
0.1103688 -0.47812951 1.089553
0.048630182 -0.42411911 1.086543
-0.1012745 -0.44594449 1.099738
-0.057211619 -0.1921497 0.84467107
-0.056783929 -0.3592681 1.038254
-0.1976784 -0.40713111 1.099512
-0.016864579 -0.44699201 1.092189
-0.1494682 -0.2056962 1.062284
-0.07214386 -0.53804308 1.110058
-0.151683 -0.39214769 1.0931571
-0.1004561 -0.3867566 1.091347
0.075916037 -0.1989658 0.78460681
0.1411348 -0.20063721 0.69415259
-0.071560107 -0.1952934 0.77761543
-0.067312963 -0.35555059 1.0297461
-0.01922876 -0.4517211 1.091908
-0.1556932 -0.45752791 1.099885
-0.056236789 -0.4714337 1.0960881
-0.087193772 -0.39341861 1.088256
-0.18774471 -0.1926693 0.93743569
-0.01471435 -0.40343329 1.086134
-0.043457799 -0.1994537 0.75803763
-0.1321758 -0.48882651 1.106402
0.044396471 -0.1923794 0.80911273
-0.079555601 -0.49472031 1.10175
0.1214606 -0.4867951 1.095354
0.041356102 -0.19412901 0.82116842
-0.064505517 -0.1992126 0.67795151
-0.12796579 -0.21521071 1.060541
0.1341767 -0.52176517 1.094903
-0.1953174 -0.4571394 1.102537
-0.1468482 -0.51669753 1.1142451
-0.064869568 -0.19429199 0.70043111
-0.12324 -0.2014215 0.95858687
0.104895 -0.1983905 0.83849472
0.092236638 -0.1940196 0.86760622
0.033303078 -0.1985162 0.81890208
-0.1207968 -0.3624455 1.057044
0.0024242101 -0.1978928 0.70251358
-0.161149 -0.19589511 1.016672
-0.020134309 -0.19362 0.86375928
-0.0080980137 -0.3600392 1.001974
-0.1042736 -0.38379651 1.0897239
-0.064237587 -0.3603203 1.027971
-0.1500968 -0.30788839 1.061287
-0.095034458 -0.49054831 1.103217
-0.0044527049 -0.1947419 0.83993638
-0.03222831 -0.1966105 0.84539747
0.1208384 -0.19491629 0.82265222
0.045299619 -0.1940129 0.82609779
0.04598498 -0.4891333 1.092811
0.092152923 -0.1935647 0.77024418
-0.1339398 -0.1989134 0.74155152
-0.1430604 -0.1975875 0.71472073
-0.16432621 -0.19648179 0.87659973
-0.1192396 -0.194169 0.77405792
0.078626223 -0.1955411 0.86450338
-0.1666825 -0.3496677 1.077551
0.017614361 -0.41391981 1.0908689
-0.1345263 -0.1971928 1.029134
0.1764507 -0.1927724 0.91135049
0.095351651 -0.4839752 1.092674
0.1749042 -0.1985462 0.85380888
-0.1906717 -0.39614469 1.096609
-0.1113352 -0.49338019 1.109355
-0.063031197 -0.19561189 0.92903161
-0.20662349 -0.44711429 1.101774
0.078455657 -0.49079329 1.094961
-0.15094291 -0.198687 0.74811012
-0.1813141 -0.1950561 0.82954752
-0.1105957 -0.191734 0.73347688
-0.1749638 -0.41202781 1.097278
-0.038936269 -0.48775959 1.095722
-0.1015212 -0.18112861 0.81545782
-0.1102644 -0.2017536 0.92484248
-0.0060297619 -0.2018978 0.7007432
0.1765881 -0.1955273 0.90538329
0.01329911 -0.19460049 0.98990679
0.091229893 -0.1962308 0.90055257
-0.0059668422 -0.51146913 1.089532
0.060311761 -0.41434789 1.0795619
0.018951621 -0.38574949 1.083165
0.0082587004 -0.53617358 1.102422
0.1063617 -0.47509089 1.091516
0.02443796 -0.25958681 1.034418
0.1202758 -0.38689679 1.078248
0.071258202 -0.42430791 1.085795
0.092104703 -0.1859448 0.69907951
-0.1581493 -0.1940932 0.93049687
0.07320188 -0.1956332 0.91707671
-0.12813631 -0.1943192 0.93134552
-0.1704468 -0.24368849 1.065636
0.1681266 -0.19939101 0.70825362
0.07474421 -0.20405909 0.79046768
0.1844487 -0.2026419 0.88336909
-0.17198411 -0.19647171 0.93106878
0.01544765 -0.48273709 1.093863
-0.075510003 -0.35907099 1.039593
0.1836618 -0.1990905 0.9245019
-0.067798547 -0.42979729 1.09352
-0.058850851 -0.54261678 1.113279
-0.050684039 -0.197495 0.93018878
0.01490784 -0.1899807 0.86529827
0.16723891 -0.55914009 1.105274
-0.051856522 -0.19126689 0.91934502
-0.01241281 -0.4933897 1.096231
0.02975498 -0.48002341 1.0948581
-0.1880533 -0.50675452 1.1122299
-0.097658247 -0.1954643 0.9689846
0.053174909 -0.19700649 0.95530373
0.1174547 -0.1958622 0.91466838
-0.072524749 -0.47134241 1.095914
0.1119643 -0.51250923 1.097262
0.029074309 -0.4305881 1.085526
0.097626083 -0.44761771 1.087797
0.044509161 -0.1922418 0.90942192
0.1037619 -0.40551639 1.078208
-0.026081171 -0.23183 1.041988
-0.1706731 -0.1979102 0.73582858
-0.19259641 -0.1854119 0.70170701
-0.099584877 -0.1896041 0.91887188
-0.065335587 -0.1932165 0.83229709
-0.2068423 -0.19893859 0.6913147
-0.1765327 -0.19411001 0.682423
-0.13040221 -0.3634727 1.062014
-0.1149299 -0.35545269 1.031576
-0.14348669 -0.51611471 1.11475
-0.1028851 -0.34928361 1.018088
-0.1197545 -0.28287771 1.031237
0.1025248 -0.1877676 0.94177163
0.13928559 -0.1981764 0.80913931
0.13358781 -0.2055326 0.69000697
0.01359749 -0.19814859 0.95464033
0.02057731 -0.19287419 0.94288832
0.1767776 -0.1937204 0.91555572
0.028906791 -0.1886843 0.9036212
-0.01061112 -0.1974428 0.85978979
0.06582047 -0.1990453 0.69505608
-0.0064808349 -0.20128299 0.97600871
0.01280265 -0.196459 0.88299102
0.15325829 -0.1923627 0.72362608
0.028714029 -0.19612961 0.92023408
0.1319842 -0.35651609 1.040795
-0.04819436 -0.1945101 1.037692
0.048670828 -0.1885366 1.026777
0.078592017 -0.33724731 0.98600668
0.1283049 -0.2751132 1.01738
-0.048215229 -0.2065845 1.05503
-0.034283001 -0.1934803 1.0371
0.16837581 -0.34131861 1.047707
-0.027193779 -0.2229207 1.056196
0.1191207 -0.3023392 1.015643
0.062667377 -0.21399909 1.049279
-0.01078098 -0.189215 1.018358
0.076285481 -0.21762329 1.0484051
0.128189 -0.2169974 1.04689
-0.062766917 -0.1841457 0.77876103
-0.1119361 -0.1936252 0.69505012
0.02148989 -0.1903027 0.69349247
0.076359019 -0.19784909 0.9407655
0.092919894 -0.43385381 1.085824
0.017187649 -0.3556309 1.020546
-0.02299118 -0.19232941 0.9650715
0.03393745 -0.1944809 1.042206
-0.070680052 -0.2269215 1.059365
0.1865031 -0.4818773 1.082369
0.053976271 -0.1961668 0.89288789
-0.1289532 -0.3437815 1.050591
0.092896968 -0.1900211 0.82249987
-0.1726691 -0.24638569 1.0665261
0.164655 -0.3328509 1.055907
-0.049002431 -0.2134472 1.05879
-0.15980069 -0.39918539 1.094332
0.06170195 -0.1968376 1.0259041
-0.070170663 -0.22169299 1.060673
0.1979917 -0.4516286 1.082958
-0.1993248 -0.43690351 1.101643
0.1640265 -0.39500579 1.07622
-0.1386264 -0.39141461 1.089588
-0.097723797 -0.2022129 1.042439
0.099109098 -0.1981193 1.000502
-0.2010141 -0.2029994 0.83946031
0.1234905 -0.30486989 1.026067
0.037888352 -0.35491511 0.98842388
-0.14196789 -0.3618809 1.064738
-0.052640501 -0.1953394 0.88341469
-0.1505537 -0.34004599 1.064146
-0.047068 -0.1923622 0.84780413
-0.1447015 -0.25316489 1.058985
0.1160577 -0.35595921 1.023723
-0.1515155 -0.25465211 1.0627
-0.1268616 -0.1933753 1.03133
0.020305069 -0.46759021 1.0899709
-0.1432891 -0.1912833 1.038769
0.04734474 -0.18906631 1.030355
0.1473697 -0.1944754 0.71191829
-0.029761421 -0.1946336 0.91450518
0.064010978 -0.2024232 0.74890202
0.11956 -0.1903695 0.88365328
0.1489598 -0.2017166 0.84868318
0.080013603 -0.19419231 0.92601281
-0.14577781 -0.1927671 0.9360007
0.05294789 -0.1900077 0.94684678
-0.05166021 -0.2155758 1.0586981
-0.20748749 -0.39255649 1.094582
0.001573339 -0.19165079 0.92961138
0.062247679 -0.19399589 1.043358
0.062339779 -0.1911702 0.78944123
-0.1449547 -0.36002931 1.077316
-0.02722791 -0.1932517 0.92157161
-0.1547924 -0.55975437 1.133321
0.03914379 -0.2048489 0.92308962
0.079095811 -0.3538532 0.99480039
0.1972065 -0.41277269 1.07329
0.05038679 -0.2038582 1.047562
-0.063976161 -0.19457731 0.99554628
-0.1996039 -0.48849189 1.1290621
0.1191995 -0.3627362 1.040663
-0.1327389 -0.19606671 1.037529
0.022928059 -0.39818761 1.085955
0.1206429 -0.1904977 0.80017012
0.15140291 -0.19582491 0.80697417
0.118993 -0.18993969 0.87294328
0.20009831 -0.38918069 1.0711091
0.1895521 -0.19939581 0.90662831
0.1720082 -0.2060317 0.65897048
-0.27111971 -0.55783641 0.89193147
0.1485883 -0.1873807 0.95158827
-0.1102631 -0.1791755 0.80110329
0.063563287 -0.1947902 0.67830038
0.071424037 -0.1902854 0.90102762
0.019419091 -0.19446979 0.72330731
-0.003288463 -0.1949653 0.68101758
0.12564529 -0.1932008 0.82960021
-0.2029866 -0.1987925 0.68801892
0.2079314 -0.32985261 1.026955
0.031334009 -0.18705881 0.68002802
0.071955867 -0.1994288 0.69446838
0.089957729 -0.1935904 0.86595881
0.1681923 -0.34670159 1.042443
0.091194697 -0.191485 0.75640613
-0.057706188 -0.1930701 0.84563398
-0.1968729 -0.1949292 0.66359681
0.13030709 -0.35818759 1.037822
0.1525249 -0.20894749 1.027899
0.175678 -0.1855683 0.89550757
-0.1247045 -0.1963838 0.74944413
0.1306905 -0.20132861 0.9923439
0.025931491 -0.19302709 0.936252
0.073346481 -0.199865 0.87737352
0.1054338 -0.189234 0.85525018
-0.1734139 -0.196666 0.86025
-0.071832947 -0.1906518 0.75952679
-0.18293449 -0.1989186 0.71801299
-0.1413103 -0.19407851 0.68942589
-0.1416769 -0.1902999 0.8726781
-0.035557728 -0.1991245 0.85905492
0.1216112 -0.1905344 0.80562341
0.1825711 -0.1963581 1.010446
0.07198596 -0.19206449 0.78833783
0.223884 -0.46164909 1.057215
0.058435529 -0.4252198 1.069749
-0.01255989 -0.52377748 1.08551
0.05391857 -0.1820484 0.84711027
0.0050707911 -0.53693038 1.086616
0.073347911 -0.18922511 0.77341801
-0.0072966069 -0.1958489 0.71519619
0.093031347 -0.1937525 0.85052568
0.1122885 -0.5080719 1.099872
0.1850407 -0.47891939 1.069435
0.051966678 -0.1849032 0.72314513
0.04382256 -0.1951416 0.80663872
0.1221227 -0.1927211 0.94105291
-0.1751219 -0.2012915 0.65832019
0.05259319 -0.1895102 0.87687671
0.1755961 -0.2727975 1.034258
0.096007846 -0.1852809 0.75343102
-0.01336563 -0.1901741 0.66239083
-0.04978836 -0.19659419 0.82912862
-0.083391003 -0.48808771 1.085531
-0.065329067 -0.35245359 1.016299
-0.04222529 -0.48654521 1.082545
-0.1122177 -0.1920529 0.91127819
-0.035816211 -0.18116561 0.84022778
-0.05945329 -0.36596119 1.0189
0.14477821 -0.1862371 0.69432628
0.063126557 -0.1873727 1.026515
0.0099216551 -0.3610779 1.0010231
-0.065385237 -0.19464619 0.65854359
-0.027692931 -0.3667042 1.00052
0.1738029 -0.1889223 1.002278
0.078480333 -0.1898261 0.86966592
0.042936519 -0.1926081 1.021286
0.1611716 -0.2014973 1.029685
-0.1192997 -0.3547177 1.010854
0.048434619 -0.1872272 1.0228029
-0.1038026 -0.34988621 0.99632788
-0.057468399 -0.1830578 0.83199179
0.053406741 -0.3583377 0.98074847
-0.01086903 -0.35769239 0.9805119
-0.083600879 -0.3664192 1.034819
0.02868587 -0.3580285 0.97902852
-0.118353 -0.1943946 0.7247768
-0.1657382 -0.1826486 0.870978
-0.097614169 -0.1814094 0.80105507
0.23445711 -0.51887679 1.065093
0.088957436 -0.35971379 1.028634
0.1039537 -0.409071 1.0595419
-0.1001417 -0.48353529 1.088696
-0.1528386 -0.52832699 1.094844
0.1076445 -0.482034 1.077888
-0.1578283 -0.45341599 1.0877039
0.1333757 -0.1919744 0.96602827
-0.1957888 -0.1950551 0.85388792
-0.09189041 -0.1917647 0.88886589
-0.066379033 -0.3613694 1.006632
-0.1229076 -0.19713309 0.66450328
0.1059006 -0.1927823 0.88598073
-0.065985903 -0.48920539 1.085368
-0.1232774 -0.18542311 0.93526649
-0.1232443 -0.1936637 0.84543252
-0.029663481 -0.18647739 0.90129268
-0.1006657 -0.36019719 1.013167
-0.12643559 -0.1918653 0.93413073
-0.16235 -0.1944204 0.88062543
0.061606139 -0.35538131 0.98438811
-0.1733482 -0.35245311 1.058484
-0.096414968 -0.19115511 1.004703
-0.094849452 -0.1932783 1.0098571
-0.16725799 -0.1962314 0.99908823
-0.12782399 -0.19093791 0.98509508
-0.052410379 -0.1922023 1.0204639
0.0041872561 -0.1967877 0.86168247
-0.12780561 -0.19480141 0.99186581
0.034005061 -0.1871869 0.88362432
-0.1567169 -0.2070974 1.042541
-0.03384741 -0.19326919 0.83208781
-0.078990072 -0.1876135 0.79585677
-0.026734371 -0.1796584 0.87378311
0.1440406 -0.2098265 1.0301009
0.1647267 -0.2463084 1.030937
0.1099823 -0.48259199 1.07891
-0.053071842 -0.40009519 1.0739551
0.1255769 -0.21850771 1.029741
-0.1623864 -0.45071819 1.086773
0.13304821 -0.1956708 0.67940778
0.091256872 -0.1833587 0.68828112
0.17414621 -0.1850002 0.87848169
-0.0144542 -0.1828638 0.93020022
-0.03190219 -0.39620391 1.052338
-0.0091026723 -0.19689029 0.94595861
0.021628691 -0.19096491 0.9013893
-0.0084005892 -0.1779169 0.81321877
0.032074761 -0.1874582 0.90278101
0.1507332 -0.193322 0.78765309
-0.18517449 -0.1970017 0.92291993
0.037051719 -0.3526637 0.96947551
0.1649594 -0.1981865 0.64715928
-0.17873161 -0.29444319 1.056437
0.045870662 -0.1919326 0.73273629
-0.01110611 -0.18661401 0.8454144
0.072423317 -0.21907841 1.029838
-0.1063661 -0.1915423 1.012329
-0.073308207 -0.196587 1.020995
-0.065758653 -0.186185 0.81717777
0.03403189 -0.1917398 1.0232331
-0.055386841 -0.19610199 0.90868068
-0.21056379 -0.1944183 0.67493439
-0.1596266 -0.41480201 1.0779721
-0.073694572 -0.2231576 1.041219
0.33649671 -0.5602386 0.92519343
0.34247079 -0.56032628 0.90743768
-0.0080811828 -0.1977576 0.97265071
-0.02616268 -0.1917066 0.99216592
-0.13234331 -0.18998779 0.71934968
0.043314312 -0.191128 0.88912618
0.1183758 -0.38660669 1.063724
-0.0083441595 -0.52494532 1.085014
0.1524404 -0.29181179 1.031214
-0.012242 -0.1896991 0.98398
-0.01916128 -0.4412773 1.079327
-0.062397141 -0.54964799 1.0962811
-0.1448456 -0.1935295 1.000761
-0.1198256 -0.193848 0.87789422
0.041156579 -0.1921204 0.8028841
0.099108957 -0.19078501 0.93569118
-0.01090258 -0.35829219 0.98477322
0.1250007 -0.28122211 1.0088871
-0.1253652 -0.28949121 1.010996
-0.037992481 -0.1935451 1.018478
-0.02730331 -0.45779851 1.0750999
0.1563293 -0.1884831 0.95109707
-0.16886979 -0.43144941 1.081628
0.1587974 -0.222763 1.0307831
-0.061170649 -0.47559261 1.079046
0.021605911 -0.5500921 1.088145
0.061269488 -0.49099299 1.078271
0.01342119 -0.49504349 1.078766
0.0071447338 -0.4162102 1.069543
-0.18682329 -0.43386731 1.081041
0.036490191 -0.46397161 1.0756561
0.077345453 -0.34306541 0.96542412
0.1229485 -0.3081111 1.008353
0.2844294 -0.55665582 0.84557098
-0.1101233 -0.42040491 1.081925
-0.2034377 -0.34857699 1.058745
0.01147959 -0.2005014 0.71029317
0.026776159 -0.1856726 0.73779923
-0.002684817 -0.1924725 0.82033253
-0.15704779 -0.2108928 0.67619097
-0.145098 -0.19537251 0.87991112
0.062678456 -0.1813594 0.82034773
-0.17785621 -0.1780276 0.87013268
-0.1100207 -0.18334641 0.91787559
0.020427439 -0.1964751 0.83988953
-0.017109919 -0.1880125 0.98993629
0.0068728691 -0.17871851 0.96752107
-0.1063385 -0.44296399 1.086645
0.080153741 -0.3570917 1.0292929
-0.050721269 -0.42684951 1.0824651
-0.1020644 -0.19542789 0.77544248
0.046509579 -0.1720472 0.7651211
-0.1083203 -0.37997749 1.0748529
-0.20422859 -0.1988568 0.84674633
0.2155766 -0.36069909 1.0409
0.031182891 -0.1861853 0.80976647
0.087692373 -0.19115131 0.88395858
0.1043169 -0.19399621 0.87051189
0.1610107 -0.26135361 1.036891
-0.1346408 -0.187058 0.78126937
-0.1205407 -0.19477481 0.66146141
0.094611958 -0.4843159 1.079038
-0.12521739 -0.1941025 0.77486533
-0.2014095 -0.1943526 0.80422121
-0.077994391 -0.54355448 1.09255
-0.0097334236 -0.35666841 1.009064
0.1269528 -0.2102114 1.034621
-0.04436712 -0.19486579 1.0286469
-0.2121136 -0.1866198 0.81723952
-0.066457704 -0.18727569 0.91275787
-0.081804797 -0.35722861 1.0251991
-0.2067479 -0.40009901 1.074785
0.067671873 -0.1868515 1.025721
-0.1576333 -0.1952372 0.99640357
-0.204097 -0.19514319 0.82596868
0.035511479 -0.49249649 1.088434
0.02111079 -0.46904129 1.073697
0.01046099 -0.196779 0.93720669
-0.1426874 -0.2040583 0.71274418
0.0091431588 -0.3902843 1.068882
-0.093617663 -0.1953833 1.015412
-0.051982339 -0.2034454 1.038131
0.044692811 -0.36452881 0.97584701
0.1359729 -0.49083099 1.093446
0.060331881 -0.1953378 1.045169
0.2243132 -0.4476662 1.05682
0.2293096 -0.52030623 1.043036
0.2116286 -0.38123369 1.0479259
0.2013157 -0.3499538 1.044443
0.26209551 -0.53734839 1.012329
0.29474291 -0.55397803 1.118009
-0.12991241 -0.19103131 0.96726179
-0.080139503 -0.37597859 1.028412
-0.089639172 -0.1909906 0.91346532
-0.1071941 -0.1964536 0.74180228
0.1769142 -0.2378539 1.022333
-0.1278099 -0.1962195 0.94692099
-0.08417356 -0.1954862 1.0078419
0.16959921 -0.55994922 1.090253
0.066719189 -0.51040602 1.079787
-0.075380906 -0.23751789 1.031973
-0.05304138 -0.2038305 1.04812
0.02877916 -0.094924092 1.083005
-0.1048483 -0.1858547 1.033138
0.1909091 -0.31309491 1.0992661
-0.088910893 -0.2007506 1.028698
0.004114226 -0.47256139 1.0727659
-0.2086097 -0.31057009 0.50073528
0.04233107 -0.3086639 0.99210292
0.1953811 -0.37252691 1.046804
0.14356969 -0.18724281 0.81860191
-0.15826181 -0.2016729 0.65607709
-0.184322 -0.2316328 0.66083348
-0.21784841 -0.22547419 0.66860503
-0.1520559 -0.3000257 0.67343861
-0.2182201 -0.2502453 0.66217899
-0.1481137 -0.2460753 0.67344522
0.075859547 -0.20031939 0.63786262
0.1529168 -0.49531499 0.59596181
0.070667818 -0.4738692 0.60203612
0.1006885 -0.51340753 0.6032548
0.080419831 -0.28853321 0.68393159
0.054825451 -0.494573 0.61055613
0.1435865 -0.1904619 0.63886541
0.1633299 -0.39219609 0.60553068
-0.2104696 -0.4809562 0.61058629
-0.2197635 -0.42102751 0.62920308
-0.1799974 -0.38437349 0.6328398
-0.18061911 -0.38611159 0.6309182
0.03232358 -0.3253386 0.73395389
-0.1313971 -0.4665364 0.60327083
-0.27066839 -0.52171367 0.63503021
-0.0246017 -0.33975339 0.75811923
0.036644589 -0.50455731 0.59299558
-0.13180961 -0.54237729 0.60817552
-0.1032232 -0.48266691 0.60900861
-0.24018431 -0.4036901 0.64036918
0.1749652 -0.4567382 0.60047889
0.18112791 -0.34569019 0.6202668
-0.2247896 -0.42244291 0.61850637
-0.14457311 -0.37553889 0.62591338
-0.081598103 -0.34658039 0.73411483
-0.05297881 -0.34572119 0.70805973
0.06087314 -0.3063744 0.69675678
-0.061079841 -0.36628971 0.62289268
-0.21956021 -0.42599821 0.62821698
0.01405596 -0.47875479 0.59765178
-0.087647744 -0.37727341 0.62343031
-0.04060078 -0.36425519 0.61943418
-0.15860941 -0.2971957 0.66579431
-0.1552683 -0.20141231 0.65360987
-0.1085178 -0.2985864 0.71147418
-0.08547315 -0.301139 0.71511388
0.021008089 -0.51309627 0.59932661
0.1376296 -0.24825861 0.63128388
0.1934828 -0.44970831 0.59187287
0.079976663 -0.2017633 0.63940722
-0.1133369 -0.2141149 0.65008563
0.0253866 -0.51448667 0.59908593
-0.030413309 -0.39501309 0.61663783
-0.19477481 -0.44600549 0.61564893
0.15925901 -0.4375163 0.59612751
0.1352687 -0.40161791 0.60256338
0.1594613 -0.48211709 0.59511513
0.13738871 -0.201738 0.63597703
0.105955 -0.2409538 0.64870143
0.049044471 -0.31445771 0.72671121
-0.1015893 -0.46588299 0.61480522
0.1294657 -0.49952549 0.60462677
0.079784177 -0.42431891 0.59986621
0.077851921 -0.42999411 0.60230768
0.12936769 -0.51020551 0.57889879
-0.094590619 -0.46957189 0.60848171
0.1152933 -0.1899094 0.80848777
-0.058620751 -0.3952283 0.61874199
0.125966 -0.3878969 0.60657948
-0.03262125 -0.2011728 0.64566588
-0.215636 -0.376183 0.63112181
0.1464849 -0.48451039 0.59174621
0.1343035 -0.4507823 0.59903818
0.2190903 -0.4753789 0.64002383
-0.2018456 -0.33413211 0.64045691
-0.23578981 -0.417813 0.62330329
0.063674167 -0.28685099 0.70134062
-0.066229187 -0.29295579 0.72403002
-0.1269009 -0.52125901 0.59570819
0.07053414 -0.2711522 0.69007373
-0.1221411 -0.47735101 0.61317319
-0.034909349 -0.4796499 0.61131209
0.1391948 -0.49629721 0.58493018
-0.2353576 -0.37013981 0.63467813
0.16037381 -0.50110132 0.58289021
-0.049909558 -0.48476341 0.60670477
-0.1160308 -0.51845551 0.59573668
-0.18054441 -0.51790941 0.59969717
-0.1275624 -0.3900204 0.62457389
-0.093815356 -0.55498677 0.58543932
0.1593951 -0.35805139 0.60793191
-0.1008928 -0.43259871 0.61687708
-0.017232191 -0.203678 0.64513868
-0.084002823 -0.30884349 0.71456522
-0.0054142922 -0.26215309 0.69819939
-0.00025961551 -0.3387028 0.75527167
-0.1148118 -0.48515731 0.62377542
-0.1441662 -0.49700671 0.60375279
0.17183989 -0.3836045 0.60706222
-0.23399331 -0.39301211 0.63521379
0.069285437 -0.5479508 0.57818002
0.118577 -0.2195427 0.64962059
-0.034112841 -0.48004591 0.61166787
-0.048351102 -0.4831799 0.60523438
-0.1022274 -0.48132789 0.60855472
-0.1021086 -0.4674328 0.61595738
0.1100302 -0.52346158 0.58898753
-0.033804689 -0.48036379 0.6118418
0.063684523 -0.36980981 0.61367142
0.081276648 -0.36907741 0.61062771
0.1383086 -0.27643821 0.63126522
0.1740488 -0.28286299 0.63887542
0.16633511 -0.23992591 0.63375562
0.1734367 -0.30461839 0.62089688
0.15806261 -0.34117779 0.61838478
0.14129549 -0.27507019 0.64122039
0.1378344 -0.2466346 0.62993652
0.1055896 -0.34261951 0.65444988
0.15887471 -0.34123999 0.62170219
0.1065729 -0.3463994 0.65298188
0.083603233 -0.35616359 0.6312871
0.07731548 -0.35193539 0.66615558
0.1310095 -0.27301911 0.62618321
0.12726121 -0.27433121 0.63255173
-0.044325951 -0.36518511 0.61727548
-0.06100313 -0.36192319 0.6150009
0.058344711 -0.36768681 0.61770028
-0.1389679 -0.33101919 0.68777251
-0.17190591 -0.37566859 0.6172443
-0.030872229 -0.36162201 0.6349833
-0.074605256 -0.36061719 0.6333285
0.048698381 -0.31439999 0.72534561
-0.05506666 -0.32762811 0.75957543
-0.02302338 -0.35265741 0.64381433
-0.01269221 -0.33185041 0.76479089
-0.095933653 -0.30536079 0.71520448
-0.051268261 -0.33199719 0.76137072
-0.077867746 -0.35415161 0.70029449
0.01453029 -0.35484931 0.65317482
-0.1047187 -0.3006942 0.71549243
-0.124357 -0.35685301 0.6579923
0.1028121 -0.33697501 0.65168083
0.109395 -0.36255679 0.62261802
0.1614787 -0.3597897 0.60910892
0.107103 -0.2420297 0.64032322
-0.086729378 -0.3137497 0.72708941
0.098137811 -0.36006349 0.61073512
-0.1100257 -0.29901379 0.70436299
-0.02956775 -0.34019321 0.75630659
-0.075001597 -0.30861431 0.72915792
-0.024104429 -0.341925 0.7615155
0.15992659 -0.35979041 0.60904282
0.12990899 -0.39233229 0.59738809
0.08398965 -0.29264101 0.69028252
0.060986541 -0.30983099 0.70300752
0.14688291 -0.2777243 0.62646341
0.078429341 -0.29321751 0.69402772
-0.01065783 -0.28283519 0.74885368
0.051098261 -0.29907879 0.71119177
0.1383681 -0.40211669 0.60551733
-0.051353429 -0.28398001 0.75557572
0.1392362 -0.39181691 0.60543913
0.038712531 -0.31331399 0.72528821
0.1483687 -0.39339769 0.60136789
0.06808044 -0.27918401 0.69943279
0.061697152 -0.31346059 0.69386071
0.0042038672 -0.34153581 0.75508958
0.081100807 -0.37806839 0.60705781
0.1664876 -0.2863425 0.62648422
0.067584068 -0.27437341 0.71056062
-0.001888268 -0.34129611 0.76256979
0.1922819 -0.37222651 0.61982763
-0.1380349 -0.3157917 0.70406508
0.045875601 -0.32373619 0.71850091
0.15932921 -0.3920646 0.59822118
0.1619591 -0.38918549 0.60189092
0.048510741 -0.4174403 0.60049999
0.1360646 -0.40414721 0.6052112
-0.079397343 -0.3440505 0.72540611
-0.091738664 -0.35178199 0.6852476
0.19906279 -0.45711851 0.61837792
0.111235 -0.55925989 0.57495809
0.0341211 -0.45887041 0.61117041
0.0046938658 -0.45911449 0.61371791
0.058342431 -0.53412932 0.58828813
0.069650628 -0.53256822 0.59659362
0.19138201 -0.45030251 0.6052506
0.1965934 -0.46320459 0.60751587
-0.2176279 -0.1941305 0.720873
-0.21703321 -0.1930775 0.7204982
-0.17795309 -0.31876811 0.97378492
-0.03053784 -0.18508799 0.85872251
0.080169983 -0.1870774 0.87447089
-0.02997655 -0.184304 0.84278321
-0.2379912 -0.35253289 0.70137918
-0.1854448 -0.35058981 0.85708678
-0.18497761 -0.35298619 0.83401263
-0.005718946 -0.18633489 0.83903009
-0.27727801 -0.54700518 0.60969359
-0.26070991 -0.45278099 0.67922258
-0.26714239 -0.51916611 0.73734093
-0.26457939 -0.52586728 0.67567497
-0.26468161 -0.52233982 0.75810277
0.017633559 -0.1847247 1.0085419
-0.2061936 -0.1895763 0.90999901
-0.24837521 -0.4214662 0.68015653
-0.2526359 -0.4861885 0.78930819
-0.2461102 -0.51093179 0.86232603
-0.2092666 -0.2135355 0.76973373
-0.2117293 -0.35794091 0.84359747
-0.2024336 -0.35676181 0.82268733
-0.2068325 -0.3468807 0.85050279
-0.25239751 -0.4400759 0.74685448
-0.25958869 -0.52803129 0.87445629
-0.2567029 -0.54211622 0.86625969
-0.27146041 -0.53214151 0.68076462
-0.25657931 -0.39526501 0.74114668
-0.19585399 -0.3539879 0.93689078
-0.1730547 -0.32005161 0.97094619
-0.193932 -0.204648 0.92972362
-0.1908758 -0.1894723 0.8641758
0.0918051 -0.1788363 0.87750208
-0.25185671 -0.50108522 0.95838541
-0.24775159 -0.51087081 0.9720372
-0.05187637 -0.1878825 0.82976902
-0.1010897 -0.18877199 0.80366957
-0.21075439 -0.36461189 0.97597098
-0.25325611 -0.52743977 0.85986668
-0.2605156 -0.53432858 0.85403007
-0.26194981 -0.51580352 0.72681838
-0.167325 -0.26838639 0.95141768
-0.24552161 -0.46197689 0.91426659
-0.2419502 -0.43608221 0.9393909
-0.23281799 -0.46394619 1.0403121
-0.2159318 -0.3630833 0.84484768
-0.2401659 -0.40917599 0.87030959
-0.23869359 -0.44398239 0.94177008
-0.2086627 -0.21256229 0.8422817
-0.2397196 -0.37127221 0.83645159
-0.2494058 -0.47141999 0.81314111
-0.2028442 -0.201722 0.83267939
-0.2558282 -0.4616726 0.6874404
-0.2269884 -0.4040921 1.030074
-0.26176909 -0.4717263 0.6991781
0.1638355 -0.19018529 1.011793
-0.2384087 -0.3742142 0.92774832
-0.1438656 -0.35350329 0.85542369
-0.02488211 -0.19130801 0.87455517
-0.1853836 -0.35163391 0.96812117
-0.22539949 -0.38422349 1.0381
0.1061176 -0.1864838 0.92056018
-0.1995919 -0.3533386 0.74073362
-0.20062061 -0.2205188 0.85572541
0.17073201 -0.18546531 0.97876692
0.038017511 -0.1929792 0.95246392
-0.2497704 -0.53525323 0.87477303
-0.24078549 -0.40236911 0.86557728
-0.2374147 -0.4820376 0.922001
-0.26539201 -0.54913199 0.69130111
-0.2561563 -0.38671899 0.71579248
-0.2480163 -0.38686219 0.71881211
-0.2346658 -0.54063177 1.096624
-0.34497461 -0.55598879 0.65442151
0.12636819 -0.19073389 0.99221963
-0.29984969 -0.52845412 0.68114352
-0.3868463 -0.52481312 0.59101331
-0.17664661 -0.1868705 0.86851537
-0.2460072 -0.4542146 0.84668207
-0.33383039 -0.54357809 0.57395458
-0.2404657 -0.49205509 0.91103983
-0.2379314 -0.45275709 0.88927913
-0.34980991 -0.54128981 0.64782202
-0.2020324 -0.31062281 0.99223882
-0.20747571 -0.1930287 0.86201417
0.01826423 -0.18687931 0.87579501
-0.2498198 -0.393199 0.74769008
-0.2299605 -0.36241001 0.97736567
-0.1844826 -0.2371577 0.91426528
-0.4138442 -0.55878192 0.67234421
-0.2393495 -0.48153391 0.99396729
-0.23894431 -0.39444211 0.75207943
0.087116122 -0.1892484 0.9502809
-0.2085063 -0.29672089 0.97409111
-0.28178391 -0.4950144 0.98586261
-0.25338891 -0.52706039 0.97236431
-0.1564111 -0.55521482 0.51935941
-0.20624091 -0.35379049 0.82424408
-0.2087781 -0.35030171 0.84721398
-0.19478349 -0.35717949 0.94958109
-0.2488444 -0.50763857 0.8537842
-0.2159939 -0.35628691 1.005095
-0.25869909 -0.52658081 0.76056021
-0.2389988 -0.44202769 0.94369602
-0.2677649 -0.53504038 0.75011402
-0.1989506 -0.20387229 0.9689641
-0.2709637 -0.53723961 0.67621529
-0.23014291 -0.3965134 0.63090068
-0.2398691 -0.4769859 0.61624759
-0.076212578 -0.35003799 0.69120139
-0.13253731 -0.47816131 0.60927367
-0.23932891 -0.40993679 0.86821222
0.1861399 -0.1999391 1.026843
0.019683421 -0.18853649 0.94269979
-0.17342339 -0.23607931 0.64863253
-0.2149971 -0.35206991 0.83278698
-0.066966496 -0.1859643 1.014805
-0.126289 -0.1935489 0.92818242
-0.115168 -0.18990649 0.7599076
-0.1858622 -0.1923452 0.67546028
0.0036161239 -0.1742596 0.98597997
0.07304205 -0.53971118 0.5908168
-0.14947189 -0.2067052 0.65131289
-0.2078793 -0.4871197 0.61601537
0.051679909 -0.53293508 0.58582878
-0.1209188 -0.19270609 0.99035943
-0.13847791 -0.1845236 0.87129742
-0.086785257 -0.1869549 1.009889
-0.1901461 -0.21127561 0.65739828
-0.211493 -0.36528721 0.95994377
-0.0038469729 -0.45467749 0.60347772
-0.26972169 -0.54924458 0.84440601
-0.2250949 -0.31898019 0.64717358
-0.17520221 -0.28406161 0.65137208
0.026609929 -0.51819438 0.59786958
0.031244811 -0.46032101 0.60300559
-0.28166881 -0.54007077 0.66969061
-0.0039094691 -0.1866513 0.94765198
-0.1627661 -0.2283538 0.65004808
-0.2777065 -0.54032052 0.77075517
0.1262861 -0.1902041 0.98206139
-0.2760821 -0.5422681 0.77003318
-0.1670019 -0.45796701 0.6146307
-0.1906599 -0.30055761 0.64521009
-0.046671782 -0.20473699 0.64446998
-0.0100503 -0.18973181 0.98940557
0.040920231 -0.19947881 0.91080427
-0.2005191 -0.35514349 0.98394191
-0.25980449 -0.53880262 0.85869682
-0.1785029 -0.49002099 0.60286331
-0.2292618 -0.46351829 0.62115651
0.0001992881 -0.4945198 0.60567051
-0.25273949 -0.4578577 0.69217438
-0.043992311 -0.1924981 0.91662979
-0.26265541 -0.55946177 1.011377
-0.1101232 -0.1899751 0.73162419
0.1098182 -0.19238541 0.945755
0.1079361 -0.190897 0.94179958
0.1203379 -0.1890987 0.98550671
0.1634804 -0.1920864 0.94997883
0.082944959 -0.188636 0.86833823
0.1119449 -0.1935492 0.87138933
0.03987414 -0.1894121 0.77480859
0.041239619 -0.18942571 0.79793513
0.097873658 -0.1910776 0.8707329
-0.092211768 -0.1873356 0.80081952
-0.062501669 -0.1942534 0.78249478
-0.02313474 -0.18658561 0.8640548
-0.037549261 -0.18543459 0.851107
-0.1094257 -0.1853852 0.78510958
0.005219847 -0.19177639 0.84417212
-0.05194765 -0.37190691 0.61690247
-0.1068445 -0.35290489 0.68521458
0.067420103 -0.54649287 0.586658
-0.1555423 -0.18823759 1.002915
-0.1291941 -0.19828179 0.99518979
-0.1284281 -0.1922328 0.90989941
-0.081580341 -0.1915234 0.77595198
-0.060441758 -0.1904152 0.81985772
0.049389839 -0.1911121 0.79560453
0.034384038 -0.18837669 0.80325162
-0.0057969689 -0.1895342 0.84525383
-0.01393855 -0.4692654 0.60978222
-0.01403713 -0.19252449 0.86160642
-0.01720622 -0.18928909 0.94760883
-0.044586059 -0.18589041 0.76990682
-0.023172591 -0.190192 0.96444011
0.056437999 -0.1895882 1.0275379
0.083694488 -0.33119419 0.67917031
0.01249978 -0.1931285 0.92254198
0.0087511837 -0.5102638 0.60938048
-0.026416089 -0.1898416 1.024423
-0.04131427 -0.47834751 0.61388689
-0.057114121 -0.49466941 0.60376799
-0.1239825 -0.19154251 0.75637257
-0.05716965 -0.1905593 0.9851414
0.0091642141 -0.1913213 0.91526258
0.1478225 -0.54858088 0.56455022
-0.059708569 -0.1931999 0.79329509
-0.052048441 -0.1919015 0.66309762
-0.102846 -0.19726451 0.72441947
0.065006293 -0.1895674 0.83906251
-0.041162699 -0.4928019 0.60318649
0.101767 -0.45664361 0.59565908
-0.053731501 -0.1913632 0.6793412
-0.057406399 -0.1845073 0.81915331
-0.1197549 -0.47971389 0.60610002
-0.234736 -0.42263639 0.62530029
-0.2288418 -0.4495464 0.61532068
-0.17029759 -0.20612819 0.73959267
-0.069770992 -0.2035574 0.76688129
-0.1153017 -0.2143115 0.64569938
-0.19819801 -0.19231831 0.67628241
-0.096473686 -0.29514691 0.69212449
-0.1203494 -0.47228301 0.60533679
0.1581559 -0.33200869 0.62311238
0.036564589 -0.353843 0.67491013
0.03219771 -0.45178741 0.59589702
-0.087534793 -0.1909889 0.73047549
-0.1215847 -0.47369021 0.60559243
-0.70072448 0.4091436 1.38844
0.1280506 -0.19334321 0.96710789
0.1711183 -0.23379301 0.62283683
0.1433865 -0.1578999 0.78791362
0.1857861 -0.1981615 0.83373147
0.1804031 -0.3484529 0.68705457
0.2126909 -0.38570571 0.83368063
0.17796861 -0.353567 0.89756757
0.13734131 -0.18792561 0.81780112
0.2366223 -0.38765341 0.95792872
0.1228046 -0.18190441 0.96291018
0.19775251 -0.2000308 0.92654967
0.1489825 -0.19770721 0.78505832
0.16013031 -0.17884471 0.68732709
0.2244326 -0.44189581 1.014181
0.1754403 -0.19943941 0.68169188
0.1614273 -0.33362269 0.60466349
0.1759278 -0.20167349 0.76943737
0.2323171 -0.3453691 0.71795613
0.1874737 -0.1992003 0.95041698
0.1343109 -0.34123591 0.85566682
0.17743181 -0.2308006 0.8686831
0.1021974 -0.18052921 0.92531133
0.22426429 -0.50153989 0.82891428
0.15914211 -0.3554112 0.5989024
0.1949338 -0.35107699 0.80421209
0.1754071 -0.222647 0.79130858
0.21589421 -0.46685949 0.66865617
0.2222911 -0.380546 0.99215078
0.1874817 -0.36792341 0.77676898
0.17245521 -0.1900484 0.92898381
0.2154115 -0.41998121 0.78091007
0.1428804 -0.3586109 0.86843199
0.20884641 -0.4188869 0.74351251
0.1512998 -0.3402794 0.7647742
0.2118158 -0.36822841 0.73134673
0.17314731 -0.30596519 0.63248819
0.2123926 -0.3919948 0.65713757
0.17194469 -0.18814769 0.89100742
0.095381677 -0.19940799 0.90349448
0.096183538 -0.18400151 0.82010102
-0.068543732 -0.18240079 0.82830912
-0.1863744 -0.18057489 0.66486537
-0.1614262 -0.1869842 0.70802838
0.082652271 -0.36038181 0.59761482
-0.021916211 -0.1877249 0.69669962
-0.2044479 -0.33376589 0.63420749
0.079277523 -0.19438501 0.62729752
0.1242419 -0.1840619 0.6746543
-0.0067105289 -0.1785084 0.96718359
-0.090999663 -0.1844026 0.77682948
-0.1163236 -0.35185301 0.64628202
0.072832353 -0.5222193 0.58053142
-0.064968593 -0.1885519 0.74858069
-0.04501522 -0.35843089 0.64901119
-0.017795149 -0.18231501 0.84005249
-0.01317883 -0.19200809 0.66034323
0.01458782 -0.2281758 0.97378868
-0.0032069089 -0.1874288 0.81848431
-0.1367037 -0.19726861 0.98062313
-0.044069529 -0.21413 0.65208107
-0.0092808604 -0.18821409 0.68803781
-0.1428044 -0.18866681 0.63482881
0.02650106 -0.17636751 0.9225418
-0.033839881 -0.36107159 0.64875132
0.09975177 -0.37883881 0.62474889
-0.01895285 -0.3453978 0.7253294
-0.097480357 -0.32267189 0.62361932
-0.12935141 -0.20177171 0.68101293
-0.1312831 -0.21059491 0.83367562
-0.004555881 -0.34301409 0.68113118
-0.080118947 -0.3510254 0.68947238
-0.02767265 -0.1748668 0.81684691
0.153313 -0.1810983 0.72123778
-0.002602041 -0.2296894 0.70042002
-0.01314861 -0.1553466 0.75497198
-0.091450751 -0.28470901 0.69475472
-0.16237891 -0.1690859 0.77265149
0.15286189 -0.27854919 0.61419177
-0.076823831 -0.37620881 0.71064699
0.17535619 -0.34589559 0.70604539
0.01775277 -0.35032359 0.63680029
0.2172107 -0.3872796 0.89729112
0.17798731 -0.1998564 0.74145859
0.108092 -0.20440909 0.81536049
0.01251245 -0.1607386 0.78824019
-0.0068691969 -0.32623079 0.7039457
0.19348571 -0.3576183 0.67240077
0.22310171 -0.48435959 0.75712079
0.067643881 -0.1833517 0.80524677
0.2198855 -0.4949145 0.7613045
0.19009329 -0.31335869 0.69464689
0.1468976 -0.1792324 0.68205887
-0.087473631 -0.1964363 0.80785477
0.1512703 -0.35403109 0.90192533
0.2214971 -0.4540287 0.78762561
0.1550747 -0.34505481 0.89791441
0.036262572 -0.3194252 0.65913159
0.1182384 -0.18712939 0.94241202
0.044084311 -0.1974221 0.72894537
0.2206976 -0.45242691 0.78859907
-0.2066969 -0.40588179 0.60399717
0.1788262 -0.18245929 0.853872
0.02532172 -0.36815679 0.71905082
-0.1120423 -0.1828222 0.83715671
0.083818018 -0.33215341 0.64563102
0.2029516 -0.46679169 0.62974328
0.19057269 -0.47393891 0.6026594
0.22932459 -0.45604011 0.91121483
0.1546625 -0.25303271 0.62035167
0.15017539 -0.17598251 0.6294921
0.18589561 -0.19950581 0.85733259
0.2312611 -0.50940281 0.82766062
0.2109469 -0.4976297 0.62328839
0.23926289 -0.52031732 0.89025652
0.22033539 -0.4366903 0.84065253
0.1762003 -0.29691491 0.94633663
0.1595833 -0.285741 0.93718988
0.20884649 -0.396265 0.84518081
0.2117736 -0.50031358 0.63092798
0.2316263 -0.55295157 0.59688669
0.2164641 -0.3736735 0.81739438
0.21609519 -0.3722434 0.91508228
0.2245412 -0.46429241 0.83525348
0.2141875 -0.4150801 0.75714523
0.2163721 -0.4219268 0.79332429
0.21772879 -0.42330819 0.77101398
0.2184851 -0.47877759 0.82014531
0.2284757 -0.4992989 0.77197772
0.22501311 -0.5081861 0.81214952
0.2112399 -0.37549749 0.73584318
0.1727841 -0.2088757 0.70160317
0.1711936 -0.202364 0.68643278
0.21783599 -0.43558091 0.71584648
0.2047742 -0.39642769 0.69252813
0.22669481 -0.4654254 0.69266802
0.21494509 -0.46662259 0.66834539
0.21276329 -0.4740454 0.669586
0.219129 -0.4687714 0.67957962
0.20540839 -0.4415189 0.61044371
0.217544 -0.45708001 0.68452328
0.19274309 -0.45404789 0.59209102
0.21548811 -0.50278562 0.61921167
0.2211459 -0.5023303 0.65922719
0.2110378 -0.46713409 0.66293538
0.2184781 -0.50577557 0.62785077
0.079248667 -0.33819121 0.82747489
0.1877511 -0.2123352 0.91220647
0.2212929 -0.51334059 0.64329243
0.2266563 -0.51633197 0.70321047
0.22277839 -0.52327639 0.66221392
0.1825047 -0.299505 0.63574302
0.1799695 -0.19979531 0.76628917
0.1780939 -0.2018805 0.74426132
0.22077639 -0.46197149 0.79076529
0.21955679 -0.48182219 0.82419789
0.22887141 -0.50967008 0.75688672
0.22561041 -0.50618368 0.81695122
0.23865899 -0.55495548 0.60577518
0.1788725 -0.208636 0.73685622
0.2354515 -0.52464211 0.85017657
0.22464161 -0.51059479 0.68673438
0.20586731 -0.44554171 0.61472881
0.25419599 -0.55113512 0.83626193
0.1779581 -0.2017106 0.77082121
0.1675624 -0.44322741 0.58480918
0.18737049 -0.30202129 0.64049423
0.1680782 -0.2764644 0.6226781
0.1215705 -0.50470519 0.57949042
0.1969557 -0.45688909 0.58945972
0.098460078 -0.49892959 0.58111697
0.1353454 -0.4467048 0.58808929
0.071777403 -0.36335799 0.60019642
0.075682521 -0.52677929 0.57895988
0.087029994 -0.53442723 0.57566339
0.080561221 -0.5331248 0.57632053
0.056827661 -0.52946359 0.57786041
0.087744594 -0.50015432 0.58651739
0.1719711 -0.30203801 0.65591067
0.2039908 -0.41682819 0.63288641
0.1919416 -0.37461859 0.61531579
0.066830643 -0.36287919 0.60242361
0.06388104 -0.34363589 0.62593931
0.29707161 -0.55272943 0.6127128
0.22974931 -0.46404949 0.92621088
0.2579568 -0.55103892 0.8927325
0.25617379 -0.55120927 0.85828519
0.18712039 -0.4458836 0.59151858
0.01923239 -0.50531822 0.58611459
0.2155299 -0.44499689 0.70893121
-0.14243039 -0.32541469 0.6750344
0.2910302 -0.55277741 0.60856283
-0.1514778 -0.29682761 0.66170502
0.2332246 -0.5167625 0.8259058
0.134822 -0.3192721 0.70480978
0.1756417 -0.207597 0.69765061
0.1626559 -0.25639299 0.93940687
0.37759951 -0.5546217 0.60519367
0.13188291 -0.55135828 0.56006491
0.1873713 -0.2034483 0.83735287
0.2323283 -0.43208641 0.91818398
0.24146239 -0.50981432 0.92795539
0.2273909 -0.49616221 0.76938468
0.085644722 -0.20227011 0.62855607
0.1842292 -0.44851199 0.58503288
-0.050794542 -0.36028251 0.60837668
0.095448971 -0.51553631 0.58174437
0.2274023 -0.51813018 0.88612193
0.1481436 -0.2768333 0.68711668
0.18304799 -0.213002 0.75433862
0.1223326 -0.52197909 0.57494628
0.2181942 -0.52553838 0.64410251
0.34539181 -0.55138481 0.68035352
0.2271882 -0.45894989 0.79554832
0.17154659 -0.29006091 0.67207968
0.1517332 -0.2804583 0.61599272
0.35919341 -0.54859769 0.69351578
0.2181821 -0.38287431 0.89992589
0.22339331 -0.37847361 0.98981899
0.2261214 -0.50841612 0.75860918
0.25701189 -0.55185509 0.90753162
0.2425172 -0.52607119 0.97286391
0.2434102 -0.52360523 0.91348308
0.41378739 -0.55358201 0.62714732
