# .PCD v0.7 - Point Cloud Data file format
VERSION 0.7
FIELDS x y z normal_x normal_y normal_z curvature
SIZE 4 4 4 4 4 4 4
TYPE F F F F F F F
COUNT 1 1 1 1 1 1 1
WIDTH 598
HEIGHT 1
VIEWPOINT 0 0 0 1 0 0 0
POINTS 598
DATA ascii
-0.12904444 -0.36706483 0.96622819 0.56048954 0.82764977 0.029109007 0.028374026
0.0038000382 -0.7243486 1.1043975 -0.53884512 -0.81177694 -0.22508699 0.066286363
-0.22095054 -0.54290831 0.97750396 -0.82117152 0.5460425 -0.165876 0.045340799
-0.13144818 -0.37165794 1.0545627 -0.92186821 -0.38502762 -0.043734025 0.069211125
0.013713348 -0.6468637 1.1365756 -0.7035042 -0.68162215 -0.2011791 0.091922075
-0.023232058 -0.70297873 0.92943662 0.1961688 -0.97795844 0.071519472 0.12309626
0.23340702 -0.4356108 0.98798472 0.043543339 0.9960584 -0.077276684 0.0070103891
0.0011265972 -0.70583498 0.93319201 -0.020488108 -0.9942978 -0.10465226 0.12265413
-0.22425437 -0.54096013 0.97128648 -0.79408443 0.5943023 -0.12741534 0.047772203
-0.00067430083 -0.70566118 0.90584248 -0.11100049 -0.99311239 0.037506387 0.085538819
0.031371124 -0.71318907 0.88543224 -0.18217106 -0.98144644 0.059803426 0.068814062
0.11130781 -0.70520657 0.90685368 -0.1515687 -0.95313603 0.26183683 0.017290941
-0.004665181 -0.70540506 0.92598081 0.073283941 -0.99706811 0.022018936 0.11950996
0.25136435 -0.70843607 0.94174296 -0.037059933 -0.9917137 0.12300667 0.030473676
0.20103751 -0.71327096 0.93222684 -0.1088725 -0.96212673 0.24991776 0.076944858
-0.01099655 -0.64774847 1.0078988 -0.94612241 -0.30815616 0.099459343 0.019968471
-0.032031972 -0.7030471 1.0456635 -0.53186303 -0.83917296 -0.11362468 0.089546539
0.036735412 -0.67899549 1.0596021 0.09640038 -0.28578556 0.95343256 0.13754773
0.0067269225 -0.71075225 1.0129861 -0.21030362 -0.97509235 -0.070478961 0.058272436
-0.017713115 -0.70569986 1.0353355 -0.48673904 -0.87244374 -0.043897927 0.13150191
-0.12805814 -0.3655332 0.97457081 0.56369996 0.82522792 0.035232689 0.026602013
0.096186735 -0.69758219 0.91675252 -0.12004022 -0.8821649 0.45538494 0.073062748
0.20331629 -0.70563644 0.94770151 -0.066712849 -0.99601007 0.059273381 0.057025369
-0.025248554 -0.70580673 1.0508546 -0.378683 -0.9203558 -0.097694755 0.047162749
-0.013907284 -0.7125572 1.0960373 -0.4867976 -0.86789572 -0.098919585 0.069170371
-0.13770369 -0.36308819 0.97846764 0.55959785 0.82739794 0.047569472 0.028744336
0.29484561 -0.70233244 0.9506076 0.19189364 -0.97014064 0.14833769 0.10030796
0.11774831 -0.71197778 0.85836679 -0.40239218 -0.90986598 -0.101116 0.016722061
0.2193671 -0.70492917 0.94784439 0.045235388 -0.98037809 0.19186562 0.11208658
0.088851064 -0.69566995 0.92329603 0.063751511 -0.94904071 0.30863819 0.062980928
0.03448813 -0.71245956 0.89032364 -0.20209289 -0.97636533 0.076611549 0.072610997
0.09514448 -0.67879754 0.93668699 0.01484677 -0.9064104 0.42213708 0.16568662
-0.0041399729 -0.71151686 0.98177534 -0.040327903 -0.9985767 -0.03490233 0.083078556
-0.018268358 -0.6714288 0.96839303 -0.99211031 -0.11882074 -0.039984174 0.1121479
-0.019153401 -0.71102571 1.0885519 -0.50540817 -0.85865688 -0.0852696 0.061561305
-0.016271774 -0.71371561 1.1017919 -0.56087792 -0.82746959 -0.026646242 0.075550862
0.027664397 -0.71503901 1.0315077 0.002767822 -0.99991643 0.012631625 0.034231275
-0.13314301 -0.36372301 0.97990382 0.57401884 0.81713945 0.052777041 0.027826408
-0.13411516 -0.36495286 1.018492 -0.7422362 -0.66647387 -0.069984861 0.020190205
-0.11816981 -0.37138155 0.94960624 0.53580654 0.83993655 0.086127676 0.031340528
-0.020480478 -0.70599622 1.0593933 -0.39101505 -0.92000246 -0.026509911 0.049794618
-0.049312402 -0.60002041 1.01552 -0.83940393 -0.54331166 0.014607685 0.0043169372
-0.21421583 -0.54166055 0.9568541 -0.76526064 0.60969949 -0.20650089 0.028485969
-0.11812825 -0.37179822 0.91931808 0.36561555 0.92315561 0.11878119 0.06597431
-0.040322304 -0.6685425 0.89348173 0.11333592 -0.64361364 -0.75691247 0.11275586
-0.0057895663 -0.68654609 1.0551431 -0.504255 -0.76353723 -0.40340778 0.24140227
0.024136972 -0.66513526 0.88184899 -0.16551065 -0.060058422 -0.98437762 0.13862422
-0.1192886 -0.37054107 0.95847636 0.56927103 0.8194145 0.067010298 0.032374848
0.1061844 -0.54716671 0.86417991 -0.18398401 -0.76284349 -0.61985457 0.056201521
-0.073791899 -0.54247409 0.92420626 -0.74659652 -0.65387011 -0.12266847 0.046216413
-0.13161534 -0.36745021 0.99458802 0.63234001 0.77034992 0.081897005 0.022368195
-0.11197296 -0.37473208 0.95292997 0.5368318 0.8389101 0.089674629 0.030907821
0.0902557 -0.66532904 1.0371947 0.77900106 -0.11223209 0.61689639 0.085274607
0.1050825 -0.64733744 1.0084232 -0.86979628 -0.33141404 -0.36553946 0.038003922
-0.1331538 -0.36676672 0.99534529 0.63234001 0.77034992 0.081897005 0.022368195
-0.083756208 -0.44625455 0.90757924 0.29382682 0.90349877 -0.3120189 0.11591227
-0.10920745 -0.38035116 0.98306441 0.61894494 0.78024298 0.090155594 0.026095062
0.38542917 -0.4825688 1.0412129 0.58995873 0.80033636 0.10681962 0.01357046
0.36576575 -0.4724783 1.0388349 0.47311151 0.87261462 0.12128188 0.0099558951
-0.11340746 -0.36957094 0.91033226 0.1260156 0.98585093 0.11053518 0.050577816
-0.082083128 -0.54580498 0.99549562 -0.24469034 0.96652997 -0.077112988 0.041800212
0.32219103 -0.47406134 1.1245492 0.38549596 0.87131006 0.30366379 0.02287519
-0.1268342 -0.36828613 0.96538806 0.58536708 0.8103649 0.02557176 0.031538833
0.19396348 -0.43573707 0.97595632 0.034450144 0.99001384 -0.13669617 0.029719282
0.30069527 -0.4495869 1.0995435 0.60714591 0.75207168 0.25644109 0.019117992
0.39023781 -0.48635456 1.0445923 0.58446681 0.80431128 0.1071534 0.012234414
0.28237364 -0.42971224 1.0687181 0.36647239 0.91010618 0.19340295 0.010537919
0.14257312 -0.46328041 1.072129 0.32421058 0.91437596 -0.24249552 0.081787989
0.37847313 -0.47785348 1.0329605 0.54353505 0.83346462 0.099530347 0.013297872
0.33807757 -0.71365434 0.99635816 0.72649199 0.66819537 -0.16038765 0.071991898
0.29167053 -0.43026066 1.1520429 0.9027378 0.29197511 -0.31593513 0.022757757
0.21355899 -0.46361157 1.0969825 0.93336362 -0.27553737 0.23002522 0.059647698
0.48541451 -0.67957169 0.99809194 0.45311978 0.86107451 -0.23072316 0.08017911
-0.12289592 -0.36783636 0.90078467 -0.10316886 0.97896111 0.17604378 0.049145658
0.06542781 -0.70765406 1.0545833 0.436546 -0.58841783 0.68058228 0.13526198
0.056608733 -0.71627063 1.0516229 0.29010978 -0.89322579 0.34348789 0.09049885
0.070410408 -0.71084565 1.0423023 0.43616039 -0.87577099 0.20685551 0.11994324
0.29276252 -0.43660882 1.0801437 0.51312417 0.84499139 0.15064254 0.019041933
0.14122793 -0.46209332 1.0753144 0.15133528 0.96626908 -0.20837909 0.054621115
0.37596229 -0.4794116 1.0546386 0.49294433 0.85465395 0.1630107 0.0094082169
0.55718952 -0.71499252 1.0244037 0.28911653 0.67287946 0.6809147 0.19757107
0.49055645 -0.65278411 0.99478287 0.44324884 0.66017348 0.60638398 0.076847948
0.31491858 -0.43967101 1.0339891 0.51787049 0.82235783 0.23566429 0.010356659
0.086027183 -0.69922775 1.0008909 0.22086188 -0.97502679 0.02329804 0.045798808
0.20372921 -0.49394628 1.0896649 0.94369 -0.30231178 0.13437556 0.08143983
0.041097689 -0.4293699 1.007928 -0.016089819 0.99591154 0.088889211 0
0.33906731 -0.70572132 1.0123243 0.87216282 0.39695942 -0.28592882 0.091904365
0.45301577 -0.6747005 1.0577567 0.61352509 0.65316582 -0.44380334 0.17222957
0.060642913 -0.71129042 1.0288827 0.29858419 -0.95392758 -0.029489616 0.065084115
0.36491284 -0.476271 1.0519234 0.44925258 0.87927485 0.1582652 0.0080690337
0.3640793 -0.5118469 0.94437909 0.4411478 -0.49106437 0.75116205 0.0001382748
0.49231324 -0.68122244 1.0127964 0.76576304 0.53699213 0.35390183 0.040261019
0.48586768 -0.72167069 1.0477796 0.47252795 0.17789775 0.86317414 0.064004861
0.36585385 -0.64412892 1.0219494 -0.073754154 -0.97398639 0.21426806 0.082460158
-0.10927981 -0.38836196 0.94660854 0.62609655 0.7731005 0.10158106 0.078455932
-0.31520399 -0.70065433 0.80326271 -0.55510223 0.44270623 -0.70418239 0.094990253
-0.010735578 -0.7081579 1.0577182 -0.32607695 -0.94418353 -0.046811614 0.04232486
0.21202749 -0.46761522 1.0946995 0.94369 -0.30231178 0.13437556 0.08143983
0.36821201 -0.63339567 1.056621 0.72244781 0.65470052 -0.22234325 0.02712456
0.39998156 -0.65276664 1.0544529 0.31596923 0.94823968 -0.03170177 0.010700172
0.40543416 -0.53569984 1.0076582 0.71706003 0.049724672 -0.69523537 0.038076241
0.47537184 -0.67851388 1.0460217 0.74839383 0.6305989 0.205552 0.13266468
0.46357504 -0.70960522 1.0543017 0.29474363 0.017080624 0.95542371 0.011028145
0.40677714 -0.50418156 1.0114248 0.7857362 0.60824674 -0.11249299 0.04185117
0.41783994 -0.65871704 1.0490321 0.22473425 0.96284372 0.14975408 0.11353821
0.38627437 -0.50982034 0.9923529 0.72540963 0.58384138 -0.36456844 0.052333575
0.33195081 -0.6835711 1.0081187 0.44293132 -0.50013137 0.74409705 0.13015246
0.32083657 -0.47392267 1.1228454 0.38459983 0.87200946 0.30279112 0.024773907
0.3473222 -0.71952671 0.98130852 0.51302522 0.85444462 -0.082033522 0.12105601
0.32571164 -0.66909337 1.056648 0.84199947 0.41324335 0.34679508 0.058988668
0.31100884 -0.69880831 1.0725232 0.85048562 -0.5144763 0.10949141 0.2011475
0.38296121 -0.48039925 1.0307744 0.61956692 0.78487301 0.01054343 0.024490232
-0.083130486 -0.54588294 0.99437648 -0.24469034 0.96652997 -0.077112988 0.041800212
-0.098245181 -0.36980698 0.91121775 0.074953362 0.96047091 0.26809984 0.054985676
0.3159982 -0.45969799 1.0927657 0.43158069 0.83457679 0.3423737 0.01710682
0.079851262 -0.66591215 1.0468794 0.65503144 -0.011624722 0.75551224 0.070198871
0.14708132 -0.70046663 1.0053662 -0.20071083 -0.9737674 -0.10720112 0.01901661
-0.096540987 -0.37053388 0.909446 0.074953362 0.96047091 0.26809984 0.054985676
-0.21172234 -0.53619027 0.96848488 -0.8119539 0.55853212 -0.16962507 0.034094099
0.15160796 -0.46629477 1.0745317 0.32421058 0.91437596 -0.24249552 0.081787989
-0.1357881 -0.73758107 0.90162814 -0.10657714 0.72439778 -0.68109417 0.13815778
0.038788117 -0.71454483 1.0648729 0.057406623 -0.93568617 -0.3481321 0.074117415
-0.10046773 -0.39814928 1.0137526 0.63909191 0.73849177 0.21492204 0.012477334
0.08734142 -0.68683851 1.0436914 0.62981844 -0.35418206 0.69129133 0.21065383
0.23040484 -0.72026271 1.0881889 -0.65305763 -0.71166581 0.25893545 0.15485033
-0.10728949 -0.38813952 0.96524233 0.64482945 0.76331782 0.039253511 0.034431946
-0.00045661381 -0.71345544 1.0749494 -0.28640929 -0.95042777 -0.12106464 0.068641491
0.40545613 -0.50207555 1.0202153 0.7704699 0.63130641 -0.088478342 0.037987784
0.3996211 -0.6573925 1.0846766 0.61683744 0.7692017 0.16685401 0.014105066
0.32769451 -0.47580177 1.126397 0.31006554 0.90247387 0.29899889 0.025480825
0.2938396 -0.47319975 1.1354233 0.82314008 0.54921716 0.14422502 0.16228673
0.24449177 -0.71130228 1.1379901 0.31767818 -0.77030772 0.55290741 0.21162899
0.21802837 -0.49462295 1.1094909 -0.33780193 0.94116604 0.0098121995 0.27971008
0.29377553 -0.47025141 1.1326044 0.82511485 0.5444895 0.1507204 0.15389763
0.21402873 -0.46199957 1.0939703 0.95516211 -0.28612769 0.076133266 0.05358471
-0.042943299 -0.535851 1.011369 -0.07464499 0.86722362 -0.4922919 0.058457725
0.14726415 -0.70767879 1.062879 0.00059852464 -0.99286008 -0.11928352 0.014145791
-0.1261193 -0.4115347 0.87134188 nan nan nan nan
-0.091236569 -0.37520531 0.85423011 nan nan nan nan
-0.21440858 -0.51377058 1.0147039 -0.88898724 0.42757308 -0.16395994 0.069916211
-0.0084777512 -0.70741832 1.0003601 -0.21413471 -0.97496086 -0.059980463 0.14694606
-0.30635509 -0.72942233 1.0144849 -0.51713997 0.090407185 -0.85111266 0.0066589992
-0.242973 -0.70937639 0.84838539 0.085962459 -0.96100616 -0.26282582 0.034501079
-0.0025464457 -0.71132213 1.0008662 0.0033612987 -0.99572599 -0.092296019 0.11901668
-0.30485621 -0.73352587 1.0109 -0.23178428 0.39360642 -0.88957858 0.0070026242
-0.063661337 -0.72999895 0.87204933 -0.080306098 0.80247849 -0.59125227 0.0017438385
0.38356528 -0.48219618 1.0072473 0.58175421 0.80726355 -0.099436626 0.025246598
0.38425344 -0.48565623 0.99790049 0.58340085 0.8010363 -0.13410531 0.025696436
0.065087669 -0.58724159 1.112582 nan nan nan nan
0.35952812 -0.47680399 1.0917444 0.38344899 0.92252457 0.043764088 0.085636064
0.16659319 -0.70675051 0.99187875 -0.12655096 -0.98940516 -0.071150221 0.027033571
0.34986788 -0.66760361 1.1069331 0.43615824 -0.83695036 0.33057529 0.1092326
0.32240626 -0.67551529 1.1128842 0.60780865 -0.7120434 0.35151502 0.055734135
0.32222158 -0.66326159 1.1275336 0.65064436 -0.62796497 0.42699158 0.081395574
0.31649467 -0.44692054 1.0556736 0.52649444 0.82545996 0.20351768 0.007603399
0.48409176 -0.73077625 1.0436727 0.47589836 0.16419256 0.86403793 0.078875318
0.15815102 -0.71325362 0.99874127 -0.14951429 -0.98478675 -0.088547245 0.031741656
0.22673059 -0.65472341 1.0276592 -0.009853187 -0.68437821 0.72906065 0.10523243
0.43972367 -0.69456941 1.059064 0.40431497 0.56982386 -0.71542311 0.12908031
0.18268134 -0.70223427 1.0043253 -0.0073518772 -0.99717426 -0.074763097 0.021315636
0.27061784 -0.71439326 1.1064934 0.38690436 -0.87249148 0.29843527 0.10229761
0.30260667 -0.43730521 1.0722924 0.44513786 0.86689937 0.22436088 0.014210054
0.15365246 -0.70739132 1.0014966 -0.13969527 -0.98655826 -0.084782414 0.026622726
0.34933716 -0.47896126 1.0900429 0.29384449 0.95476991 0.045494612 0.081107035
0.15981527 -0.70276642 1.0408044 -0.058457084 -0.99635315 -0.062153138 0.02481848
-0.095022991 -0.36929199 0.92050809 0.37840417 0.91389936 0.14696334 0.070519894
-0.096052967 -0.395293 0.9842025 0.66305441 0.74173731 0.1009187 0.027364938
-0.24089271 -0.70728165 0.85797298 0.051222157 -0.98344702 -0.17380504 0.017074507
-0.20328985 -0.54090148 0.92100406 -0.59504467 0.79377264 -0.12588368 0.037603326
0.020664757 -0.71480769 1.0514593 -0.026799466 -0.99952197 0.015418657 0.045478296
0.21491291 -0.43215451 0.99009347 0.09393768 0.99156904 -0.089254998 0.016072176
-0.008875031 -0.71441197 1.0061319 -0.10912766 -0.99402523 0.0022432487 0.11517826
-0.043549091 -0.70811844 0.89975893 0.23780657 -0.95515817 -0.17641118 0.089822434
-0.15057631 -0.7129463 0.92613178 -0.13954772 -0.99019492 -0.0063558035 0.080916241
-0.15067396 -0.71152931 0.92834216 -0.13961108 -0.9901855 -0.0064338818 0.077822126
-0.32605559 -0.70900923 1.0300814 0.072508112 -0.99224323 0.1009747 0.046164431
0.014565428 -0.65430391 1.0576464 -0.22539005 -0.7503835 0.62138879 0.11793249
-0.19712102 -0.53750449 0.92869455 -0.76711744 0.59609938 -0.2370574 0.032680456
0.19601113 -0.48625663 1.1145149 0.94369489 -0.26795879 0.1940053 0.041224737
-0.048177432 -0.71359718 0.92785501 0.077376314 -0.99662036 0.027580364 0.020874768
0.013454884 -0.71249777 1.0554417 -0.11216868 -0.9873383 -0.11216573 0.066913165
-0.18287219 -0.44102347 0.94721431 -0.58854473 0.7889055 0.17675756 0.13114491
-0.25735116 -0.70780438 0.84130055 0.085962459 -0.96100616 -0.26282582 0.034501079
-0.010782337 -0.68823284 0.81678867 -0.39947727 -0.90280044 -0.15927742 0.013265735
-0.13422944 -0.3651835 0.99968237 0.65773958 0.75106066 0.057329267 0.021121921
-0.0098063005 -0.71865577 1.0037986 0.0013177253 -0.99914151 -0.041407295 0.088447332
0.020042006 -0.70779705 0.86516082 -0.39984852 -0.91657507 0.0033689605 0.086382106
0.14377531 -0.70501381 0.82648635 -0.42942986 -0.88711053 -0.16918898 0.039661091
-0.0072491448 -0.70923138 1.0579004 -0.23513128 -0.97075492 -0.048456516 0.033202101
0.52154779 -0.70865506 1.3625468 0.25901899 -0.88801301 -0.37992352 0.13455652
-0.0049707419 -0.69121391 0.90420836 -0.50422728 -0.79253989 -0.34298009 0.16312756
0.30045485 -0.42257163 1.0064504 0.23358066 0.97152179 0.039817415 0.039042182
0.0020910406 -0.71330053 1.0773681 -0.28339994 -0.95024651 -0.12929074 0.069909625
0.027405638 -0.70759219 0.99430627 0.025786357 -0.99115098 -0.1302104 0.019014584
0.12583518 -0.7073763 0.84082437 -0.47731709 -0.86037707 -0.17866072 0.030052014
0.21360362 -0.46350801 1.0967805 0.93336362 -0.27553737 0.23002522 0.059647698
-0.12260885 -0.36972201 0.9229883 0.47996488 0.87224853 0.093894586 0.05862781
0.052953836 -0.69694567 0.95724714 0.15271959 -0.98620486 -0.063849308 0.0084695797
0.071244575 -0.69617707 0.96473831 0.18919933 -0.97862911 -0.080551781 0.0254177
0.045633048 -0.70614952 0.8413288 -0.16308703 -0.98016858 -0.11257049 0.027347051
-0.2078419 -0.53796637 0.95650613 -0.74478459 0.62338674 -0.23808606 0.027983461
-0.089012526 -0.37187159 0.91068208 0.084322512 0.96054238 0.26504332 0.056244805
-0.11851965 -0.72044784 0.94740671 0.063401848 -0.99780524 0.019104663 0.05376
-0.16749822 -0.45089871 0.94482267 -0.66724598 0.73418903 -0.12549607 0.11865497
0.30306694 -0.42247468 1.0046097 0.36562845 0.92738736 0.079174019 0.031624716
0.010813189 -0.71298838 1.0566993 -0.11978639 -0.98408282 -0.1312716 0.061999518
-0.14480543 -0.71395087 0.92552423 -0.13715969 -0.99049598 -0.010248386 0.084178962
-0.014371337 -0.70535958 0.93438095 0.14757743 -0.98003608 0.13323028 0.12008894
-0.12835333 -0.37461349 0.91953248 0.38264892 0.91898829 0.095080808 0.064449541
0.0019362074 -0.71090496 1.0035748 -0.074622117 -0.99120951 -0.10924792 0.12205991
-0.12238674 -0.37299779 0.99293566 0.61077613 0.78471017 0.10574709 0.022733739
-0.21269868 -0.71350414 0.85678911 -0.02658437 -0.98533338 -0.16855705 0.0042342367
-0.12736131 -0.71650225 0.92569315 -0.013615182 -0.99888396 0.045226682 0.076767676
-0.10259537 -0.38301226 0.95013613 0.56206238 0.81751543 0.12551649 0.045232181
0.1283315 -0.64689219 1.082648 0.87412024 -0.21859793 -0.43373811 6.5734821e-05
0.18223742 -0.70620948 1.0971721 0.39850205 -0.89868128 0.1832158 0.064814009
-0.10284645 -0.38195491 0.94225895 0.56488872 0.81573308 0.12441959 0.050242648
-0.1952174 -0.71326572 0.87242693 -0.083558857 -0.99623263 0.023202285 0.0092934975
0.0041073626 -0.69760561 0.85977489 -0.67032987 -0.74204785 0.0047725271 0.12834063
-0.085423961 -0.71122789 0.89769399 -0.04927389 -0.99782723 0.043735921 0.077298336
-0.14369492 -0.71398634 0.92511368 -0.13715969 -0.99049598 -0.010248386 0.084178962
0.14424253 -0.70069087 0.95023024 -0.11330735 -0.99348712 -0.012030393 0.020786054
0.12754396 -0.69217575 0.97253817 -0.1908374 -0.97925621 -0.068105794 0.032917898
0.2598075 -0.71226442 1.1143446 0.2929863 -0.93016607 0.22124687 0.1183792
0.015599024 -0.70236379 0.92621088 -0.024791617 -0.99471533 0.099632896 0.1085244
-0.0061133145 -0.70465016 1.0005881 -0.15600638 -0.98471874 -0.077400938 0.13674811
-0.0055593699 -0.7003262 0.89841729 -0.44774392 -0.86974162 -0.20754533 0.10864072
-0.012276152 -0.61284757 0.86021578 0.13498557 -0.36537215 -0.9210223 0.0023599791
0.020294193 -0.70601696 0.94417763 0.042573869 -0.9990077 -0.013077845 0.072800033
-0.13013703 -0.37010112 0.90665936 0.013242876 0.99276519 0.11933953 0.057264805
-0.0040965178 -0.69507194 0.89421403 -0.52342683 -0.78903484 -0.32163396 0.13583983
-0.12098391 -0.3854937 0.94052666 -0.73226041 -0.66605765 -0.1419927 0.112145
0.24087621 -0.67853898 1.0142391 0.38785261 0.70067298 -0.59885544 0.19280601
-0.030142335 -0.62420738 0.97645169 -0.95514709 -0.23741952 -0.17699149 0.061394241
-0.16349903 -0.70592922 0.92547631 -0.2637839 -0.96410483 0.030329058 0.096071318
-0.32744473 -0.71345198 1.0247508 0.03911237 -0.9939605 0.10253136 0.048317205
-0.075422682 -0.71373874 0.92631137 0.086800039 -0.99482358 -0.052837759 0.0039088298
-0.015158267 -0.70747876 1.0511216 -0.32223204 -0.94363403 -0.075639434 0.04321954
-0.016238499 -0.65926701 0.87649423 0.0018871099 -0.45573729 -0.89011228 0.18124372
0.191186 -0.49086118 1.099834 0.92812258 -0.28430456 0.24033181 0.060824409
-0.017951269 -0.66427875 0.8749795 0.12212393 -0.56736529 -0.81436008 0.24683996
-0.23189618 -0.53771621 0.95918453 -0.74459034 0.64054447 -0.18785091 0.038726989
-0.12685293 -0.3688077 0.92533052 0.3881647 0.91810483 0.080073193 0.055164065
0.20912485 -0.64429826 1.0401331 0.85348725 0.33571956 0.39856225 0.01687769
-0.14048405 -0.71449763 0.92826372 -0.11027331 -0.99389905 -0.0021077767 0.069841892
0.22103217 -0.65741378 1.0319713 0.89081806 0.062200949 0.45008236 0.10931906
0.011536658 -0.64299184 0.87734294 0.56697875 -0.29221526 -0.7701593 0.12595578
-0.13242818 -0.36582452 0.98833936 0.59243363 0.80024183 0.09292689 0.022324523
-0.12879623 -0.38750395 0.93048042 -0.82667959 -0.52966738 -0.18987696 0.14279605
0.013503565 -0.71250272 1.0553393 -0.11216868 -0.9873383 -0.11216573 0.066913165
-0.20007657 -0.44361061 0.95597935 -0.86231476 0.45789862 0.21619922 0.16026036
-0.21273006 -0.51482797 1.0041282 -0.85532582 0.50656158 -0.10868799 0.06052104
-0.14731754 -0.36318642 0.99573529 0.56671834 0.82260662 0.046354819 0.024857925
0.23623155 -0.67752671 1.0224336 0.58446121 0.6662119 -0.46321347 0.19342746
-0.29991552 -0.72554266 1.0141562 -0.23178428 0.39360642 -0.88957858 0.0070026242
-0.025504909 -0.62634438 0.95881116 -0.97294271 -0.12004931 -0.19740967 0.039203458
0.21036892 -0.70698398 1.0592091 -0.36147496 -0.76672697 -0.53053337 0.12614943
-0.018510265 -0.62714416 0.9455657 -0.8817507 -0.050570231 -0.46899727 0.027709763
0.25640675 -0.69969481 1.1309993 0.29116005 -0.89788395 0.33019722 0.12687674
0.22846426 -0.69682211 1.1327647 -0.48307779 -0.86279815 -0.1490479 0.11573984
0.23782001 -0.72856033 1.1113316 0.98455536 -0.17010456 -0.041415535 0.15736471
-0.10545061 -0.37113678 0.91722399 0.32377017 0.93704176 0.13086486 0.069515161
-0.021991376 -0.70392162 1.0493795 -0.43942389 -0.89047211 -0.11817825 0.067900702
-0.018753499 -0.70686948 1.0507091 -0.34772649 -0.93450707 -0.076045245 0.045354042
-0.00069144694 -0.6792472 0.94179136 -0.792328 0.49088281 -0.36228496 0.16343012
-0.14658836 -0.37538302 0.96895397 0.52499527 0.85108137 0.0063564121 0.03617648
-0.07827691 -0.54410338 0.99534684 -0.24469034 0.96652997 -0.077112988 0.041800212
0.12896876 -0.47358179 1.0614561 0.0046644709 0.77482331 -0.6321606 0.0077162548
-0.092897512 -0.38897562 0.9513669 0.66559696 0.73615295 0.12271787 0.060894035
0.22795719 -0.68675154 1.0264676 -0.44955623 -0.79482657 0.40761498 0.21619089
0.22318278 -0.67892963 1.0306244 0.83850014 -0.44933772 0.30824208 0.1550981
0.053772204 -0.71591878 1.0408093 0.2377792 -0.9668954 0.092597678 0.073043399
0.2213133 -0.73807919 1.0670871 -0.034368172 -0.96143854 -0.27286389 0.10405473
-0.10600037 -0.5524869 0.96410328 -0.82508463 0.50365007 0.25607041 0.10540725
0.37286675 -0.47385681 0.99561065 0.61690724 0.78391129 -0.070061304 0.030740831
0.41022483 -0.49889019 1.0087179 0.7857362 0.60824674 -0.11249299 0.04185117
0.40862536 -0.50895631 1.006402 0.80499446 0.58159453 -0.11718272 0.048169523
0.28834099 -0.76227409 1.070853 nan nan nan nan
0.25262895 -0.72497404 1.071086 0.10792208 -0.99278766 -0.052205168 0.065601997
0.32740939 -0.46471193 1.0711894 0.49380141 0.84339231 0.21177703 0.0081055621
0.10492858 -0.69168925 1.000942 -0.048653204 -0.9983229 0.03137235 0.11684436
0.31447831 -0.44160646 1.0440942 0.4865666 0.85108131 0.19726504 0.012293582
0.087922864 -0.67905611 1.0368054 0.71026516 -0.17352496 0.68221152 0.079759151
0.32480276 -0.69049591 1.0882673 0.56661713 -0.65435684 0.50076151 0.17857383
0.14729565 -0.48903352 1.0423919 0.0050966954 0.77539498 -0.63145596 0.0082852691
0.081211761 -0.70253521 1.0253956 0.37590921 -0.90383697 0.20437936 0.093222424
0.07680928 -0.7015627 1.0129089 0.32859206 -0.94004285 0.091360845 0.090036735
0.15745583 -0.70876837 0.98376524 -0.18190317 -0.97206807 -0.14830711 0.026401844
0.20461164 -0.50842857 1.0793049 0.94744205 -0.28654143 0.14229369 0.087906159
-0.15402979 -0.70810896 0.93716544 -0.14485419 -0.98941135 0.0090799714 0.074591793
0.34019855 -0.47282538 1.0955342 0.35767943 0.92762494 0.10759842 0.074021891
0.44032425 -0.66355157 1.0449114 0.32801974 0.94201571 -0.070776954 0.095469944
0.2110396 -0.47921541 1.0723984 0.95516211 -0.28612769 0.076133266 0.05358471
0.14828067 -0.70230621 1.0083276 -0.20071083 -0.9737674 -0.10720112 0.01901661
0.05641612 -0.71605694 1.0460864 0.2861152 -0.94656837 0.14881733 0.082119405
-0.14439529 -0.73318684 0.91080344 -0.16683701 -0.9723689 0.16329125 0.14186791
-0.31496185 -0.71171433 1.0217364 0.085070394 -0.98191392 0.16913934 0.073205344
-0.12392718 -0.38279009 0.95873904 0.66906905 0.74144006 0.051120844 0.096263558
0.29853725 -0.4493106 1.0995619 0.64395523 0.72825229 0.2344573 0.020556465
-0.10803436 -0.37450483 0.92809749 0.43700671 0.89340252 0.10419747 0.06079242
-0.13340279 -0.3665815 0.99428618 0.63119632 0.77102691 0.084312759 0.023417605
0.29956594 -0.44934925 1.1013232 0.64395523 0.72825229 0.2344573 0.020556465
0.25881311 -0.70106477 1.126039 0.39131063 -0.89785641 0.2018161 0.1274751
0.12724783 -0.46920261 1.0690119 0.0046644709 0.77482331 -0.6321606 0.0077162548
0.20902351 -0.43152198 1.0013455 0.12078329 0.98919338 -0.083114274 0.016961517
0.20690288 -0.43236583 0.98993641 0.08896587 0.99105912 -0.099433258 0.017624173
0.29414943 -0.43564725 1.0723201 0.43772531 0.87354791 0.21286266 0.014510446
0.20271437 -0.43239146 0.98822176 0.090080254 0.99002373 -0.10834488 0.020109747
0.36804339 -0.43856853 1.1126903 0.7834993 -0.60176408 0.15494782 0.17510977
0.36812213 -0.48099753 1.0687579 0.45660022 0.88009107 0.13021523 0.017722094
0.56276786 -0.71019232 1.014614 0.43023485 0.89251298 0.13534601 0.024352375
0.44281182 -0.7053706 0.96986824 -0.10766543 -0.72732884 0.67779118 0.043581888
0.65663534 -0.69505584 0.94659364 0.30823362 0.92320615 -0.22952639 0.016549867
-0.12728424 -0.36930838 0.90747911 0.013242876 0.99276519 0.11933953 0.057264805
0.31561139 -0.47485015 1.1257533 0.43289849 0.84935606 0.30198222 0.036855958
0.29446054 -0.72312677 1.0635432 0.29367793 -0.85268772 -0.43206128 0.2203847
0.31125301 -0.46384114 1.1103448 0.51440465 0.79514319 0.3211467 0.027994098
0.3017199 -0.45813787 1.1102394 0.57095367 0.73878026 0.3580721 0.093733191
0.61309218 -0.68168879 0.94858599 0.19507074 -0.91450775 0.35443339 0.11390986
0.57195544 -0.7015487 0.91178787 0.55733794 0.79772967 -0.23022102 0.17524952
0.68932211 -0.71150166 0.9637056 0.35216415 0.93566275 -0.022707358 0.041787807
0.62399673 -0.69080877 0.95194739 0.098242588 -0.92510015 0.36679453 0.072285578
0.28799939 -0.43476731 1.0854366 0.55548048 0.82462102 0.1069658 0.019928265
0.68375558 -0.71769476 1.0026044 0.37722957 0.91810644 0.12156599 0.044985689
0.40061668 -0.4937306 1.0524715 0.60226512 0.79094923 0.10805536 0.0094762472
0.30900168 -0.45659232 1.0989572 0.51383728 0.80744439 0.28983578 0.025259685
0.63456011 -0.72134441 0.85872912 0.54249746 -0.82894117 -0.13620949 0.0001126733
-0.055810969 -0.41008869 0.97938812 0.5023489 0.73411912 -0.456853 0.059609823
-0.10932638 -0.38699743 0.99685615 0.61158192 0.78075576 0.12801562 0.021491701
0.20870075 -0.46299815 1.0794321 0.98119146 -0.19295412 -0.0056698187 0.055696063
0.25455815 -0.43439651 0.99598312 -0.056109402 0.99779451 -0.035466991 0.012075036
0.28518856 -0.43173841 1.057899 0.31694388 0.93965483 0.12882318 0.013372224
0.55233276 -0.71337384 1.0255098 0.40776923 0.65572906 0.63540816 0.15521874
-0.077623174 -0.48289889 1.021996 -0.33078459 0.60128516 -0.72734982 0.052154113
0.38916272 -0.48575601 1.0449715 0.58446681 0.80431128 0.1071534 0.012234414
0.3764253 -0.47474051 1.0204393 0.58852965 0.80846941 -0.0031699294 0.021153186
0.70838588 -0.72909445 0.91947824 0.53066808 0.81903213 -0.21812324 0.071820937
0.67255628 -0.71596467 0.99930096 0.41470629 0.89900595 0.14073721 0.038982388
0.69486272 -0.72137636 0.93712592 0.41650358 0.84343159 -0.33933464 0.046402473
0.696863 -0.71451354 0.9596765 0.34634584 0.93266898 -0.10086214 0.041693602
0.32392702 -0.4438765 0.97643578 0.52973044 0.84804052 0.014588295 0.17292129
0.28986117 -0.44522542 1.1064943 0.80434996 0.57069671 0.16530675 0.095238499
0.70760554 -0.72818893 0.92122203 0.53112805 0.8205635 -0.21113639 0.064786404
0.44651422 -0.72244918 0.94849521 0.10766543 0.72732884 -0.67779118 0.043581888
0.61368167 -0.70171827 0.92492729 0.29487121 -0.9456526 0.13708445 0.074724816
0.36909419 -0.4742662 1.0404011 0.47325826 0.87251765 0.12140682 0.0099527426
0.31092215 -0.43805501 1.039947 0.48518452 0.84915048 0.20866078 0.013721266
0.51658332 -0.69370919 0.99065888 -0.089558564 -0.87803274 0.47014654 0.084780298
0.51828146 -0.71818173 1.0377659 0.33354229 0.54764241 0.76735741 0.055167258
0.70878541 -0.71722734 0.91026127 0.50500393 0.66531491 0.54984277 0.11069963
0.69451892 -0.72351402 0.98910648 -0.16001481 -0.97727925 -0.13899849 0.045681104
0.48726627 -0.68744951 1.0448009 0.87335992 0.33026055 0.35800871 0.081734218
0.62607831 -0.69022095 0.9504413 0.10875316 -0.9396562 0.32437479 0.06066744
0.66955668 -0.71034724 0.90938848 0.40013573 0.90742856 -0.12831506 0.015739815
0.28448728 -0.43119603 1.0627218 0.34859908 0.92023748 0.17788082 0.009371778
0.49551135 -0.68931782 1.0191953 0.79014069 0.45246512 0.4134647 0.06175619
0.6807788 -0.71695393 0.93517816 0.41424727 0.88499039 -0.21258195 0.016271144
0.66313791 -0.70605862 0.87931508 0.10831084 -0.99220866 0.061568763 0.018299967
0.56999111 -0.71558106 1.0269114 -0.060184304 -0.92359984 -0.3786045 0.0049824314
0.54593879 -0.74129879 0.88841373 0.082931176 -0.65183502 0.75381267 0
0.4975791 -0.70659184 0.96901298 0.38597852 0.67847234 -0.62505662 0.023437327
0.59352165 -0.71374929 0.89578933 0.49329373 0.85132247 -0.1786377 0.13434227
0.58355957 -0.67666596 0.96037948 0.24768458 -0.89510375 0.3707312 0.1522485
-0.10045932 -0.39443853 1.0006684 0.65313488 0.73866749 0.16668911 0.017462634
0.44210315 -0.66135734 1.0430912 0.32856607 0.94156897 -0.074109025 0.10463578
0.37380609 -0.47149768 1.01197 0.59639883 0.8013382 -0.046534851 0.027043527
0.39486817 -0.49145004 0.99887586 0.70645106 0.68524605 -0.177101 0.043215092
0.65591908 -0.71074355 0.87971061 0.10831084 -0.99220866 0.061568763 0.018299967
-0.12953992 -0.36857405 0.99766195 0.64882845 0.75617522 0.084974274 0.019047184
-0.12406817 -0.37785742 1.0203621 -0.72802258 -0.67932123 -0.09222652 0.019438263
0.36067438 -0.46990594 1.0373303 0.44921848 0.88218111 0.14127743 0.010459833
0.37820718 -0.47775117 1.0355699 0.55466145 0.8255378 0.1041062 0.014341991
0.37797236 -0.47584423 1.0218171 0.58852965 0.80846941 -0.0031699294 0.021153186
0.48700398 -0.70651942 1.0494711 0.50690705 0.31427461 0.80266845 0.068089515
0.49773949 -0.71069449 1.0445229 0.64137089 0.33226365 0.69155204 0.068588115
0.37295598 -0.48155475 1.0874189 0.55691779 0.81585652 0.15563008 0.024516441
0.32286927 -0.69907445 0.91343319 0.33601984 -0.8355794 -0.43462357 0.1243599
0.59291232 -0.71708119 0.88874412 0.26312226 -0.9487291 0.17515613 0.12124235
0.64931738 -0.69692606 0.97794026 0.25679144 0.94738585 0.1910973 0.013139082
0.28788799 -0.70785356 1.1004859 0.38822585 -0.83474296 0.39049309 0.011684173
0.45443329 -0.62466931 0.99164331 0.33005196 0.55394381 0.7643376 0.19460222
0.39415935 -0.48994741 0.99959892 0.70645106 0.68524605 -0.177101 0.043215092
0.67177057 -0.69493091 0.96030456 0.40954283 0.91116506 -0.045307759 0.028708408
0.53886259 -0.71810538 0.90922779 0.73047131 -0.55907923 0.39222717 0.11012149
0.37976602 -0.47998181 1.0002594 0.6433652 0.76199865 -0.073750317 0.028563222
0.70643479 -0.75788879 0.91582298 0.87137938 0.035203099 0.48934516 0.026635753
0.5048756 -0.70750904 1.03927 0.49094251 0.41668922 0.76507878 0.073097579
0.50187093 -0.75504971 0.94677377 0.27566394 0.39794809 -0.8750124 9.6560623e-05
0.54027206 -0.70050156 1.3343309 -0.16827755 -0.98552287 -0.020676406 0.14686601
0.2952334 -0.43431833 1.0585111 0.4361228 0.87787366 0.1978249 0.01460293
-0.12349284 -0.3738718 0.99867398 0.62258059 0.77634233 0.09841755 0.02017387
-0.075918972 -0.53969967 0.91929442 -0.70274574 -0.711438 -0.0020707927 0.026131472
-0.076714851 -0.53613669 0.90415508 -0.58073747 -0.78300732 0.22280838 0.016437491
0.11715014 -0.69890481 0.94990844 -0.2006781 -0.96774572 0.15230402 0.078858726
-0.13091499 -0.36568016 0.96793073 0.53721207 0.84300607 0.02727524 0.02862937
0.21745427 -0.43139881 0.96466964 0.0062217899 0.99817705 -0.060032543 0.017538609
0.45831642 -0.69236249 0.97191322 0.17981853 0.67637914 -0.71426636 0.05668227
0.093002878 -0.62591153 0.88270742 0.36885747 -0.92689854 0.069306158 0.032622129
0.48008579 -0.70150948 0.96268564 0.15961295 0.67526454 -0.72009826 0.028144212
0.21462621 -0.65727592 0.92876077 0.94211054 -0.021383572 -0.33461982 0.089188747
0.25955939 -0.69796902 0.91481686 0.22311679 -0.92918038 -0.2946907 0.21885897
0.13422038 -0.58224052 0.88120252 -0.45093262 -0.71716571 -0.53135026 0.039004877
0.2305091 -0.70485771 0.9467442 -0.01694609 -0.98364013 0.17934577 0.10492571
0.020714557 -0.70958614 0.86740071 -0.35403123 -0.93513763 0.013396514 0.083160028
-0.11691903 -0.37468582 0.93164426 0.48028541 0.87159878 0.098191015 0.054970525
0.20340179 -0.43229932 0.9879843 0.090080254 0.99002373 -0.10834488 0.020109747
-0.084428176 -0.39555651 0.98755497 0.64526445 0.75590813 0.11061962 0.031136738
-0.13839418 -0.42802468 0.94510245 -0.65552866 0.53290021 -0.5350697 0.09856616
0.095879786 -0.69515753 0.92760652 -0.061732799 -0.84103101 0.53745323 0.12711285
0.21803197 -0.433025 0.99638575 0.11455666 0.9903518 -0.077975668 0.016885705
0.13515009 -0.70315748 0.91881263 -0.050759472 -0.99087441 0.12486521 0.024654038
0.10343597 -0.55635685 0.87396067 0.73658282 0.66575223 0.11924661 0.13069312
0.10351572 -0.55415148 0.86889315 -0.20964469 -0.78543448 -0.5823589 0.04566054
0.087678477 -0.62370348 0.87812841 0.38535428 -0.92147863 0.048776619 0.041765265
-0.20517871 -0.5419355 0.94002604 -0.76859373 0.60197818 -0.21653168 0.025247434
0.27176979 -0.65622348 0.90555668 -0.48924735 0.1519506 -0.85880619 0.017201817
0.11263013 -0.70589006 0.90408117 -0.1515687 -0.95313603 0.26183683 0.017290941
-0.12707616 -0.36936939 0.98756456 0.6132431 0.78171653 0.11336771 0.022307258
0.22869456 -0.70439529 0.94809848 0.029862273 -0.98503631 0.16974035 0.11206521
0.44688651 -0.65962321 1.0138482 0.261244 0.95682371 0.12743655 0.13130255
0.4670704 -0.58093292 1.058502 nan nan nan nan
0.52144063 -0.69681704 1.0047561 0.26089615 0.94234389 0.20957382 0.049316939
0.31457806 -0.70894319 0.91114128 0.49361491 -0.83378452 -0.24728036 0.092865929
-7.6205564e-05 -0.67418337 0.94182795 -0.76076096 0.45301491 -0.46477976 0.17546147
-0.081307076 -0.45789894 0.9088757 0.10813736 0.98408842 -0.14098325 0.081424572
-0.1233048 -0.44648942 0.90936452 0.0020204012 0.86169255 -0.50742656 0.011550223
-0.069215186 -0.37730852 0.91599578 0.12600853 0.90997136 0.39506185 0.015721846
0.26817298 -0.43011281 1.0133245 -0.14748578 0.98905623 -0.0039619496 0.006352907
0.22222939 -0.43248373 0.98587781 0.022072436 0.99246007 -0.12056397 0.016885793
0.40471992 -0.65715563 1.0202986 0.2095861 0.97734588 0.029471636 0.0034098015
-0.13643986 -0.36376733 0.99141049 0.60364896 0.7939378 0.07259959 0.02472559
0.098517932 -0.61360025 0.90000957 0.90698421 -0.31427968 -0.28037125 0.031827338
0.3809692 -0.61995721 0.9246605 0.33030644 0.94061905 0.07831683 0
0.34119511 -0.67471892 0.91680455 0.87407523 -0.2050979 -0.44037172 0.029429654
0.36283877 -0.4694474 1.0187501 0.55538702 0.82708174 0.086492687 0.0090545407
0.47769654 -0.71107471 0.95611149 0.10220297 0.56111169 -0.82140625 0.032143224
0.027774319 -0.62229306 0.86802775 0.37372148 0.051913667 -0.92608708 0.1290964
0.24248827 -0.43991569 0.94940013 0.13812529 0.98950589 -0.042419594 0.0028747229
0.54720253 -0.76065439 1.0244679 0.19108318 -0.041230898 0.98070747 0.00027534837
0.50882137 -0.73505622 0.95807266 0.066337161 0.37278923 -0.92554176 0.035925381
0.22154418 -0.43422276 0.98623496 0.057364993 0.99282128 -0.10495339 0.016184822
0.0092902025 -0.70545655 0.8867203 -0.32191685 -0.94637454 -0.027289141 0.13527125
-0.11385702 -0.36758223 0.90605038 0.030245159 0.98352623 0.17821753 0.047411241
0.22832367 -0.70786989 0.91095597 0.022244552 -0.97746015 0.2099449 0.030940827
0.22509909 -0.43534651 0.9924224 0.025286254 0.99601042 -0.085579522 0.015126762
-0.18712537 -0.5149098 0.90812016 -0.90158921 0.4299989 -0.04730431 0.010273664
-0.0061707506 -0.70965219 1.0487361 -0.20670183 -0.97833228 -0.011845155 0.047349341
0.48060176 -0.71525872 0.95817631 0.10619137 0.47057241 -0.87594807 0.027738936
0.0011038845 -0.7096287 0.99890381 -0.081486523 -0.99251652 -0.090944037 0.11038806
-0.0099366475 -0.70637751 1.0036263 -0.19067146 -0.98109126 -0.033232152 0.11360721
0.17701459 -0.70024812 0.91470569 -0.11377957 -0.99262154 -0.041912165 0.040992528
0.024335472 -0.71277583 0.86273223 -0.3099544 -0.95048869 0.022348663 0.029076669
0.16397944 -0.69127345 0.90926039 -0.15563545 -0.95933282 -0.23549546 0.043572526
-0.14323625 -0.4540121 0.90739822 -0.6429072 0.63884401 -0.42255026 0.069651611
-0.19900091 -0.53589541 0.91937494 -0.83470184 0.52680725 -0.16045889 0.015889388
0.2462934 -0.43814239 0.94384283 0.16384572 0.9856897 -0.039627556 0.0020274688
0.4233368 -0.70351404 0.9411121 0.56892699 0.4574374 -0.68342745 0.040871907
0.26465976 -0.71751732 0.92044234 -0.039241079 -0.98732281 0.15379795 0.021449242
0.48736981 -0.70270348 0.96334934 0.15961295 0.67526454 -0.72009826 0.028144212
0.302937 -0.67156428 0.88692462 0.015555694 -0.15392794 -0.98795962 0.052666944
0.039252765 -0.55357867 0.89502853 -0.531066 0.16059807 -0.83197188 0.017806873
0.66688651 -0.71467054 1.0080481 0.27948356 0.95110559 0.13148028 0.042181645
0.26314929 -0.70642489 0.90101737 -0.16727093 -0.97901219 0.1164285 0.032720078
-0.1137515 -0.38282096 0.93741119 0.52956909 0.84012622 0.11723686 0.058204524
-0.10487592 -0.36771154 0.89987075 0.0013379182 0.99240923 0.12297253 0.042559564
-0.11150408 -0.36881962 0.90853059 0.069902949 0.98790866 0.13838373 0.051855937
0.2678763 -0.42558214 1.0041932 -0.14964086 0.98870677 -0.0081611304 0.0070916843
0.23719364 -0.71088201 0.89107013 -0.035712663 -0.9812721 0.1892872 0.041474946
-0.10254562 -0.37123001 0.91524285 0.31029943 0.93893015 0.14874274 0.070903018
0.019669773 -0.69800359 0.80621231 -0.23749912 -0.94617099 -0.21989679 0.01467624
0.22875632 -0.71245891 0.9003576 0.053060904 -0.98824644 0.14336497 0.019814899
0.32704481 -0.62896508 0.90624768 0.6364184 0.34382209 -0.69047666 0.17152582
0.017253937 -0.70891315 0.89808095 -0.1676645 -0.98412919 0.058123313 0.05733623
0.050843999 -0.42971259 1.0134211 -0.0017142956 0.99832374 0.057851166 0.0021012283
-0.0065883528 -0.71078664 1.0127335 -0.2493308 -0.96626592 -0.064532027 0.090046749
0.25079119 -0.43796325 0.94449008 0.17618488 0.9833504 -0.044507701 0.0019869364
0.098867148 -0.69679612 0.85450959 -0.51254433 -0.84650159 -0.14399102 0.0027825644
0.26888749 -0.53621948 0.87311602 nan nan nan nan
0.012856541 -0.70735508 0.88161099 -0.28800702 -0.95743561 0.019211376 0.11445764
-0.01267542 -0.70278442 0.91518891 -0.080589376 -0.99249715 -0.091949388 0.16336364
-0.074058183 -0.4475801 0.88897401 -0.86964631 -0.23093684 -0.43632954 0.00010339894
0.22516237 -0.4359124 1.0065185 0.11686109 0.99186856 -0.050400309 0.013127136
0.3544116 -0.60882616 0.90302205 -0.065911129 0.89276487 -0.44567546 0.050727393
0.32346591 -0.63627362 0.89323813 0.29915592 -0.051007032 -0.95283997 0.060842354
0.56245625 -0.68700814 0.91689867 0.59369266 0.71153688 -0.37582487 0.16290674
0.24907367 -0.71369153 0.88876098 -0.0045608091 -0.98946869 0.14467506 0.051171962
0.0075193723 -0.66113764 0.91747797 -0.97085869 0.23751751 0.031919945 0.14106676
-0.07364627 -0.71259505 0.89980155 -0.07025604 -0.99494427 0.071763851 0.084874287
0.212899 -0.49289551 0.87958843 -0.49900863 0.18713485 -0.8461507 0
-0.20108508 -0.53486621 0.91338766 -0.77975333 0.61258197 -0.12933685 0.016544599
-0.16841945 -0.45153803 0.94706029 -0.66724598 0.73418903 -0.12549607 0.11865497
0.22300518 -0.69375247 0.94919842 0.73074186 0.65734136 -0.18417056 0.22682886
-0.041743424 -0.55929923 0.92157853 -0.51278174 -0.85789436 -0.032743502 0.0026231343
-0.13390176 -0.71669918 0.92871785 -0.071826793 -0.99741298 0.0028698996 0.062388949
0.2128277 -0.71847188 0.87411392 0.16274406 -0.97226059 0.16799894 0.0063584903
-0.10085886 -0.38962063 0.98510027 0.61907244 0.78004247 0.091011778 0.02416965
-0.12681282 -0.36951038 0.99091005 0.61144704 0.78529841 0.097154759 0.022528784
0.20836142 -0.43245652 0.99173284 0.1033199 0.99028701 -0.093040839 0.016816944
-0.11352544 -0.71303487 0.91982466 0.084699027 -0.99384606 -0.071385607 0.060994141
-0.13946642 -0.71570855 0.92234206 -0.13834326 -0.99023449 0.01722586 0.09143436
-0.16524485 -0.71734142 0.90266585 -0.30887541 -0.86393273 0.39776391 0.10299189
0.010007194 -0.71381688 1.0486577 -0.1129844 -0.98829597 0.10249625 0.047843747
-0.1008052 -0.68928152 0.88767499 -0.10929114 -0.71021324 -0.69545144 0.20867547
0.14300296 -0.46359181 1.0703201 0.32421058 0.91437596 -0.24249552 0.081787989
-0.11081316 -0.36718076 0.90004718 -0.025424555 0.97806907 0.20672311 0.045427397
-0.11184543 -0.38069716 0.99035668 0.6098001 0.78386962 0.11701385 0.020879874
-0.077431127 -0.53708923 1.0203471 0.16443577 0.93305391 -0.31995505 0.07436493
0.13902496 -0.61434609 1.0878178 0.89084268 -0.24477729 -0.38273168 0.00042480396
0.01216972 -0.64804757 1.0605953 -0.66394109 -0.27476701 0.69547492 0.07062871
-0.11184951 -0.37722877 0.98322046 0.62002093 0.78094274 0.075514235 0.027146224
-0.0033650994 -0.71155661 1.0391291 -0.21361272 -0.97650939 0.028267439 0.10106594
0.23685029 -0.71274388 1.1145443 -0.23659185 -0.96288973 0.12987515 0.11921698
0.21543573 -0.45959827 1.0977504 0.92920011 -0.30025953 0.21547939 0.070228986
-0.168557 -0.71079487 0.920259 -0.25218239 -0.96677667 0.041795939 0.10913677
-0.1051162 -0.37848943 0.93638355 0.5519762 0.82668602 0.10914492 0.060301285
-0.013713243 -0.6998086 1.0038064 -0.74489313 -0.66594476 -0.040642504 0.15337892
0.0059254928 -0.63378227 1.0716711 -0.62615091 -0.60811299 0.48798931 8.234851e-05
0.03109595 -0.71578044 1.0448037 0.043876693 -0.99611616 0.076337785 0.041377869
0.016040124 -0.69475657 0.94291037 0.002409549 -0.99913627 0.041484267 0.11523479
-0.10696162 -0.37013412 0.91191041 0.19725314 0.97070605 0.13718991 0.05723599
-0.10621808 -0.36904818 0.90694791 -0.0046273759 0.97814608 0.20786718 0.047269013
0.0095270099 -0.70769471 0.89560568 -0.15276834 -0.98818463 0.012372024 0.058484901
-0.1154048 -0.3719731 0.9464792 0.52812678 0.84342301 0.098588489 0.034780025
-0.12512431 -0.36923015 0.9868477 0.6063599 0.78862441 0.10197681 0.023991819
0.0088631632 -0.71299267 1.0537467 -0.14281489 -0.98529744 -0.093770377 0.067490458
-0.11666989 -0.3733502 0.93699741 0.48266792 0.87124544 0.089236274 0.044984031
0.21889353 -0.43371177 0.98363239 0.057364993 0.99282128 -0.10495339 0.016184822
0.19620091 -0.62822318 1.0562742 0.5430516 -0.22109579 0.81006891 0.0026904955
0.012325657 -0.70616841 0.90051299 -0.12112754 -0.99241698 0.020895986 0.084767818
-0.43909475 -0.69511592 0.90215468 -0.76724637 -0.57802325 -0.2778886 0.031688932
0.21312265 -0.67957908 1.075276 0.96567863 0.097414039 0.24078046 0.077727601
-0.13088496 -0.37907296 0.93746394 0.50817126 0.85675889 0.087899342 0.045584176
0.26722416 -0.67153203 1.0132917 0.38096383 0.8720395 -0.30726802 0.203684
0.049272496 -0.69392228 0.94651669 0.17688999 -0.98282546 0.05257494 0.024295738
0.25525677 -0.71238786 1.051043 -0.10449748 -0.76338696 -0.63743281 0.031549316
0.27691796 -0.69280833 1.024232 -0.20232202 -0.95602822 -0.21231091 0.18159555
0.28636369 -0.67685187 1.0220238 -0.061334845 -0.96503872 -0.25482985 0.082919076
-0.12596242 -0.36845565 0.98406321 0.59786004 0.7978307 0.077649876 0.026108686
-0.10396804 -0.39741874 1.0059109 0.66760743 0.71926683 0.19223832 0.017491249
-0.11680337 -0.37439734 0.92825031 0.44873446 0.88814729 0.099154763 0.056239571
-0.13491352 -0.36666963 1.0012608 0.68273497 0.72693861 0.073710687 0.022469038
-0.088902421 -0.39819768 1.0190423 0.55705506 0.81015003 0.18261063 0.02488376
0.024978716 -0.71154803 0.87456274 -0.22883835 -0.97275436 0.037175093 0.078731246
0.022687154 -0.71184939 0.8512612 -0.17496537 -0.98213369 -0.06928657 0.0176859
0.031417195 -0.71136659 0.86927277 -0.22957705 -0.97198665 0.050361946 0.08387588
-0.0047661103 -0.68974715 0.91881949 -0.15618186 -0.98028588 -0.12102411 0.1488376
0.04048723 -0.70672941 1.065833 0.19406906 -0.96742898 0.16253728 0.087210007
-0.003990571 -0.71133566 1.0645118 -0.29413757 -0.94915974 -0.11215524 0.057474632
0.23853773 -0.70312685 0.94686073 -0.12480768 -0.97958779 0.15757772 0.11259256
0.015568683 -0.71203762 1.0665858 -0.12284174 -0.97790259 -0.16916388 0.064081207
0.0019717296 -0.70569837 0.92079604 -0.066121973 -0.99740613 0.02844188 0.111946
0.21242885 -0.70445049 0.99088901 0.24791808 -0.96067715 0.12504409 0.090464041
0.096261971 -0.69923383 1.0221356 0.47629166 -0.83544606 0.27418274 0.078741789
0.15097372 -0.70277309 0.9969424 -0.18308218 -0.97711349 -0.10830567 0.020797288
-0.020221215 -0.67761558 0.97158116 -0.99108917 -0.094201185 0.094172142 0.13150893
0.217941 -0.70410562 0.99034959 0.30142424 -0.93987751 0.16054174 0.11007907
0.11044042 -0.69624776 1.0190676 -0.062292021 -0.997585 -0.030723309 0.058472216
0.12216435 -0.69535387 1.0037278 -0.14712498 -0.97425926 -0.17080139 0.014713526
0.15689406 -0.70666242 1.0113598 -0.15032099 -0.98791391 -0.037810668 0.029760355
-0.082596831 -0.54544312 1.0056752 -0.26254845 0.96283543 -0.063374124 0.046492845
-0.088439345 -0.54776782 0.97120112 -0.96810627 0.24542935 0.050346378 0.088952981
-0.20735757 -0.53518027 0.96291476 -0.81184262 0.55841625 -0.17053735 0.026956202
-0.14610176 -0.36710203 0.97293586 0.52237886 0.85205227 0.03357245 0.031450152
0.3715601 -0.4740667 1.0348982 0.51985437 0.84787351 0.10422011 0.012267731
-0.12317229 -0.38130054 0.89473385 -0.45256421 0.88620508 -0.099128053 0.13131641
0.36968851 -0.47071952 1.0302553 0.51985437 0.84787351 0.10422011 0.012267731
0.068057261 -0.70768946 1.0406809 0.46857598 -0.83390397 0.29161757 0.13433568
0.32294387 -0.71069747 0.97351426 -0.31819263 -0.93459576 0.1590101 0.062905341
0.36696157 -0.46972921 1.0322522 0.49970117 0.85964626 0.10633495 0.0116348
0.38729006 -0.4835895 1.0409349 0.58995873 0.80033636 0.10681962 0.01357046
0.33766431 -0.66533977 1.019956 0.83937466 -0.41183391 0.35474351 0.044931583
0.2894212 -0.43386897 1.0781497 0.51312417 0.84499139 0.15064254 0.019041933
0.26736107 -0.48844412 1.1071178 -0.45757762 0.70355392 0.54372281 0.046068471
0.29074225 -0.43431371 1.0425807 0.24868211 0.96214187 0.11153571 0.014237124
0.2998786 -0.44534132 1.0911803 0.61729479 0.74887222 0.24111743 0.013973702
0.38562015 -0.48263451 1.0222883 0.61940241 0.78500497 0.01038406 0.024474429
-0.0091309315 -0.71782619 1.0338789 -0.23681171 -0.97097707 0.033522498 0.075144939
0.08781381 -0.69678962 0.98351574 0.13209797 -0.98215461 -0.13387507 0.023806371
0.48445532 -0.70539355 0.95562667 0.15961295 0.67526454 -0.72009826 0.028144212
0.059224915 -0.7047168 0.99514985 0.17373152 -0.96819931 -0.18002085 0.0026325951
0.30575326 -0.70671868 0.99804157 -0.2240027 -0.89624995 0.38282993 0.051468283
-0.072885282 -0.52643758 1.0109209 -0.95400906 -0.29543576 0.050838877 0.15703301
-0.11251964 -0.37110448 0.91677678 0.32377017 0.93704176 0.13086486 0.069515161
-0.10425958 -0.39880902 1.0168091 0.6414631 0.74711913 0.17417818 0.017618723
-0.13195577 -0.36724374 0.99746078 0.63894826 0.76564908 0.074340396 0.018711872
-0.12381663 -0.37301588 0.99441129 0.61648804 0.78138113 0.09688177 0.023085052
-0.12662567 -0.36949584 0.95325077 0.55406743 0.83019906 0.061471317 0.029842751
-0.1292751 -0.36777562 0.95522922 0.55217892 0.8317821 0.056894612 0.030618811
0.1049602 -0.65597641 0.94031906 0.94774145 0.034681778 -0.31714875 0.035172764
0.14394161 -0.70750886 0.92627043 -0.044617731 -0.99355549 0.10419562 0.024728203
0.26817694 -0.65308946 0.90775019 -0.48940581 0.15203622 -0.85870075 0.017214673
0.21457519 -0.43169037 0.96954489 0.015159753 0.99761331 -0.067363232 0.016001271
0.23764674 -0.43840444 0.94184828 0.17302923 0.98436117 -0.033074487 0.0019487673
0.34550589 -0.71620172 0.95400929 -0.24263017 -0.95960677 -0.1424271 0.03134568
0.20318341 -0.43012455 0.96602416 0.010921552 0.99754685 -0.069144152 0.020973703
0.32841545 -0.69485652 0.95274109 0.65875536 -0.6040681 -0.44848973 0.19171375
0.34882146 -0.47426829 1.1187736 0.215399 0.96212673 0.16707924 0.11187961
0.35116914 -0.44716749 0.97567236 0.50353211 0.86324984 -0.035428867 0.13658459
