# .PCD v0.7 - Point Cloud Data file format
VERSION 0.7
FIELDS x y z normal_x normal_y normal_z curvature
SIZE 4 4 4 4 4 4 4
TYPE F F F F F F F
COUNT 1 1 1 1 1 1 1
WIDTH 577
HEIGHT 1
VIEWPOINT 0 0 0 1 0 0 0
POINTS 577
DATA ascii
-0.10346305 -0.33570841 0.6966508 -0.92440081 0.063968427 -0.37602004 0.0027000159
-0.081262775 -0.2117746 0.65021861 -0.64087385 0.4755958 -0.60256892 0.10147345
-0.12141268 -0.37183154 0.7664656 -0.97810882 0.16741435 -0.12359416 0.10658982
-0.14139232 -0.48505315 0.79901367 -0.91929668 0.38383892 -0.086956456 0.12184685
-0.12093607 -0.36678016 0.78539544 -0.9234845 0.017716654 -0.38322654 0.1442678
-0.13006616 -0.47399786 0.77758354 -0.92972165 0.12397151 -0.34676892 0.12473936
-0.089495115 -0.37016326 0.66580182 -0.8591525 0.04380371 -0.50984132 0.045881785
-0.083240002 -0.35479754 0.65393341 -0.74773359 0.069137283 -0.66038972 0.091449931
-0.12151942 -0.41772851 0.73814631 -0.9693011 0.018672317 -0.24516673 0.0029788679
-0.12494778 -0.32433596 0.79522115 -0.9916088 0.097892508 -0.084433198 0.14173314
-0.09670151 -0.35012376 0.68095595 -0.89224046 0.12739317 -0.43321812 0.024662063
-0.10975024 -0.34970453 0.71690166 -0.94697511 0.044028543 -0.31827608 0.011753972
0.058203313 -0.20049641 0.74940109 0.014291601 0.99989128 0.0036231114 0.00023451274
0.051018037 -0.19920738 0.70676768 0.053740431 0.99460357 -0.088744961 0.011242118
-0.11019434 -0.2939361 0.72402751 -0.95535415 0.024995351 -0.29440397 0.0021616176
-0.14517185 -0.47156751 0.82430911 -0.72314829 0.12744698 0.67883265 0.14377138
-0.1015055 -0.33912542 0.69369924 -0.91512227 0.069323927 -0.39717177 0.0044835093
-0.11276869 -0.38360488 0.71735257 -0.94258207 0.074052043 -0.32566145 0.011212969
0.080991924 -0.20053127 0.72066289 0.080917239 0.99588281 -0.040863406 0.0046487562
-0.081964441 -0.20033592 0.66788316 -0.40884498 0.84277892 -0.35009921 0.078774035
0.052960895 -0.20210691 0.67585945 0.12386216 0.87478447 -0.46841249 0.085076593
-0.013443933 -0.19822483 0.68749654 0.065944396 0.99366385 -0.091014206 0.011414041
-0.079255968 -0.2023291 0.65662622 -0.51244348 0.71436584 -0.4765324 0.10660063
-0.076325625 -0.19602259 0.69107163 -0.2663269 0.95611715 -0.12210602 0.060005829
-0.10176449 -0.19818911 0.72578734 -0.50871444 0.85107172 -0.12994847 0.049027469
0.038203217 -0.19949946 0.72890705 0.019125637 0.99980038 0.0057702186 0.00031588346
-0.079781085 -0.19609201 0.69087094 -0.38728055 0.89916056 -0.20377432 0.070034936
0.0055240323 -0.19962926 0.75732642 0.010409326 0.99986839 0.012442626 0.00020600988
-0.097508997 -0.3503733 0.6867469 -0.89765644 0.10404231 -0.42823851 0.017785847
-0.10850324 -0.41831785 0.700791 -0.922562 0.041516427 -0.38360882 0.0065942453
-0.094538994 -0.42284703 0.67442858 -0.88678211 0.057809856 -0.45855811 0.082612842
-0.10303517 -0.41298175 0.69204277 -0.90006745 0.047967933 -0.43310237 0.028326701
-0.065105744 -0.19545381 0.67965698 -0.21343488 0.94965744 -0.22933869 0.058680352
-0.072751924 -0.25081566 0.63440102 -0.25786075 0.013478152 -0.96608812 0.071959808
0.023143796 -0.20285383 0.84441704 -0.016048808 0.99664044 0.080313824 0.0020188144
-0.054905545 -0.19838932 0.81829917 -0.023771105 0.9946146 0.10088015 0.003844026
-0.040250748 -0.19754922 0.72523987 0.069503501 0.99740499 0.018778343 0.0003473869
-0.089850865 -0.19685131 0.76292449 -0.20093934 0.97946167 0.01667943 0.026522545
-0.054778107 -0.19798151 0.80577981 0.00030109897 0.99915344 0.041137412 0.00091522356
-0.11651583 -0.20175108 0.79916769 -0.40165627 0.91578346 -0.0035889933 0.076147921
-0.11321341 -0.20208454 0.78698385 -0.4136568 0.9100973 -0.024715384 0.069239922
-0.081163183 -0.20206551 0.83904284 -0.17371362 0.94853514 0.26477283 0.044490956
-0.071929455 -0.19923303 0.83108622 -0.11748534 0.97261453 0.20054463 0.022332851
0.049487844 -0.19995552 0.7893936 0.0075197085 0.99963433 0.025974788 0.00044958616
0.015137942 -0.20210554 0.82643884 -0.0074030566 0.99947411 0.031572126 0.00030654212
-0.10413926 -0.19868517 0.75441152 -0.32865778 0.94444889 -0.0006888822 0.036420789
-0.082540877 -0.19920839 0.79604632 -0.085909024 0.99456233 0.058868598 0.0059656175
-0.14578584 -0.46284708 0.82143331 -0.88761294 0.10384934 0.44873002 0.16251491
-0.14204706 -0.3941949 0.82758826 -0.76196688 0.067165583 0.64412361 0.086265102
-0.14270295 -0.43156084 0.82616854 -0.6796962 0.031620983 0.73281175 0.10602426
-0.12923048 -0.26782152 0.80932349 -0.99218607 0.038417507 0.11870513 0.1380596
-0.11061345 -0.29528242 0.7254625 -0.95536929 0.027475378 -0.29413378 0.0020611894
-0.12111267 -0.20145476 0.81234819 -0.40390807 0.91397786 0.038766369 0.096923754
-0.11161435 -0.31212562 0.72686267 -0.95589262 0.024100909 -0.29272583 0.0023889078
0.079670034 -0.20055267 0.70617712 0.080368929 0.98422807 -0.1575942 0.015506355
-0.03822352 -0.19753511 0.68518382 0.035883315 0.99558401 -0.086746365 0.0093735596
-0.055628587 -0.20064385 0.64862603 -0.07386791 0.88349342 -0.46258286 0.071695343
0.10786032 -0.20115042 0.73296779 0.32668787 0.93879622 0.10925522 0.064013809
0.020156555 -0.19945012 0.738446 0.0066949502 0.99989575 0.012792693 0.00018618599
-0.020732466 -0.19760706 0.68233144 0.077859737 0.99111462 -0.10784135 0.011481262
-0.086976834 -0.2012852 0.82527161 -0.14678754 0.96671784 0.2095474 0.03175744
0.019345585 -0.1999899 0.77053064 0.0045836363 0.99975628 0.021597128 0.00017316849
0.036414955 -0.19974786 0.77792454 0.00015102372 0.99975801 0.021999586 0.00019067516
-0.13811822 -0.26823229 0.82755744 -0.76912284 -0.0032112245 0.63909286 0.1354797
-0.11503007 -0.33627018 0.74439782 -0.98430336 -0.0068052127 -0.17635368 0.029973464
-0.082595438 -0.39051488 0.65447605 -0.81392348 0.050154496 -0.57880318 0.066014856
-0.11041462 -0.2303604 0.72284395 -0.95395529 0.17094868 -0.24646686 0.024779944
-0.043100454 -0.19876003 0.8226499 0.0048803794 0.99435234 0.10601738 0.0038464377
-0.087698407 -0.19774431 0.68839675 -0.54492462 0.78181821 -0.30301389 0.071074553
0.025441013 -0.20018546 0.78213519 -0.0023464705 0.99965215 0.026270982 0.00016122163
-0.10417818 -0.37781259 0.69667226 -0.91813314 0.044705693 -0.39374217 0.00098135334
-0.11269197 -0.28668138 0.73358715 -0.96458864 0.036311109 -0.26124758 0.0033269525
-0.10925154 -0.41721329 0.70316011 -0.92853755 0.03711082 -0.36937901 0.0024870785
-0.13938366 -0.42774871 0.83231807 -0.63197225 0.012626294 0.77488816 0.093917698
-0.11411008 -0.33210802 0.74067241 -0.9864434 -0.010810805 -0.16374557 0.030228628
-0.069315098 -0.19801696 0.78139752 -0.019381316 0.99896961 0.041036956 0.001250574
-0.040979654 -0.19739117 0.68239647 0.026980236 0.99331909 -0.11220129 0.012254798
0.062316157 -0.20064381 0.74963933 0.022781711 0.9997341 0.0035577379 0.00048224287
-0.056056563 -0.19849285 0.65647084 -0.083459355 0.93256384 -0.35122526 0.059461329
0.031184167 -0.19951685 0.74077445 0.0088075018 0.99991518 0.0095976917 0.00023430632
-0.092978552 -0.37223566 0.67437083 -0.90175104 0.028128885 -0.43133941 0.033063181
-0.10897397 -0.29831645 0.71888149 -0.95068389 0.02398455 -0.30923283 0.0021710531
0.010534381 -0.19992457 0.76432198 0.0090155015 0.99982983 0.016095178 0.00021538585
-0.078282639 -0.19617385 0.75428319 -0.067946769 0.99763685 0.01019578 0.010255028
-0.11027201 -0.20167682 0.81161541 -0.33984241 0.93935269 0.046083648 0.081212871
-0.091093145 -0.19732097 0.77107781 -0.20841749 0.97793067 0.014619277 0.029759899
-0.044723563 -0.19873667 0.80558902 0.01542988 0.99923611 0.035905678 0.00070963375
-0.068198502 -0.19769266 0.76899022 -0.015824117 0.99921536 0.036306221 0.0023549139
-0.13902047 -0.21109927 0.83737487 -0.6458624 0.701873 0.30039287 0.19475433
-0.12805396 -0.44366038 0.76825035 -0.99184513 -0.063449733 -0.11053198 0.13659458
0.068228476 -0.2003987 0.69618535 0.065662146 0.96805662 -0.24198131 0.040304452
0.055325683 -0.20133092 0.83431816 0.14275883 0.98734599 0.069048993 0.021434383
-0.10161782 -0.46638715 0.67571604 -0.87501627 0.10651558 -0.47222972 0.0578628
0.020261357 -0.19849092 0.68878275 0.089372933 0.97873086 -0.18465728 0.028178716
-0.077063359 -0.20211153 0.64613235 -0.54151362 0.62715918 -0.55985212 0.11356472
0.059515644 -0.20006081 0.76236171 0.019982776 0.99974799 0.010231262 0.00063646981
-0.10880767 -0.19912492 0.76966763 -0.41186041 0.91124564 -0.0015015675 0.046760693
-0.12176753 -0.3868216 0.73931193 -0.97252101 0.090737201 -0.21440545 0.011550102
-0.13871767 -0.43317455 0.79604995 -0.9713847 0.0085060205 -0.23735932 0.11647271
-0.080901757 -0.33556473 0.65616196 -0.76887208 0.10524762 -0.63068116 0.087145969
-0.0045084879 -0.20058368 0.65851325 0.17164551 0.90685266 -0.38491046 0.046392664
-0.026292197 -0.20302221 0.6492458 0.11734985 0.81714779 -0.56435663 0.070700385
-0.070545234 -0.19765322 0.66001487 -0.31384167 0.87779224 -0.36191747 0.095274538
-0.029741678 -0.19820675 0.69735092 0.049576174 0.99866813 -0.01428678 0.0016944875
-0.024265621 -0.20231666 0.65025938 0.12380759 0.80700088 -0.57742661 0.073232852
-0.068454608 -0.20602493 0.63727653 -0.21111584 0.56010962 -0.80106634 0.10100025
-0.077262871 -0.28664359 0.65148616 -0.63949502 -0.12504406 -0.75855786 0.10396018
-0.087227635 -0.4077259 0.65997565 -0.8678363 0.0028413152 -0.49684209 0.072782032
0.085519403 -0.1999279 0.76526791 0.20770261 0.97501576 0.078765139 0.02643341
-0.075931907 -0.19494157 0.73571444 -0.090207644 0.99580133 -0.015565257 0.015999686
-0.085934035 -0.2014327 0.82787418 -0.14533998 0.96547115 0.21619846 0.032935042
0.083156154 -0.20019165 0.75798547 0.16339476 0.98474985 0.059749074 0.019791486
-0.054561254 -0.19811009 0.82070434 -0.026518403 0.99371654 0.10873871 0.004563584
0.058722518 -0.20124263 0.84188414 0.21800959 0.97077191 0.10036895 0.032281864
-0.070085153 -0.1985604 0.82947409 -0.088899799 0.98111337 0.17179455 0.015496593
-0.1100771 -0.30881315 0.72150779 -0.94594771 0.022117948 -0.32356411 0.0022413379
-0.067734607 -0.19510402 0.68841058 -0.1367438 0.98760903 -0.077002898 0.034097575
-0.11256323 -0.49939227 0.69771135 -0.97182053 0.13857353 -0.19068882 0.028723788
-0.058093082 -0.19562495 0.67429847 -0.11616016 0.95809293 -0.26184887 0.043015309
-0.012922253 -0.19980839 0.65713829 0.11568024 0.93663406 -0.33065817 0.034896728
-0.078325637 -0.198624 0.66574055 -0.38618433 0.85409719 -0.34839591 0.083548598
0.080208324 -0.20019089 0.71843666 0.07293734 0.99619848 -0.047630083 0.0035951028
-0.12520635 -0.3980571 0.78284943 -0.95728248 0.085248895 -0.27630198 0.093922123
-0.11047585 -0.49682188 0.68788755 -0.95660371 0.1621144 -0.24213287 0.02626707
-0.06338466 -0.20362329 0.85576105 -0.15954475 0.9289279 0.33412349 0.02675158
-0.070638582 -0.19790739 0.77662593 -0.026047837 0.99900311 0.036254134 0.0018983932
0.078615427 -0.20006296 0.78784853 0.18792316 0.98088098 0.050571151 0.014691159
-0.092199877 -0.49760079 0.63376141 0.61804682 -0.76901311 0.16320841 0.066627972
-0.090050206 -0.5063681 0.6314984 0.70629376 -0.65346622 0.27227032 0.041971743
-0.1017402 -0.50228268 0.6572575 -0.80632365 0.40075418 -0.4350152 0.045142706
-0.1079218 -0.50313413 0.67702299 -0.91183972 0.26170364 -0.316322 0.029094536
-0.087235563 -0.49980181 0.62516803 0.65740836 -0.71174252 0.24746086 0.063566186
-0.10446791 -0.49903834 0.66756529 -0.862661 0.30293682 -0.40502504 0.029045125
-0.12258123 -0.41242293 0.7421757 -0.97293162 0.047285222 -0.22620378 0.0031184501
-0.095436171 -0.49928385 0.64328837 -0.71995437 0.57763422 -0.38471356 0.0504217
0.0091476655 -0.19814125 0.68447649 0.10371547 0.97066706 -0.21690699 0.031294137
0.012638684 -0.19901717 0.69989276 0.039154854 0.99824506 -0.044427022 0.0039982414
-0.041370545 -0.19716854 0.69217581 0.035703555 0.99848205 -0.04193962 0.0033379467
0.040988334 -0.20064865 0.67457557 0.15539671 0.88069558 -0.44746745 0.069471918
-0.037346937 -0.19753993 0.69182259 0.052805066 0.99738401 -0.049363479 0.0035625615
0.0082702246 -0.19993599 0.71118009 0.0155459 0.99981493 0.011335361 0.00043926624
-0.092188932 -0.438595 0.66427296 -0.869313 -0.12666705 -0.47775552 0.11662444
-0.1163731 -0.2015173 0.79910618 -0.40201384 0.915631 -0.0021860714 0.075318314
-0.073066562 -0.19868989 0.79069149 -0.035401259 0.9980244 0.051903993 0.0040808432
0.063819394 -0.199811 0.78799289 0.061618794 0.99738938 0.037648942 0.0029326836
0.041600902 -0.20115328 0.80522811 0.0078167636 0.99944967 0.032237791 0.00092813605
-0.11258852 -0.4853757 0.71794647 -0.97694802 0.058728185 -0.20523992 0.033132162
-0.12248843 -0.29847994 0.76989681 -0.97151411 0.08072798 -0.22280769 0.013441903
0.0008355882 -0.19888672 0.70020396 0.035943925 0.9989661 -0.027832046 0.0026367204
-0.062217142 -0.19640514 0.66637951 -0.16552985 0.94644833 -0.277192 0.061724368
-0.098500386 -0.19749828 0.76484698 -0.2569595 0.96642208 0.00055091112 0.03230923
-0.030536899 -0.20170441 0.84653258 -0.0089429105 0.98816913 0.15310702 0.0062639774
-0.097535431 -0.40260488 0.68770307 -0.86920875 0.027314905 -0.49369037 0.040603254
-0.070804626 -0.19847691 0.78278399 -0.022948898 0.99886447 0.041749492 0.0012118752
-0.067235515 -0.19581105 0.74595821 -0.012552236 0.99989039 0.007846796 0.0046828557
0.022181716 -0.20064817 0.6663599 0.18276928 0.86445588 -0.4683069 0.067450866
-0.023978844 -0.2003468 0.81514311 0.041934792 0.99845529 0.036446527 0.00031499364
-0.083182804 -0.19563539 0.68689865 -0.4622466 0.84644139 -0.26431981 0.071933106
-0.13167857 -0.49227366 0.67776763 -0.96016121 0.18642002 -0.20817803 0.032112144
-0.08676751 -0.19600669 0.74348521 -0.20883563 0.97793311 -0.0058803894 0.029209288
-0.045655739 -0.19893458 0.8227939 0.0016587891 0.99407113 0.10871895 0.0043740841
-0.075650766 -0.19908038 0.79827803 -0.04886093 0.99701184 0.059832674 0.0041775876
-0.11177816 -0.20138875 0.78517699 -0.39617166 0.91776329 -0.027541716 0.06399896
0.024029002 -0.1997921 0.76929408 0.0037682708 0.99982762 0.01818236 0.0002273205
0.019058025 -0.20081964 0.78512925 -0.00040891708 0.99953598 0.030458484 0.00012681168
-0.12701903 -0.39180866 0.76991135 -0.96663839 0.1364833 -0.21675465 0.092060857
0.026963994 -0.20026356 0.78016824 -0.0020319896 0.99966413 0.025836008 0.00017704595
-0.14745091 -0.5017544 0.82216108 -0.68261802 0.49425247 0.53828168 0.19436511
0.013634689 -0.19982782 0.71469378 0.01183728 0.9998191 0.014885131 0.00033366663
-0.0024905019 -0.19916967 0.66408795 0.16002974 0.93189228 -0.32552612 0.041982554
-0.14403282 -0.44061676 0.81763256 -0.97378421 0.054355476 0.22088407 0.13397942
-0.050232619 -0.19686124 0.6677441 -0.058263231 0.94456685 -0.3231082 0.042591698
0.05778943 -0.20025581 0.75873673 0.01482157 0.99986112 0.0076210811 0.00038723019
0.11958807 -0.20283283 0.73061359 0.51387858 0.8472262 0.13467212 0.081155345
-0.12112469 -0.3718107 0.76516002 -0.97775692 0.16523762 -0.12918214 0.10460968
-0.076603137 -0.19550593 0.74433446 -0.073549651 0.99710917 -0.01906942 0.012132505
-0.23594722 -0.49286783 0.6036675 0.13044797 -0.97952908 0.15331692 2.3967756e-05
-0.26991683 -0.49549544 0.61622655 0.13044797 -0.97952908 0.15331692 2.3967756e-05
-0.080927148 -0.19943997 0.79432416 -0.069807574 0.99602646 0.055300701 0.0049442598
-0.25007343 -0.48810196 0.64612609 0.03961112 -0.99912035 0.013766056 0.0033697267
0.051202588 -0.2011406 0.81068987 0.036018904 0.99858922 0.039015699 0.0029254514
0.039084025 -0.19971599 0.72806805 0.020595279 0.99977386 0.0053109764 0.00033829207
-0.097961269 -0.2433017 0.69332165 -0.91264307 0.032033347 -0.40750018 0.0040294048
0.070579685 -0.20072569 0.80509847 0.16580133 0.98190606 0.091489732 0.017931154
0.088351466 -0.19960454 0.74337655 0.1887432 0.98050016 0.054729879 0.025552129
-0.10105597 -0.19807535 0.722296 -0.51358652 0.84903651 -0.12395886 0.049609695
-0.067980573 -0.19759415 0.77200311 -0.01833595 0.99934083 0.031331912 0.0019888757
-0.26262003 -0.49399662 0.61832076 0.13044797 -0.97952908 0.15331692 2.3967756e-05
0.019540507 -0.1999633 0.77307677 0.003770595 0.99971563 0.023549849 0.00015794643
-0.054310437 -0.20632008 0.63955909 -0.017420668 0.60892624 -0.79303557 0.093937188
-0.010723239 -0.20297433 0.65223354 0.18244258 0.82215774 -0.53923219 0.063285239
0.046604875 -0.20135087 0.81129533 0.0190534 0.99926323 0.033316761 0.0017375012
-0.078127228 -0.42785725 0.62850356 -0.52693629 -0.058275763 -0.8479045 0.16280584
-0.18212663 -0.49408722 0.76187277 0.22449042 -0.9685092 -0.10767563 0.035528038
-0.26188856 -0.49337173 0.67442614 -0.05498917 -0.98864615 -0.13983867 0.00076665793
-0.28352654 -0.49126017 0.68089849 -0.05498917 -0.98864615 -0.13983867 0.00076665793
-0.1417461 -0.40813887 0.8284983 -0.75471449 -0.030085383 0.65536326 0.091419309
-0.2354729 -0.4923977 0.67340118 -0.041193731 -0.98773974 -0.15057655 0.00044717646
-0.1922975 -0.49556109 0.67893338 -0.078682259 -0.99589801 0.044679224 0
0.050406605 -0.20199509 0.86064726 0.12963995 0.97258943 0.19303709 0.021511812
-0.28724158 -0.49158522 0.68526101 -0.11306696 -0.9853456 -0.12771022 0.00018248757
-0.28630644 -0.49533552 0.71212494 -0.11306696 -0.9853456 -0.12771022 0.00018248757
-0.26479629 -0.49486589 0.6932295 -0.05498917 -0.98864615 -0.13983867 0.00076665793
-0.0006208822 -0.20547888 0.87511575 -0.0041002305 0.89059043 0.45478788 0.068149775
0.0088846656 -0.19984016 0.70927197 0.015599535 0.99986476 0.0052127573 0.00064470508
-0.043343522 -0.19886966 0.80627877 0.016227243 0.99920112 0.036520392 0.00072881387
-0.083028458 -0.19914611 0.67439723 -0.44984892 0.84160405 -0.29889545 0.074381351
-0.087636538 -0.19769068 0.68945861 -0.54486221 0.78190613 -0.30289939 0.071088076
-0.22273369 -0.49675468 0.82931036 -0.69273257 0.093289003 -0.71513551 0.013527726
0.0098141162 -0.19981551 0.70906091 0.016784377 0.9998548 0.0029379344 0.0007425631
-0.23848723 -0.49523759 0.84239841 -0.69273257 0.093289003 -0.71513551 0.013527726
-0.14511283 -0.50332057 0.85435438 -0.41041201 0.31920889 0.85420591 0.048519108
-0.056800481 -0.20161815 0.64647037 -0.083179377 0.83732843 -0.54033542 0.086046621
-0.078051679 -0.1946055 0.68306476 -0.34350541 0.90990704 -0.23253642 0.062348753
-0.034957502 -0.19833732 0.68367428 0.042248018 0.99430132 -0.09787783 0.011172821
-0.022847785 -0.1976181 0.67653471 0.077118717 0.98225814 -0.17094353 0.015871296
-0.039381679 -0.19779633 0.72683364 0.070294864 0.99733871 0.019341893 0.00035143032
-0.032948036 -0.19847141 0.73161972 0.056493409 0.99830163 0.014222069 0.00035826664
-0.083135851 -0.20119257 0.82901764 -0.15680012 0.96226162 0.22241032 0.035138942
-0.10920841 -0.201092 0.81152904 -0.34024382 0.93910825 0.048060544 0.08048401
-0.033841334 -0.19843227 0.73404586 0.057250611 0.99823457 0.015812697 0.00035720202
-0.021463314 -0.19770026 0.68157393 0.078782924 0.99074864 -0.1105001 0.011232146
-0.035832487 -0.19882189 0.77720255 0.039411757 0.999026 0.019845825 0.00033422228
-0.033975013 -0.19924703 0.77092749 0.043357551 0.99884391 0.020758379 0.00025579726
0.0056080283 -0.19881822 0.69104785 0.060194325 0.99166811 -0.11388995 0.014298784
-0.030327789 -0.1987758 0.76151997 0.041751236 0.99895412 0.018639989 0.00033021424
-0.036780883 -0.19804057 0.7247957 0.06616918 0.99761075 0.01985845 0.00036328868
-0.0123055 -0.2000995 0.72884721 0.020086851 0.99969763 0.014186779 0.0002205333
0.034958903 -0.19978993 0.77812845 -0.00062335917 0.99974298 0.022662144 0.0001904821
0.024819769 -0.20131265 0.81873667 -0.010947083 0.99948549 0.030147661 0.00026307735
0.029117651 -0.19903234 0.71877581 0.021705462 0.99974275 0.0065789674 0.00056853081
0.046246361 -0.20727168 0.88128328 0.071046494 0.87290162 0.48269585 0.046573967
0.011795135 -0.20176789 0.82154012 -0.0037881155 0.99947071 0.032310057 0.00029248581
-0.05409399 -0.19854046 0.81935078 -0.025257539 0.99449342 0.1017098 0.0039310725
0.015547588 -0.19912653 0.74506319 0.0078338208 0.99989855 0.011891086 0.00021019347
0.02719268 -0.20258138 0.85306817 -0.015503033 0.99508196 0.097834572 0.0047302125
-0.061589904 -0.20359528 0.85614645 -0.13760006 0.94136816 0.30804583 0.020044362
0.08925201 -0.19963329 0.76061732 0.24130423 0.96611512 0.091618598 0.033302914
0.065972693 -0.20191897 0.84036422 0.31014588 0.94611597 0.093134828 0.043251988
0.037631176 -0.19954416 0.74464482 0.010280779 0.99991912 0.0074907131 0.00020697161
0.078530818 -0.20060356 0.79858577 0.25190097 0.96118939 0.11252051 0.027255459
0.047070775 -0.20026985 0.72529942 0.024007302 0.99970543 -0.0035683569 0.00049932842
0.053358875 -0.20130856 0.8368187 0.098990679 0.9923889 0.073247358 0.012374912
0.0087857349 -0.20313236 0.85676402 -0.037344597 0.98129874 0.1888337 0.027751114
0.060905337 -0.2006395 0.74861121 0.020057071 0.99979168 0.0037837434 0.00040250932
0.0019605022 -0.20340292 0.8609193 -0.021002088 0.97239059 0.2324124 0.038693763
0.019657604 -0.20046048 0.77992767 0.00076233083 0.99963158 0.0271303 0.00014404114
0.053568453 -0.20130081 0.80967766 0.05764816 0.99740446 0.04314021 0.0047137379
0.076689333 -0.2002756 0.760629 0.11952752 0.99214882 0.036794942 0.011710725
0.022260636 -0.19946314 0.73970199 0.008054764 0.99991524 0.010227791 0.00019494593
0.026483413 -0.19918129 0.72210968 0.015497161 0.99979639 0.012928531 0.00036368606
0.012096743 -0.19952448 0.75891125 0.0077879499 0.99990022 0.011784376 0.00020406088
0.08901234 -0.19988656 0.76086223 0.24154536 0.9662481 0.089557253 0.033664417
0.043110467 -0.19997957 0.72667527 0.020846779 0.99978191 0.0012711441 0.00037832375
0.03835858 -0.19954698 0.74187964 0.010217601 0.99990934 0.0087655531 0.00021117447
0.078520082 -0.20014374 0.76015425 0.13668376 0.98975813 0.041187312 0.014137892
0.037822105 -0.19959562 0.77666801 0.0017918054 0.99978882 0.020466931 0.00021049591
0.081911899 -0.20058465 0.71303183 0.095926009 0.99201566 -0.081873 0.0072174161
0.022449467 -0.19939607 0.73616588 0.0071031214 0.99988306 0.013544262 0.00018915243
0.018856518 -0.19946842 0.71357006 0.017797945 0.99982899 0.0050072121 0.00072838529
-0.035679054 -0.19884275 0.77614814 0.039456539 0.999008 0.020646738 0.00033697576
-0.014311002 -0.20014104 0.7295723 0.02291166 0.99964058 0.013917184 0.00022733069
-0.025120048 -0.19947253 0.73028797 0.037222262 0.99921119 0.013841182 0.00029550036
-0.024441272 -0.19767292 0.67591327 0.071338937 0.98325032 -0.16771863 0.015095351
-0.034506332 -0.19914065 0.76908642 0.045748126 0.99875098 0.020088335 0.00026340073
-0.046277069 -0.1979637 0.78596884 0.028214797 0.99924666 0.026645862 0.00056513009
-0.037874468 -0.19789995 0.72185683 0.063762844 0.99779248 0.018560657 0.00035352391
-0.0037538025 -0.19824485 0.69306833 0.046038833 0.99574924 -0.079774961 0.010935508
-0.028601266 -0.19941942 0.77034456 0.037488688 0.99913216 0.018153273 0.00024934855
-0.055029627 -0.20164533 0.64638597 -0.050854295 0.85059965 -0.52334893 0.079271682
-0.031366684 -0.19803163 0.69459987 0.051871505 0.99818951 -0.030448196 0.0024812091
-0.040177226 -0.19744442 0.72347325 0.069991648 0.99738145 0.018206013 0.00033551862
-0.038872141 -0.19783691 0.68370402 0.032400355 0.99457163 -0.09888114 0.011470899
-0.084037766 -0.20220961 0.83814889 -0.17170419 0.94818109 0.26733917 0.043363955
-0.070059784 -0.19791122 0.7803961 -0.020934306 0.9989205 0.041468389 0.0013313717
-0.074523978 -0.19865936 0.78991073 -0.04033576 0.99796689 0.049345694 0.0041130041
-0.043733105 -0.19880965 0.82416475 0.002844847 0.99372226 0.11183942 0.0044487324
-0.066629663 -0.19740084 0.77166879 -0.0069371555 0.99944335 0.032630779 0.0013996384
-0.060313057 -0.19573776 0.66653347 -0.10979022 0.94914818 -0.29506609 0.048477061
-0.048663042 -0.20315935 0.64363742 0.016034769 0.78847903 -0.61485255 0.082854196
-0.068283767 -0.19554175 0.73813468 -0.035052363 0.99935889 -0.007286693 0.0074100699
-0.070940599 -0.19531454 0.6854232 -0.21560648 0.96528262 -0.14745626 0.057941094
-0.074864149 -0.19501191 0.73847598 -0.07525643 0.99697918 -0.019209199 0.012789411
-0.093336456 -0.19675483 0.7647453 -0.21289407 0.97703689 0.0086565753 0.025332645
-0.088635877 -0.19305213 0.70893276 -0.3834956 0.91767728 -0.10392093 0.039105184
-0.072790854 -0.19555187 0.68816876 -0.21846406 0.96689939 -0.13182908 0.053480711
-0.11515477 -0.20208678 0.7992714 -0.38079143 0.92464989 0.0045314375 0.072175004
-0.10687907 -0.19888897 0.77048606 -0.38161096 0.92423511 0.012747501 0.047420066
-0.11944816 -0.20226204 0.8128497 -0.39571634 0.91695231 0.051060103 0.097867206
0.046430435 -0.2024782 0.67499095 0.1478435 0.83994538 -0.52214372 0.080952808
-0.094896212 -0.19685641 0.76318997 -0.22558406 0.9742198 0.0027559346 0.028183097
-0.056118701 -0.19722809 0.76067871 0.035997286 0.99889439 0.030234883 0.00081187114
-0.10264929 -0.19912063 0.72497898 -0.50985551 0.85063601 -0.12831929 0.049875736
-0.13458772 -0.20561421 0.82463217 -0.52161956 0.84907115 0.083613187 0.15399028
-0.11056862 -0.40686604 0.71005929 -0.92807758 0.055410758 -0.36824128 0.0015233604
-0.10170569 -0.19806775 0.73459643 -0.46965846 0.87917936 -0.080402538 0.057102874
-0.09692584 -0.19680753 0.73605895 -0.35355183 0.93415278 -0.048577499 0.049559556
-0.11285778 -0.39566001 0.71777648 -0.94037497 0.055856489 -0.335522 0.0014609244
-0.098685481 -0.19808689 0.71299529 -0.56195766 0.81356663 -0.14937511 0.053700209
-0.13708584 -0.21100351 0.83759099 -0.63301241 0.66347182 0.39887387 0.20083284
-0.11006018 -0.29351556 0.72359955 -0.95535415 0.024995351 -0.29440397 0.0021616176
-0.1412009 -0.33112529 0.82809138 -0.64592785 0.10589473 0.7560181 0.10859153
-0.11452533 -0.33680549 0.74238658 -0.988648 -0.0043239351 -0.1501881 0.034396838
-0.10277463 -0.20397624 0.70960331 -0.68007433 0.70598751 -0.19768816 0.066966392
-0.085081518 -0.38819182 0.65521193 -0.83846974 0.047342915 -0.54288775 0.058070589
-0.097525321 -0.35667604 0.68367386 -0.89977735 0.070231654 -0.43066034 0.021394482
-0.1212008 -0.41709146 0.73695761 -0.96844041 0.018394189 -0.24856547 0.0029874188
-0.12997997 -0.46886119 0.77770007 -0.93925571 0.046984185 -0.33998695 0.12340809
-0.11430883 -0.39960894 0.72079748 -0.9440375 0.05195285 -0.32572106 0.0017960852
-0.11292916 -0.30335307 0.73365641 -0.9688943 0.022973698 -0.24640654 0.0015218186
-0.088536792 -0.32230437 0.6760059 -0.85800177 0.08646135 -0.5063175 0.048870783
-0.079361603 -0.28833684 0.65193594 -0.69502741 -0.12534198 -0.70797336 0.092323713
-0.080615826 -0.28206575 0.6385203 -0.33661881 -0.056058887 -0.93997079 0.098069951
-0.14174518 -0.3953155 0.82824028 -0.7474913 0.053454392 0.6621173 0.082178712
-0.024818905 -0.20348389 0.64885294 0.13055532 0.79766315 -0.58880293 0.073674552
-0.12194276 -0.29057023 0.77916974 -0.97389537 0.11391745 -0.1963432 0.040417407
-0.14190774 -0.48057273 0.80044174 -0.97305393 0.18859884 -0.13265213 0.12371796
-0.11243065 -0.33658701 0.72657746 -0.9643538 0.0017810877 -0.26461008 0.013818809
-0.085404336 -0.48075581 0.64503318 -0.62869829 0.44879904 -0.63507313 0.1489442
-0.10150395 -0.26252607 0.70115376 -0.91234994 -0.025583038 -0.40861124 0.0021643601
-0.14083123 -0.35981208 0.82697207 -0.77413207 -0.069257282 0.62922406 0.1133902
-0.11693028 -0.2136212 0.74187601 -0.80617017 0.57877445 -0.12292198 0.065652899
-0.11611307 -0.2729353 0.75648791 -0.98333168 0.028225984 -0.17961653 0.009200667
-0.10884874 -0.43388793 0.69531053 -0.91961718 0.049954046 -0.38962662 0.0077457414
-0.10211133 -0.36329114 0.69279832 -0.91965693 0.060577556 -0.38802248 0.0014762256
-0.13925296 -0.42772815 0.80207837 -0.98940367 -0.032244932 -0.14156495 0.12929077
-0.12959747 -0.26812977 0.8101992 -0.98723572 0.03764008 0.15475444 0.14123318
-0.12453458 -0.23698111 0.79380602 -0.93954623 0.13243183 -0.31577632 0.093243293
0.07803262 -0.20090775 0.70346224 0.08134567 0.98115689 -0.17525379 0.017616825
-0.09583053 -0.35066363 0.68055493 -0.89298052 0.12546127 -0.43225604 0.025105819
0.092401914 -0.20219012 0.69810241 0.16851825 0.95156407 -0.25715256 0.047530223
-0.10993747 -0.34977743 0.717677 -0.95053309 0.03925075 -0.30813336 0.012106707
-0.13846411 -0.3817406 0.8035593 -0.99585062 0.060347211 -0.06811557 0.13768625
-0.12949041 -0.22964637 0.80281341 -0.93421972 0.1942908 -0.29913977 0.11914417
-0.12587228 -0.43503612 0.76680535 -0.99619985 -0.066291578 -0.056492135 0.12726592
-0.12080975 -0.37042663 0.76905316 -0.97795022 0.16431613 -0.12889408 0.11240081
-0.11378869 -0.43433681 0.70978487 -0.94186962 -0.0046729492 -0.33594608 0.0083951876
-0.11323737 -0.48342264 0.72010726 -0.98085284 0.032936111 -0.19194499 0.03367997
-0.11011943 -0.30665872 0.722229 -0.95265859 0.027937543 -0.30275604 0.0022134224
-0.13100521 -0.26998714 0.81338352 -0.95740551 0.021531951 0.28794295 0.14475451
0.011330308 -0.19851615 0.69127893 0.067775182 0.99004179 -0.12338443 0.016144965
-0.018844143 -0.19796155 0.68477505 0.07554923 0.99280375 -0.092914194 0.009766859
-0.10245584 -0.49047253 0.66859579 -0.88505584 0.27534437 -0.37531531 0.037113551
-0.083590195 -0.42646167 0.6347459 -0.71934241 -0.12204879 -0.68384975 0.15634641
-0.080443479 -0.35539359 0.64043683 -0.67608988 0.065782838 -0.73387671 0.10698855
-0.099323809 -0.41323557 0.68529135 -0.88061053 0.025986975 -0.47312757 0.044203732
-0.10733694 -0.46520197 0.704153 -0.96419668 0.054016881 -0.25962853 0.047950387
-0.092396349 -0.37890857 0.6718334 -0.89054334 0.021624237 -0.45438421 0.030822592
-0.11951217 -0.45154345 0.73413771 -0.96962065 -0.044941593 -0.24044964 0.019419013
-0.097739398 -0.3742097 0.68332696 -0.90224493 0.041548491 -0.42921761 0.014870317
-0.08538606 -0.49106392 0.62422645 0.58470476 -0.79899222 0.14047009 0.075222954
-0.10937071 -0.3248468 0.71545213 -0.93373555 0.037803099 -0.35596171 0.0035226154
-0.14255486 -0.34595352 0.81342584 -0.92355376 -0.070196062 0.37698942 0.1345419
-0.13947621 -0.38739181 0.8103447 -0.97916049 0.11335955 0.16850606 0.13368624
-0.10394102 -0.45766297 0.67737269 -0.88216817 0.10631959 -0.458776 0.046908926
-0.012467959 -0.19799484 0.67977774 0.09031298 0.98702294 -0.13277556 0.014216399
0.12797619 -0.20843464 0.70294172 0.58086491 0.79361665 -0.18102068 0.1402131
-0.14111188 -0.20786043 0.83077788 -0.6079371 0.78976911 0.08171466 0.17774042
-0.10302696 -0.38319647 0.69085872 -0.90621996 0.036475275 -0.42123029 0.0089079309
-0.10588017 -0.29346007 0.70683199 -0.91479158 0.02357227 -0.40323773 0.0029543035
-0.11433979 -0.27324504 0.7378009 -0.96549797 0.0063814786 -0.26033226 0.003544614
-0.048052773 -0.19669136 0.68712223 0.0029699213 0.99766994 -0.068160884 0.0083196005
-0.076607943 -0.32644552 0.64272708 -0.66891271 0.0049311747 -0.74332458 0.10712941
-0.10416652 -0.42164436 0.69065249 -0.89666981 0.046543516 -0.44024637 0.04052797
0.020599965 -0.20036566 0.77934211 -0.00062467571 0.9996351 0.027005296 0.00014602425
-0.086197123 -0.20154564 0.82846779 -0.14640751 0.96387827 0.22249393 0.034044787
-0.064976014 -0.198145 0.79877937 -0.016334103 0.99883473 0.045412049 0.0011102998
-0.053153332 -0.1977305 0.80154592 0.0070608011 0.99926245 0.037746064 0.00078972889
-0.081888393 -0.19888853 0.79253978 -0.076560579 0.99556935 0.054590575 0.0054633333
-0.11311845 -0.20214564 0.78555715 -0.43348894 0.90056694 -0.032657318 0.070409507
-0.11291787 -0.20658679 0.8404327 -0.34146985 0.86096478 0.37701201 0.10844241
-0.12203828 -0.29374111 0.77673936 -0.97823906 0.11301927 -0.17399673 0.038243972
-0.11572509 -0.25299531 0.74557984 -0.97602838 8.9366176e-06 -0.21764342 0.0026855899
-0.11360953 -0.35300896 0.72814643 -0.96517259 0.052037757 -0.25638625 0.012065479
-0.090396434 -0.19327833 0.7263329 -0.37127814 0.92324013 -0.098894477 0.045634974
-0.083543569 -0.25221422 0.66416413 -0.86912328 0.0021098033 -0.49459094 0.047819272
-0.054274704 -0.19995274 0.65274107 -0.048679043 0.91764504 -0.39440835 0.057603363
-0.1158525 -0.25653696 0.74907339 -0.9810313 0.00041622855 -0.19384898 0.0070518036
-0.12956934 -0.47119966 0.77342266 -0.95264399 0.067985244 -0.29639074 0.13926733
0.018601051 -0.20001437 0.76832587 0.0048856037 0.99979508 0.019645341 0.00019292037
0.057097223 -0.20004529 0.76430345 0.015437541 0.99981248 0.011690276 0.00053389254
-0.078190796 -0.22542201 0.64621907 -0.6114887 0.3385075 -0.71518838 0.099016286
-0.085589297 -0.27851239 0.67619807 -0.91397047 -0.03119782 -0.40457958 0.019440806
-0.083626017 -0.20971243 0.65222877 -0.66092235 0.49790397 -0.56149203 0.094526924
-0.10254212 -0.42243204 0.68432206 -0.87583292 0.062661082 -0.47852924 0.05497963
0.0087133385 -0.20001143 0.76326054 0.008453479 0.99982333 0.016787371 0.00022023029
-0.081337571 -0.19535476 0.74411362 -0.12618634 0.99184692 -0.017796164 0.021498958
0.075170934 -0.2005596 0.79594874 0.15253337 0.98668134 0.056511957 0.0090197492
0.12037902 -0.20684336 0.74140084 0.69666982 0.67254698 0.24966325 0.093295947
0.12184069 -0.20476292 0.7116493 0.42978066 0.89115548 -0.14536336 0.10710865
-0.10989428 -0.20152994 0.81073308 -0.34024382 0.93910825 0.048060544 0.08048401
-0.092432909 -0.20432051 0.84017169 -0.1812975 0.92958778 0.32093281 0.057064336
-0.061300442 -0.19816375 0.81989717 -0.04012239 0.9917205 0.12198655 0.005820821
-0.069599122 -0.19871691 0.82651538 -0.083683304 0.98228383 0.16767718 0.015218702
-0.059777409 -0.20266064 0.85327923 -0.10616156 0.95879209 0.26352891 0.016293576
-0.062721066 -0.20617968 0.86043721 -0.16328569 0.92165142 0.35198921 0.025773486
-0.052052807 -0.20000385 0.84169513 -0.059541829 0.97832412 0.19833477 0.013271514
-0.14194466 -0.22392607 0.83186048 -0.95292139 0.27730551 0.12264811 0.1636135
-0.14025652 -0.2667214 0.82633275 -0.88388908 0.01696793 0.46738854 0.13866737
-0.12491014 -0.20916964 0.79034722 -0.66522855 0.72685409 -0.17074603 0.090010814
0.069899991 -0.19946687 0.78534418 0.11054691 0.99288183 0.044329282 0.0068493392
0.049690325 -0.20016682 0.72287238 0.028604062 0.99951398 -0.012396363 0.00077964109
0.057502277 -0.20046443 0.74820155 0.014838099 0.99988562 0.0029242039 0.00023652111
0.038826447 -0.19962071 0.75204605 0.0056315688 0.99994868 0.0084164254 0.00022569469
-0.025484785 -0.20041886 0.80562443 0.041947395 0.9986909 0.02927307 0.00023688513
-0.14115605 -0.33402982 0.82848281 -0.64055383 0.084209986 0.76328212 0.10560701
0.079319425 -0.19987446 0.78331566 0.18383223 0.98133671 0.056426678 0.015444379
-0.056336425 -0.19571036 0.67177528 -0.095319338 0.9545294 -0.28246731 0.040723916
-0.078610152 -0.24655107 0.63907993 -0.49020404 0.023177769 -0.87129945 0.069049127
-0.10672071 -0.43194988 0.69073367 -0.9025709 0.051097248 -0.42749843 0.035678443
-0.090807647 -0.49237859 0.64468837 -0.67893028 0.51734573 -0.52096742 0.10091034
0.054219477 -0.20297927 0.67426664 0.14219224 0.81474513 -0.5621137 0.092603438
0.02082934 -0.20155554 0.8211742 -0.0072124354 0.99949515 0.030942291 0.00027756739
-0.124626 -0.39490375 0.74890465 -0.97518349 0.087474324 -0.20338501 0.010731144
-0.067120768 -0.19627364 0.66783798 -0.23979373 0.92457306 -0.29608032 0.082952634
-0.11485569 -0.20970926 0.73603517 -0.77658844 0.62266225 -0.095927455 0.073210523
-0.11330435 -0.20483944 0.75297391 -0.43382153 0.90001029 -0.042195193 0.045271419
-0.11755852 -0.22455274 0.74523067 -0.93026203 0.33206359 -0.15603317 0.053853173
-0.1157978 -0.20443274 0.76099068 -0.50768161 0.86103737 -0.029563352 0.048737772
-0.099797249 -0.24754423 0.69720602 -0.90741169 0.015540136 -0.41995543 0.0028517821
-0.10440376 -0.23327273 0.70662546 -0.92538691 0.13079505 -0.35574123 0.018410362
-0.08251445 -0.19572583 0.7523194 -0.15371534 0.98810863 0.0035990127 0.022999765
0.11776428 -0.20322886 0.73433667 0.49136847 0.8565492 0.15773524 0.07299608
-0.1084298 -0.20222524 0.74289513 -0.48050955 0.87379318 -0.07480672 0.055389248
-0.03185517 -0.19871783 0.73957908 0.048580434 0.99875909 0.010962119 0.00033850622
-0.10398988 -0.20924416 0.70657682 -0.85691613 0.41649526 -0.30368805 0.061682656
-0.068182833 -0.19999495 0.64393073 -0.22934304 0.82020313 -0.52408838 0.086390868
-0.086652324 -0.23887372 0.67342287 -0.91203159 0.11490195 -0.39369524 0.03405983
0.085687667 -0.20201725 0.79966056 0.36734655 0.91848683 0.14641869 0.039240453
-0.082148015 -0.20134507 0.66315025 -0.52029496 0.73281372 -0.43849429 0.090398207
-0.081319384 -0.28200841 0.64081818 -0.43711832 -0.087313943 -0.89515579 0.10413996
-0.094329573 -0.32323009 0.68496865 -0.88850659 0.082432076 -0.45139906 0.019521782
0.06169349 -0.20004053 0.79354906 0.050583158 0.99805582 0.03641272 0.0024285917
-0.011298692 -0.19969556 0.66040218 0.13411036 0.93614781 -0.32502577 0.03147329
0.052880287 -0.20103341 0.83486539 0.093192123 0.99332595 0.067961775 0.011750701
0.049558353 -0.20184271 0.8404153 0.096289687 0.99273294 0.072177306 0.012999836
0.011988817 -0.2027179 0.85507721 -0.048054375 0.98496288 0.16594867 0.022592818
-0.067027122 -0.19840266 0.82108867 -0.072439536 0.98618054 0.14899802 0.013071181
-0.0011590146 -0.20171492 0.81530344 0.024034128 0.99900818 0.03748294 0.00028848473
-0.020706417 -0.20079252 0.8170315 0.040841684 0.99845988 0.037548676 0.00030338246
-0.02863601 -0.19920626 0.72290063 0.045903392 0.99881512 0.016160965 0.00032273389
0.069932073 -0.20071989 0.75170642 0.059905756 0.99814427 0.010923809 0.0030555285
-0.055672266 -0.19742316 0.77545351 0.027712887 0.99918354 0.029396255 0.0005375194
0.046657298 -0.20136839 0.82884252 0.048867151 0.99746907 0.051647644 0.0047061434
-0.14221086 -0.35521093 0.8208158 -0.84047306 -0.064626887 0.53798556 0.12084731
-0.10314427 -0.23337014 0.7042318 -0.9203065 0.13308565 -0.36786434 0.018058266
0.012601228 -0.19942746 0.70060533 0.038935848 0.99824065 -0.044716552 0.0040357998
0.021525314 -0.19821259 0.68813473 0.093509339 0.97647655 -0.19429263 0.02801376
-0.10695408 -0.20507133 0.72085792 -0.60571921 0.78085077 -0.15289296 0.066787183
-0.096353747 -0.20010519 0.70035392 -0.69132298 0.67730075 -0.25166699 0.062963024
-0.098060571 -0.24017344 0.69375378 -0.91011637 0.052515931 -0.41101128 0.0069489968
-0.088585891 -0.20041047 0.68397874 -0.58480936 0.74383348 -0.32358888 0.066386335
-0.11446418 -0.45056251 0.71478742 -0.95450342 -0.012460112 -0.29793957 0.0055051027
-0.097667217 -0.28374532 0.69335324 -0.9070971 0.0042466843 -0.42089996 0.0039056225
-0.076070242 -0.20581076 0.63793188 -0.46792069 0.52873576 -0.70815867 0.11436746
-0.076400734 -0.21349998 0.63700861 -0.50601882 0.4168677 -0.75509351 0.11186553
-0.091997415 -0.37563017 0.67309588 -0.90289611 0.028625524 -0.42890471 0.026573876
-0.10285654 -0.2558217 0.70464694 -0.91457641 -0.02739097 -0.40348446 0.0023341447
-0.09276738 -0.36023331 0.67292196 -0.88564605 0.087405078 -0.4560608 0.040819962
-0.10002907 -0.27258685 0.69705325 -0.90440178 -0.02270652 -0.42607722 0.0027970315
-0.080961071 -0.26413268 0.6431343 -0.5576359 0.00054625567 -0.83008546 0.095513329
-0.098820657 -0.25072604 0.69463682 -0.90367228 -0.023155428 -0.4275983 0.0025147586
-0.097304463 -0.26518098 0.69114828 -0.90839416 -0.024163494 -0.41741604 0.002735436
0.083988756 -0.20091675 0.79081005 0.25520101 0.96218455 0.095254004 0.029158292
0.059866782 -0.20165531 0.83913451 0.23154418 0.96841556 0.092512853 0.034888718
0.051010575 -0.20160195 0.85733736 0.14156458 0.97669888 0.1613033 0.020136625
0.087057479 -0.2164554 0.84296596 0.72835547 0.66939616 0.14631151 0.059396494
0.077663742 -0.2027318 0.81100786 0.31286335 0.94093239 0.12947093 0.042880669
0.075388044 -0.21077821 0.87635672 0.60198379 0.72110814 0.34295547 0.085938752
0.01509693 -0.20140941 0.78980988 0.0029982405 0.99950635 0.031274695 0.00015989231
0.0013011569 -0.20419894 0.87198234 -0.00033078829 0.91627133 0.40055805 0.059142452
-0.04854482 -0.20113139 0.84903419 -0.059291787 0.97534841 0.21255557 0.010398948
0.033230931 -0.20184976 0.82863235 0.0013262683 0.99955946 0.029649248 0.0010175812
-0.14297828 -0.32291314 0.82308143 -0.74064451 0.13454589 0.65828806 0.11954781
-0.094049871 -0.20790271 0.68591225 -0.76837969 0.51209134 -0.38386846 0.060705245
-0.095241077 -0.21667296 0.68666154 -0.85118574 0.34182358 -0.3982957 0.054032892
-0.094501175 -0.44755626 0.65934736 -0.84272426 -0.058035016 -0.53520805 0.1208235
-0.083370447 -0.37426993 0.65078586 -0.74575996 0.094005927 -0.65954906 0.085793585
-0.097373739 -0.22053351 0.6909886 -0.87461412 0.27725661 -0.39771703 0.046497524
0.028281566 -0.31135041 0.88969684 -0.19467302 0.007766068 0.98083746 0.0065751504
-0.09180823 -0.19708076 0.69771552 -0.53418803 0.822613 -0.19481002 0.055816006
0.071212366 -0.21141696 0.88284457 0.40396228 0.73755985 0.5411284 0.1014767
-0.11226235 -0.25969377 0.73016667 -0.95915926 -0.0042134207 -0.28283542 0.0037876822
-0.11502302 -0.33606243 0.74148315 -0.98704535 -0.0072603794 -0.1602772 0.033638835
-0.018730335 -0.20090343 0.65317541 0.11784308 0.88260555 -0.45510501 0.054596495
-0.094828315 -0.42675868 0.67146611 -0.88627332 -0.037962958 -0.46160412 0.09715125
-0.078657739 -0.30783299 0.64519429 -0.56073719 -0.064544834 -0.82547426 0.11018819
0.059169292 -0.20177872 0.86480248 0.24173629 0.94725895 0.21039025 0.042415984
0.10556415 -0.20406599 0.69934201 0.23687795 0.93857926 -0.25091386 0.080441408
0.048356045 -0.20016509 0.74058926 0.012361927 0.9999156 0.0039968444 0.0002007135
0.12052616 -0.2073274 0.69646114 0.40394324 0.87037051 -0.28157571 0.14047448
0.037592527 -0.2006852 0.79715002 -0.0044970727 0.99957585 0.028773375 0.00031737925
0.043868467 -0.20135662 0.80806774 0.0082758144 0.99951315 0.030081432 0.0009709163
0.11108444 -0.2126853 0.77856123 0.78039807 0.5368706 0.32054448 0.086732738
0.0085715689 -0.20394152 0.86423558 -0.01102501 0.9631114 0.26887697 0.045456115
-0.087274954 -0.20452401 0.84483409 -0.20881076 0.90308911 0.37527075 0.060225859
-0.078533716 -0.33962166 0.64122343 -0.66582084 0.11019606 -0.73792911 0.097870849
-0.089452654 -0.33267772 0.67518169 -0.8700344 0.12332961 -0.47731531 0.042097803
-0.083510831 -0.35026461 0.65529376 -0.77122343 0.085960031 -0.63073397 0.095608175
-0.079061739 -0.3084929 0.65686661 -0.73035282 -0.036886085 -0.68207353 0.10405628
-0.13105844 -0.4405334 0.77833712 -0.97352475 0.0047159418 -0.22853294 0.11683321
-0.1423178 -0.34092903 0.81047672 -0.93517101 -0.067717522 0.3476631 0.13227001
-0.11327465 -0.32122108 0.73244971 -0.96722156 0.020166708 -0.2531321 0.00092847279
-0.14006931 -0.22645229 0.83408338 -0.94213194 0.18747526 0.27792165 0.15298508
-0.13310482 -0.30360278 0.80874699 -0.99479896 0.091276959 -0.045205683 0.1083625
-0.11662091 -0.22945756 0.76373959 -0.9261499 0.28328913 -0.24898513 0.064238392
-0.11970008 -0.23183399 0.77747202 -0.93742615 0.27366582 -0.21526581 0.081694275
-0.090105236 -0.40482759 0.64899892 -0.85384703 0.052960578 -0.51782268 0.064998835
-0.097177245 -0.41901177 0.67784911 -0.87778801 0.040237851 -0.47735643 0.074416034
-0.082351863 -0.37137344 0.63826388 -0.66589195 0.12273743 -0.73588276 0.090002075
-0.082649127 -0.41462266 0.63612717 -0.67418057 -0.038017299 -0.73758733 0.12825133
-0.08896485 -0.43857679 0.64820063 -0.80237913 -0.12462502 -0.5836578 0.13345756
-0.080168664 -0.45977589 0.63218391 -0.38664687 -0.0071006403 -0.9222005 0.19357537
-0.14394005 -0.4763397 0.80169213 -0.98485398 0.0091745201 -0.17314263 0.11695965
-0.013177739 -0.20808576 0.87653369 -0.10817839 0.78581351 0.60892898 0.084226534
-0.0075658481 -0.30900705 0.87973768 -0.2981497 6.5796412e-05 0.95451915 0.00020295386
0.062343631 -0.33440146 0.89728218 0.26894784 0.058955852 0.96134865 0.054515935
0.064406648 -0.38955545 0.89408433 0.34166989 -0.055557061 0.93817651 0.068499297
-0.11626285 -0.42804393 0.83771092 -0.51894033 -0.073920481 0.85160828 0.093216211
0.067939013 -0.36911011 0.89370888 0.38030058 -0.048118781 0.92361039 0.062141467
-0.058719683 -0.20930246 0.86525744 -0.17174314 0.91036034 0.37649485 0.022154532
-0.047854897 -0.43970966 0.86631948 -0.33819717 -0.023178538 0.94078976 0.0014912278
-0.064262249 -0.3313247 0.86248589 -0.35300267 -0.0030822516 0.93561727 0.0034582652
0.0073775924 -0.42728001 0.88381922 -0.2632556 -0.018364364 0.96455133 0.00039349761
-0.11834189 -0.21146642 0.84345591 -0.44350886 0.65711957 0.60950285 0.14234443
-0.11964968 -0.21307713 0.84382492 -0.46610239 0.61833447 0.63278043 0.14450268
-0.039670017 -0.29560804 0.86847997 -0.30009067 0.00055640173 0.95391047 0.00061067828
-0.045812927 -0.33226439 0.86685789 -0.29878473 0.011724588 0.95424849 0.00068118831
0.067249641 -0.43529049 0.89203227 0.39286426 -0.023165517 0.91930467 0.053161256
-0.081786171 -0.21070562 0.85549337 -0.29825419 0.76466268 0.57125789 0.086377174
0.058620088 -0.34427968 0.8978883 0.20163901 0.029365314 0.97901964 0.0490584
-0.050553147 -0.35914057 0.86704051 -0.32726735 0.0071733175 0.94490457 0.0018159137
0.0068588709 -0.48080504 0.88219595 -0.27175373 -0.016863298 0.962219 0.0012982242
0.063966081 -0.46069303 0.89228773 0.27442116 0.0032469311 0.96160418 0.047784511
-0.06669686 -0.29695401 0.86084664 -0.37753686 0.039544478 0.92514974 0.0056245858
-0.025584357 -0.29169068 0.87302572 -0.30755955 -0.0019807781 0.95152676 0.00019583965
-0.095837273 -0.35902333 0.84655583 -0.47176546 -0.015888007 0.88158095 0.045281883
-0.044989116 -0.25794864 0.86597669 -0.30177292 -0.023013165 0.95310205 0.0014351212
-0.023871163 -0.48348707 0.87199467 -0.28846747 -0.0075742994 0.95745981 0.00030087342
-0.044182088 -0.44279167 0.86731809 -0.313218 -0.027957305 0.94926965 0.00044308824
-0.093434043 -0.43446559 0.84505343 -0.50356567 -0.061087724 0.86179459 0.073609829
0.032200523 -0.48731327 0.88855332 -0.10990214 -0.013890579 0.9938454 0.0097397892
-0.027626937 -0.33364388 0.87229204 -0.29265293 0.008183443 0.95618373 0.00043465794
-0.021106493 -0.38887441 0.87628412 -0.27954593 0.0045379074 0.96012157 0.00026194216
-0.067610867 -0.30201447 0.8606385 -0.39267445 0.025962291 0.91931105 0.0068670101
-0.023101375 -0.29307783 0.87397867 -0.30334869 -0.0017803769 0.952878 0.00038691267
0.066190772 -0.49897206 0.8908332 0.37599272 -0.092277393 0.92201656 0.07960283
-0.032750022 -0.33262706 0.87051678 -0.29407433 0.011411699 0.95571446 0.00059929345
-0.01846496 -0.44339621 0.87489468 -0.28889087 -0.031899869 0.95683038 9.4029507e-05
-0.051216181 -0.34987774 0.86640799 -0.31073657 0.0080983918 0.95046157 0.0014609697
0.016903171 -0.37877393 0.88595617 -0.25315943 -0.011846926 0.96735197 0.00074478512
-0.049361054 -0.31146553 0.86554235 -0.29404166 0.0076855235 0.95576173 0.00055821228
0.0070154499 -0.44667712 0.88321352 -0.27792969 -0.020255333 0.96038783 0.00026486581
-0.026121661 -0.43030208 0.87349075 -0.29740167 -0.032383591 0.95420313 0.00015672477
-0.020782657 -0.21262655 0.87846357 -0.17133425 0.60960656 0.77396667 0.077921227
-0.049224723 -0.30929869 0.86549455 -0.29316267 0.0082155056 0.95602727 0.00053996575
-0.021226669 -0.48248634 0.87291974 -0.28765598 -0.0088756792 0.95769274 0.0001998451
0.033639032 -0.23829097 0.89219081 -0.069178313 0.19436711 0.97848654 0.028979922
-0.049572397 -0.47469699 0.86554629 -0.32826605 -0.0053801835 0.94457 0.0023570489
-0.12117255 -0.33150944 0.83523792 -0.58603817 0.075260177 0.80678076 0.10820282
-0.12112091 -0.3602162 0.83585721 -0.58282262 -0.051463272 0.81096816 0.087128744
0.028276794 -0.42073181 0.88827419 -0.15194903 -0.022216797 0.98813862 0.0051090107
0.021103967 -0.30847591 0.88748312 -0.26638293 0.0054764617 0.96385163 0.00079412042
0.039621845 -0.26208299 0.89316553 -0.00080896093 -0.003740076 0.99999267 0.029793177
0.056618057 -0.35208046 0.89746034 0.12882803 -0.031146456 0.99117762 0.050509736
0.05296633 -0.48062876 0.8927266 0.095274262 0.024388902 0.99515224 0.040898781
-0.093696065 -0.34643453 0.84761298 -0.47206503 0.02384899 0.88124102 0.03368064
0.0028845181 -0.34589288 0.8826139 -0.29050219 -0.0032598523 0.95686871 0.00019616143
0.037526552 -0.32480684 0.89292687 -0.087070569 0.021937422 0.99596053 0.019462904
-0.022404725 -0.21363693 0.87802893 -0.18399885 0.55042231 0.81435847 0.082345538
-0.018810868 -0.31946945 0.87536472 -0.29948026 0.0019269405 0.95410055 0.00032127695
0.024309168 -0.3636066 0.8876977 -0.22125015 -0.023219507 0.97494066 0.0025279454
0.036964867 -0.20931661 0.88882649 -0.013905078 0.77226126 0.63515288 0.050740805
0.015343131 -0.49688295 0.88545638 -0.23828906 -0.025401546 0.97086203 0.0019783103
-0.095527165 -0.39314327 0.84465837 -0.4586477 0.014810424 0.88849485 0.044026621
-0.0017988321 -0.38057512 0.88092953 -0.26514909 0.0097079193 0.96415854 0.00042020023
-0.094679043 -0.2816084 0.84836316 -0.56066656 -0.086552903 0.82350576 0.0321596
