# .PCD v0.7 - Point Cloud Data file format
VERSION 0.7
FIELDS x y z normal_x normal_y normal_z curvature
SIZE 4 4 4 4 4 4 4
TYPE F F F F F F F
COUNT 1 1 1 1 1 1 1
WIDTH 586
HEIGHT 1
VIEWPOINT 0 0 0 1 0 0 0
POINTS 586
DATA ascii
-0.30992669 -0.16450174 1.2695651 -0.35490382 0.19780923 0.91373676 0.15586767
-0.12333512 -0.075857528 1.2528512 -0.035117868 0.97559929 0.2167317 0.020899126
-0.32989872 -0.22077519 1.2485938 -0.93842572 0.32970622 -0.1032035 0.084963746
-0.34177426 -0.26951942 1.2204214 -0.9493264 0.29189897 -0.11650883 0.021724842
-0.3326987 -0.34051752 1.1066027 -0.9784835 0.10847514 -0.17550838 0.00034964617
-0.31263736 -0.21760347 1.2758141 -0.51813495 0.19879831 0.83187467 0.13199125
-0.24241214 -0.23535717 1.00792 -0.6028356 0.76889062 0.21306466 0.049477186
-0.35476488 -0.33534548 1.2424942 -0.9909786 0.12830719 0.038713891 0.016520564
0.025079424 -0.15303093 0.96556324 0.80088854 -0.13947292 -0.58234435 0.20769028
-0.18773974 -0.34984249 0.84975028 0.13252538 0.10025574 -0.98609632 0.0040549813
0.084066719 -0.28552279 0.89866781 0.21678361 0.28407633 -0.9339729 0.015667567
0.039612181 -0.19087309 0.95552754 -0.27144709 0.60574847 -0.74792057 0.20144191
0.05829867 -0.24700336 0.90506589 0.058365081 0.49784371 -0.8653006 0.024992645
0.043826912 -0.16104095 0.95302296 0.15605882 -0.52726138 -0.83524919 0.22520582
-0.13032596 -0.37912732 0.8523885 0.14572126 -0.062284164 -0.98736316 0.023217384
0.13476105 -0.3959302 0.89550859 0.46386409 -0.20929962 -0.86082733 0.091922566
-0.31014979 -0.26972175 1.012615 -0.90201414 0.4278774 -0.057370849 0.040142085
-0.29944921 -0.41950816 0.86155826 -0.65837908 -0.49564111 -0.56645989 0.10021908
0.14641686 -0.39300212 0.90175629 0.58146375 -0.16815241 -0.79600543 0.093266137
-0.32132772 -0.35197029 1.0278043 -0.99152982 0.057721682 -0.11634829 0.0040703812
0.061312031 -0.14300655 0.94158632 0.1221017 -0.14792891 -0.98143172 0.15791553
-0.1180438 -0.10097031 0.89822364 0.052700806 0.91259086 -0.40546334 0.0072967908
-0.046848904 -0.27398562 0.88246578 0.076490231 0.51045567 -0.85649538 0.048249625
0.015993107 -0.4089672 0.87469792 0.20456238 -0.29157925 -0.93441737 0.064538002
-0.11865368 -0.30426604 0.86902261 0.15650894 0.21087459 -0.96490258 0.0050167753
-0.043768715 -0.38524416 0.86891615 0.11300181 -0.10388589 -0.98814899 0.037477981
-0.20881581 -0.34817728 0.84721804 0.062532812 0.11797989 -0.99104506 0.0046316399
-0.30776802 -0.37061539 0.89888889 -0.94244295 0.014608217 -0.3340477 0.029934721
-0.20348457 -0.24077359 0.87985212 0.2929996 0.41820195 -0.85980135 0.045530979
0.020494912 -0.27582312 0.89240021 0.079585545 0.40072399 -0.91273564 0.036909536
-0.33860758 -0.2630015 1.2192309 -0.93733531 0.3211441 -0.13516228 0.022745788
-0.29061711 -0.23936476 1.1718842 -0.61668223 0.71831203 -0.32207263 0.045409102
-0.30788445 -0.24509658 1.1062676 -0.44496849 0.89547062 0.011630843 0.031451572
-0.33957767 -0.25077727 1.2697699 -0.91053891 0.20138247 0.36105946 0.056334294
-0.27198505 -0.1721155 0.89656556 -0.96042997 0.24558909 0.13137858 0.15208729
-0.30329397 -0.098015852 1.1670612 -0.61659408 0.78685093 -0.026024939 0.056784298
-0.12405126 -0.39332765 0.85654855 0.12509622 -0.27188617 -0.95416403 0.040968936
-0.20586565 -0.23174682 1.0622919 -0.33790356 0.92478704 0.1749001 0.042997684
-0.17639233 -0.31134728 0.8581503 0.13169324 0.22462884 -0.96550447 0.0047818478
0.068200871 -0.28939721 0.89437103 0.14055824 0.27990618 -0.949682 0.01178573
0.031526312 -0.17991184 0.96166492 0.72796774 -0.67021859 0.144465 0.22165899
-0.33761573 -0.37001029 1.1135089 -0.97894937 0.0053364201 -0.20403345 0.019063998
-0.081925444 -0.23970047 0.92958671 0.086261518 0.94853151 -0.30470803 0.023099961
-0.32336953 -0.35768768 1.0419383 -0.9917748 0.036102191 -0.12279814 0.0057411809
-0.23156838 -0.39725563 0.84029865 0.007597297 -0.2413384 -0.9704113 0.043258749
-0.31910387 -0.3590188 0.99390274 -0.99530607 0.026099894 -0.093191251 0.010091788
-0.27443108 -0.2032101 1.1928009 -0.32356581 0.85586447 -0.40348631 0.13780904
-0.14738548 -0.28181899 0.86770827 0.10938226 0.47705084 -0.87204242 0.02392976
-0.1770356 -0.24246684 0.89866996 0.35628968 0.62541205 -0.69420266 0.06683743
-0.27603325 -0.23988053 1.0680021 -0.28459725 0.95843065 -0.020374792 0.022417635
-0.33253402 -0.27690792 1.1482617 -0.90571594 0.40273842 -0.13221319 0.033549961
-0.21772176 -0.35197961 0.84564519 0.026627753 0.099619336 -0.99466926 0.0082525834
-0.039122008 -0.073488653 1.1284127 0.010579816 0.99992263 0.0065319962 0.0001200065
-0.21480845 -0.28674927 0.85661572 0.091621131 0.3360939 -0.93736142 0.015780739
-0.25532028 -0.38034332 0.83949935 -0.16407655 -0.072570436 -0.98377454 0.039605808
-0.18317877 -0.2845909 0.86192912 0.10932557 0.39491343 -0.91219038 0.02329536
0.035631008 -0.26320136 0.89897829 0.049804881 0.50137931 -0.86379302 0.033769038
-0.042131208 -0.32476655 0.87668604 0.11592218 0.13645968 -0.98383981 0.0023391158
-0.25206727 -0.17098722 0.95407975 -0.99351263 -0.10145197 0.051382225 0.20448801
-0.15433297 -0.24307348 0.90017277 0.22219457 0.73678619 -0.63857311 0.059632346
-0.045828428 -0.34850809 0.87409496 0.12213418 0.11635907 -0.9856692 0.0033159894
0.048047002 -0.2881636 0.89239752 0.11284685 0.28974491 -0.95042801 0.014562403
-0.054305915 -0.39791304 0.86691314 0.13447565 -0.18890816 -0.97274357 0.054615468
-0.074976966 -0.073636837 1.2511442 -0.00059930538 0.98510069 0.17197791 0.036545228
-0.28589231 -0.091491766 1.0700055 -0.42849529 0.8914398 -0.1474003 0.020613166
-0.21401873 -0.074986041 1.0821518 -0.14080772 0.98986512 -0.018447151 0.005901217
-0.28169742 -0.24214573 0.94989634 -0.83621794 0.54813302 -0.017022144 0.029317874
-0.35799018 -0.36675507 1.2513176 -0.98850548 0.030996941 0.14797306 0.053298663
-0.29161853 -0.24752012 0.96347314 -0.8148309 0.5791055 -0.026217159 0.027616579
-0.31993511 -0.41839355 0.97615564 -0.88986677 -0.44308218 -0.10869801 0.088969432
-0.31841543 -0.33984217 1.009106 -0.98666614 0.11816666 -0.11192171 0.00036720125
-0.2775377 -0.23992407 1.0352087 -0.38527194 0.92262155 -0.018305128 0.024732398
-0.31649363 -0.3540369 0.97536308 -0.99091643 0.068613522 -0.11565848 0.0053699357
-0.29901674 -0.30161327 0.90133309 -0.89938396 0.18389525 -0.39659941 0.02529872
-0.3095479 -0.32326916 0.95250428 -0.97981989 0.14498995 -0.13758944 0.00092642382
-0.31767049 -0.42162257 0.96568626 -0.85617077 -0.50276428 -0.11916268 0.088857032
0.039919425 -0.17295268 0.95591646 0.71328437 -0.69924182 0.047815334 0.2675558
0.042876527 -0.14671245 0.95344108 0.083708718 -0.31541315 -0.94525522 0.20699888
-0.072914526 -0.073235884 1.1489931 0.0037071868 0.99996024 0.0081143426 0.0001751791
-0.066862978 -0.3907181 0.86614275 0.12933587 -0.1456773 -0.9808417 0.046222515
-0.26517919 -0.17598267 0.88882399 -0.8905046 0.2137261 0.40164986 0.1727815
-0.31867132 -0.39759949 0.9470315 -0.94677711 -0.27419433 -0.16861364 0.064262025
-0.31169966 -0.11713064 1.236012 -0.78460097 0.46340933 0.41188961 0.078230396
-0.30555001 -0.27704254 0.96231532 -0.91629243 0.39470688 -0.067931071 0.035570193
-0.11027769 -0.38193241 0.85825825 0.13493402 -0.081076488 -0.98753196 0.036108103
-0.064587422 -0.30309057 0.8761521 0.12932804 0.17567733 -0.97591585 0.0078851497
-0.22884442 -0.073499814 0.96328217 -0.26176023 0.96164763 -0.081947252 0.034836326
-0.2669813 -0.28383663 0.85565525 -0.44291139 0.31787407 -0.838323 0.056453489
-0.29622126 -0.26889443 0.90734923 -0.92833227 0.24165815 -0.28248969 0.033570409
-0.19771324 -0.073704764 0.97662449 -0.12288816 0.99206078 -0.026718533 0.010010995
-0.10684182 -0.38329366 0.85739487 0.1233708 -0.085649423 -0.98865759 0.040274512
-0.31862262 -0.31520778 1.0313631 -0.97958606 0.15766151 -0.12471554 0.0023853448
-0.05857832 -0.36730051 0.87026495 0.12583436 0.010214779 -0.99199867 0.023313701
-0.11957717 -0.24641539 0.88854784 0.086202204 0.704759 -0.70419031 0.042930339
-0.24626222 -0.30340087 0.85154867 -0.11999695 0.21653026 -0.96887326 0.029201822
-0.10054307 -0.29007754 0.87233865 0.15407802 0.28499171 -0.94606537 0.018622082
0.064835586 -0.35839856 0.88545477 0.18476577 0.048645582 -0.98157793 0.0076277112
-0.3205269 -0.40232858 0.96629691 -0.95886952 -0.26782 -0.09403044 0.065738708
-0.14090754 -0.34409931 0.85697049 0.16700774 0.13286817 -0.97696185 0.0010582022
-0.27803865 -0.11653877 1.0209769 -0.98545545 -0.082096979 -0.1487868 0.13369305
-0.054553423 -0.28194135 0.88028938 0.11734477 0.43877664 -0.89090133 0.044077322
-0.25215328 -0.27524018 0.85568541 -0.24947749 0.36033958 -0.89884168 0.05671842
-0.29298118 -0.39110172 0.8546024 -0.65991527 -0.19113787 -0.72662103 0.073454514
0.11117515 -0.16825792 0.93414629 0.22908323 -0.086332224 -0.96957076 0.16020729
-0.31165123 -0.11917779 1.2282634 -0.82799023 0.42649418 0.36405337 0.088815436
-0.31430295 -0.38081649 0.92451519 -0.97779626 -0.088949874 -0.18974318 0.03244634
0.00099462445 -0.23695989 0.94590074 -0.32666016 0.7007491 -0.63422698 0.033296306
0.022412753 -0.25694093 0.90071464 0.051698402 0.57205325 -0.81858557 0.035317689
-0.31073862 -0.33705881 0.95081377 -0.98177922 0.12657943 -0.14172968 0.00067398004
-0.025434254 -0.20524406 0.99568665 -0.45720601 0.59229028 -0.66344166 0.044444095
-0.14824852 -0.26310855 0.86946738 0.095257364 0.58239478 -0.80730569 0.032505527
-0.15920998 -0.3285937 0.85714072 0.15903102 0.14852262 -0.97603798 0.00078038563
-0.063332871 -0.23847987 0.94016236 0.043570135 0.94852197 -0.31369996 0.021759003
-0.079299785 -0.31502783 0.87293833 0.14892426 0.16853224 -0.97438103 0.0061831363
0.13085675 -0.32906175 0.90607285 0.51760685 0.1624369 -0.84005797 0.027482638
0.10261489 -0.28651464 0.90148425 0.29029274 0.24698099 -0.92451632 0.017915567
-0.11683363 -0.37973395 0.85811192 0.14804974 -0.06018126 -0.98714709 0.029346066
-0.25613663 -0.38801175 0.83940268 -0.1545739 -0.13576201 -0.97860903 0.04626314
0.019750953 -0.3777312 0.87579095 0.15244299 -0.087208673 -0.98445708 0.02757144
0.072034359 -0.28823137 0.89604765 0.16567379 0.27835086 -0.94608295 0.01235753
-0.24138081 -0.34840548 0.84545654 -0.061678518 0.10126891 -0.99294531 0.01392466
-0.091540433 -0.3444494 0.8682456 0.16339846 0.11844587 -0.97942412 0.0034295602
-0.21481381 -0.38989288 0.84214056 0.10108158 -0.23279028 -0.96725971 0.044790447
-0.072350152 -0.29403019 0.87639976 0.13432273 0.25001401 -0.95887971 0.019635489
0.011509859 -0.28203979 0.89076626 0.091212705 0.37618858 -0.92204255 0.033578828
-0.14266422 -0.28172147 0.86855674 0.094695218 0.46801955 -0.87862992 0.024791351
-0.027646737 -0.33401394 0.87667048 0.11065942 0.12853865 -0.98551124 0.0019328125
0.12185015 -0.37645137 0.89494437 0.41743502 -0.057821646 -0.9068653 0.052719567
0.0031936322 -0.346921 0.87873733 0.1035198 0.12551242 -0.98667639 0.0028006718
-0.13481309 -0.091738366 0.90273881 0.085630834 0.90399724 -0.41887519 0.0065201982
-0.13696817 -0.38672176 0.85334206 0.13728921 -0.20527807 -0.96902657 0.034154866
0.0022902831 -0.23465121 0.94550431 -0.33116326 0.69072443 -0.64283013 0.033272296
-0.0030079507 -0.25865844 0.90698403 0.029876679 0.71671569 -0.69672525 0.048630759
-0.053701021 -0.10387842 0.92084008 0.046059042 0.92506832 -0.37699765 0.011096326
-0.12578225 -0.07960964 0.93198901 0.05345355 0.95454222 -0.29324365 0.0086043132
-0.19471128 -0.28037587 0.86008108 0.12797697 0.39537305 -0.90956146 0.020698538
0.11183781 -0.34421286 0.89640284 0.3422268 0.13326028 -0.93011963 0.013001939
-0.28336847 -0.40579969 0.84661031 -0.5404079 -0.28764179 -0.79070944 0.084102787
-0.066142038 -0.25622553 0.888363 0.055423796 0.67838943 -0.73260903 0.045369662
-0.038899131 -0.10313903 0.91117579 0.051668867 0.89120913 -0.45064038 0.013649095
-0.34564027 -0.2831611 1.2380908 -0.97191638 0.22940725 0.052448038 0.043781832
-0.029545376 -0.39671502 0.86679536 0.096973896 -0.16413984 -0.98165894 0.05326109
-0.0085338829 -0.39310354 0.86906832 0.1387618 -0.14691205 -0.97936821 0.045508519
0.036030926 -0.34831151 0.88160193 0.14722426 0.10305644 -0.98371971 0.0047316649
0.041381303 -0.39416093 0.87778431 0.19883426 -0.19760385 -0.95990503 0.050208412
0.0060355416 -0.40349275 0.87262076 0.16987292 -0.2295959 -0.95834702 0.050824605
0.0048816544 -0.36565304 0.87566543 0.12457339 0.0034273677 -0.99220449 0.014257806
0.023080371 -0.34281465 0.88139671 0.11697362 0.13220814 -0.98429585 0.0036762916
0.026888287 -0.36044887 0.87916964 0.14199154 0.034606945 -0.98926276 0.012326466
0.10976163 -0.29626831 0.90281278 0.34013671 0.20336464 -0.91812301 0.016289897
0.13288243 -0.40239155 0.89475799 0.43073508 -0.2825166 -0.85711819 0.1016247
0.094472811 -0.36886564 0.88927567 0.23216428 -0.009466216 -0.9726305 0.020489004
-0.0046787923 -0.40839776 0.87149715 0.1616116 -0.27266097 -0.9484396 0.062510177
0.1227165 -0.29481131 0.90992862 0.46940979 0.2326154 -0.85178906 0.045055918
0.067196727 -0.35379967 0.88456291 0.18562289 0.079464242 -0.97940266 0.0039703534
-0.057903573 -0.38649768 0.86829853 0.13444363 -0.11074629 -0.98471332 0.039691437
-0.022425227 -0.40819591 0.86732668 0.10716513 -0.24466212 -0.96366805 0.063946798
-0.099581145 -0.34941474 0.86485279 0.15908211 0.10532369 -0.98163116 0.0030120418
0.022049133 -0.33942267 0.88118768 0.11924175 0.13829266 -0.9831869 0.003220831
-0.024192587 -0.20861031 1.0022248 -0.33434522 0.88817877 -0.31520116 0.096811913
-0.07108409 -0.10443374 0.9085322 0.035832692 0.92294419 -0.38326225 0.0095513649
-0.067937665 -0.09608715 0.91075772 0.035060618 0.92818087 -0.37047389 0.010166147
-0.062213097 -0.36609858 0.86981046 0.13223308 0.017720703 -0.9910602 0.021689685
-0.04141191 -0.2378857 0.96852976 -0.075300753 0.95932192 -0.27208698 0.016896755
-0.061876718 -0.23480172 0.9923858 0.0011162333 0.87788939 -0.47886226 0.049311288
-0.074167341 -0.24714904 0.90304381 0.031226365 0.8117317 -0.58319515 0.045823041
-0.1231275 -0.30279908 0.86820948 0.1538296 0.22673275 -0.96173215 0.0067730271
-0.13520382 -0.38754025 0.8535288 0.13315281 -0.19704853 -0.97130948 0.031951424
-0.19292112 -0.073021144 1.0036341 -0.037317086 0.99907738 0.021256229 0.022849761
-0.18287522 -0.36096552 0.84810543 0.13252747 0.036494415 -0.9905073 0.010447864
-0.17509793 -0.23720452 0.92656571 0.57933736 0.63577121 -0.51006198 0.083823398
-0.1793669 -0.24276999 0.89537776 0.35218367 0.60206991 -0.71657413 0.06460955
-0.21901837 -0.27842841 0.85637158 0.072901696 0.37685058 -0.92340082 0.019193117
-0.21878268 -0.29987526 0.85560799 0.052941721 0.26515338 -0.96275169 0.011419841
-0.076058492 -0.21516083 1.01064 0.047005203 0.79309016 -0.60728782 0.06581635
-0.21416223 -0.29374206 0.85609341 0.08943785 0.30642042 -0.9476853 0.012940663
-0.14623596 -0.28390664 0.86789602 0.10926012 0.4567717 -0.88284868 0.021917462
-0.10878702 -0.38226795 0.8562535 0.13365786 -0.081861444 -0.98764074 0.037320282
-0.23075391 -0.17778794 0.88449878 0.43307188 0.10986368 -0.89463884 0.12782311
-0.23105247 -0.40341958 0.84159505 0.052260011 -0.31923935 -0.94623202 0.048604354
-0.26411638 -0.33453673 0.84484136 -0.21568708 0.12016223 -0.96904075 0.035324011
-0.26806653 -0.3313272 0.84640872 -0.25901717 0.12809218 -0.95734143 0.039644495
-0.26594976 -0.28355503 0.85464865 -0.42071366 0.32366359 -0.84749156 0.05611356
-0.1914444 -0.098077431 0.89220625 0.037022658 0.23317234 -0.97173035 0.086287163
-0.20631725 -0.091182835 0.89176095 -0.048563771 0.4357757 -0.89874417 0.085418791
-0.28290561 -0.24045773 1.0563419 -0.30995679 0.95070386 -0.0094309952 0.021348555
-0.28138316 -0.10052768 1.0154078 -0.51106018 0.84888792 -0.13493213 0.028154183
-0.28792915 -0.092050523 1.0727987 -0.43813413 0.88690299 -0.14642935 0.020506503
-0.28489277 -0.2439869 0.96625984 -0.76808858 0.64034027 0.0020707524 0.031525888
-0.28517869 -0.24438891 0.97095728 -0.73047262 0.68292099 0.0053546578 0.037873711
-0.28578472 -0.24194013 1.0303072 -0.43007141 0.9022603 -0.031063942 0.029385157
-0.28660026 -0.24732716 0.88922286 -0.9071399 0.22932962 -0.35285294 0.044723988
-0.26931602 -0.1026633 0.95198339 -0.85332233 0.49232036 -0.17164439 0.099218458
-0.30363482 -0.10031192 1.1634313 -0.64296257 0.76567215 -0.018581877 0.048690386
-0.034485985 -0.28765225 0.88222462 0.11090695 0.36918598 -0.92271417 0.035142347
-0.13802458 -0.28525349 0.86900103 0.09441942 0.43087128 -0.89746022 0.025443213
-0.14923471 -0.26382637 0.86975354 0.096347138 0.58233058 -0.80722266 0.032419078
-0.2719889 -0.27791747 0.86014336 -0.50694007 0.2938526 -0.81034708 0.054253668
-0.26003537 -0.29505444 0.85191959 -0.25487518 0.2720255 -0.92792284 0.051605769
-0.27101129 -0.094583839 0.95790172 -0.74590468 0.64463335 -0.16755295 0.08618705
-0.27048153 -0.094871946 0.94781095 -0.76880646 0.59658927 -0.23025611 0.075175829
-0.27078074 -0.10495644 0.96057302 -0.91187859 0.38763154 -0.13497829 0.11547391
-0.29339558 -0.32068214 0.87909055 -0.83820611 0.17801255 -0.51548231 0.027639899
-0.27250344 -0.090801731 0.97958553 -0.59251779 0.79985094 -0.095713712 0.082562484
-0.11770849 -0.078537837 1.270551 -0.076442458 0.96053576 0.26744643 0.02313813
-0.28165314 -0.091672197 1.0600814 -0.42873237 0.89766562 -0.10190702 0.019987596
-0.25450861 -0.23802638 1.1098065 -0.25438452 0.95914441 -0.12381627 0.023406141
-0.23923352 -0.23828951 1.0723487 -0.25949776 0.96462446 0.04648152 0.016289329
-0.28398702 -0.24235593 0.95387578 -0.83106905 0.55589724 -0.017392151 0.028261079
-0.21176714 -0.23556674 1.0892736 -0.32108513 0.94692457 -0.015433984 0.033819858
-0.25493944 -0.23565812 1.1483988 -0.37519366 0.88400328 -0.27886897 0.037307654
-0.23679756 -0.23408113 1.0316192 -0.43599936 0.87309813 0.21818386 0.05272137
-0.21342793 -0.23527932 1.0971389 -0.30774644 0.94677663 -0.094372153 0.031084178
-0.29346514 -0.24251571 1.0710357 -0.37079269 0.92803669 -0.035505254 0.041402109
-0.2855573 -0.24154256 1.0456245 -0.37497231 0.92613965 -0.040756699 0.029221481
-0.33225307 -0.33775842 1.1051283 -0.97873545 0.10777722 -0.17453085 0.00035781137
-0.22430284 -0.23697175 1.0723815 -0.29189655 0.95064092 0.10525405 0.028760398
-0.26611805 -0.23879212 1.0510015 -0.33466133 0.94194579 0.027200159 0.022867028
-0.26469675 -0.23848358 1.0560726 -0.3188467 0.94764698 0.017377676 0.022746924
-0.29479122 -0.24259885 1.0659744 -0.39072061 0.91944009 -0.0443542 0.043380812
-0.33959153 -0.35193157 1.1345781 -0.97914952 0.091648437 -0.18129195 0.0025238192
-0.3333919 -0.3694334 1.0923945 -0.98006868 -0.0056730495 -0.198578 0.021281267
-0.25543293 -0.23868948 1.0737292 -0.25290313 0.96744585 0.0094156982 0.013978627
-0.3438288 -0.35575023 1.1581496 -0.98327994 0.076832704 -0.16509789 0.0049950806
-0.26239425 -0.23838209 1.0755 -0.26335454 0.96469212 -0.0036837796 0.015314822
-0.22901909 -0.23667306 1.1079776 -0.26614803 0.9548499 -0.13201137 0.031961855
-0.22444132 -0.23250628 1.0434169 -0.31381607 0.93345213 0.17374267 0.038654197
-0.26290908 -0.23769158 1.0908383 -0.24563602 0.9689253 -0.029096542 0.016781595
-0.34142822 -0.36048177 1.1403277 -0.98152256 0.064897671 -0.18000472 0.0065777632
-0.33593306 -0.36860976 1.1069639 -0.97942942 0.0043997853 -0.20173874 0.018052038
-0.23304519 -0.23503558 1.0268948 -0.45258674 0.85917771 0.23870252 0.05575503
-0.33871061 -0.35590354 1.1292715 -0.97998101 0.076973587 -0.18360871 0.0046408982
-0.30846846 -0.27253115 0.97768027 -0.91018534 0.41266781 -0.03560796 0.03364826
-0.26270393 -0.074724533 1.2275127 -0.31576768 0.89407068 0.31769234 0.082652181
-0.22539431 -0.23310781 1.0414066 -0.33000433 0.92278981 0.19888747 0.04370122
-0.33593747 -0.36237985 1.1113147 -0.98062134 0.043900121 -0.19093087 0.0090059089
-0.27726489 -0.23952533 1.0816748 -0.27692637 0.96035939 -0.031964835 0.021997733
-0.33019584 -0.328704 1.0942912 -0.9762069 0.13104336 -0.17276502 0.00064591371
-0.28770316 -0.2475574 0.89260691 -0.91544878 0.24476035 -0.319446 0.040828098
-0.2552622 -0.23552133 1.1502955 -0.38761303 0.8730461 -0.29588276 0.038992465
-0.31140611 -0.25224447 1.0804318 -0.7122702 0.69747841 -0.07870809 0.079175271
-0.2906796 -0.27514726 0.8881048 -0.8433919 0.24783945 -0.47672391 0.050292168
-0.28484863 -0.094481409 1.059684 -0.43666732 0.89171219 -0.11904188 0.020954553
-0.10007924 -0.074883133 1.2641033 -0.061739583 0.97337955 0.22072695 0.01977784
-0.32588485 -0.35736841 1.0581086 -0.98925042 0.040615786 -0.14047739 0.0071717324
-0.25746712 -0.078085542 1.0512395 -0.33092734 0.94141275 -0.065032125 0.017835148
-0.25288162 -0.23871501 1.0741117 -0.23598255 0.97157961 0.018582521 0.01130924
-0.25328654 -0.076583333 1.0555332 -0.32904714 0.94135165 -0.074733324 0.018469926
-0.32295603 -0.37170994 1.0128095 -0.99641901 -0.054931678 -0.064278245 0.023129309
-0.25849026 -0.07778082 1.069286 -0.3537834 0.93229806 -0.07521759 0.018569862
-0.32728446 -0.28274462 1.105653 -0.91639072 0.34547997 -0.20216726 0.030486891
-0.30031219 -0.25235683 1.0030278 -0.63402373 0.77282077 -0.027606403 0.038196184
-0.23591673 -0.07391797 1.2187579 -0.082706913 0.97551191 0.20380418 0.037912294
-0.21872713 -0.074042708 1.0458411 -0.21195747 0.97639108 -0.041647546 0.029960573
-0.28765512 -0.089934297 1.0865761 -0.44127491 0.89224094 -0.095825665 0.018226076
-0.29680914 -0.10067097 1.1109689 -0.45893526 0.88628155 -0.062317021 0.010264049
-0.17626303 -0.074211337 1.175346 0.0094510308 0.99982107 0.016387401 0.0047452468
-0.28999412 -0.091140039 1.0901247 -0.45039934 0.88893086 -0.083320558 0.016627073
-0.24223201 -0.074365214 1.0853872 -0.30546695 0.94888675 -0.079397775 0.018487198
-0.28098401 -0.21378227 1.1941437 -0.50931323 0.77803659 -0.36777589 0.12527747
-0.27846316 -0.21306546 1.1922362 -0.47764295 0.80945122 -0.34153479 0.12566653
-0.19303375 -0.073943309 1.1515453 0.0087459767 0.99995768 -0.0028438754 0.00016781887
-0.14322284 -0.074413002 1.185022 -0.0068410002 0.99966919 0.024792647 0.0093399649
-0.25066778 -0.074117362 1.1996331 -0.23034509 0.97283614 0.02304513 0.03796545
-0.17245547 -0.074200913 1.1457021 0.00945439 0.99995494 -0.0009713131 0.00012319218
-0.30735701 -0.24632598 1.1730071 -0.71656293 0.64444333 -0.26689008 0.049985744
-0.15744475 -0.074046507 1.2061428 -0.0063838111 0.99950844 0.030695127 0.014017096
-0.18471131 -0.074227504 1.1710243 0.013863957 0.99973077 0.018606259 0.0052512321
-0.29925656 -0.23301309 1.1965879 -0.67044258 0.64035416 -0.37477091 0.036027402
-0.19354352 -0.073051587 1.0009177 -0.031885993 0.99944651 0.0094838077 0.011732722
-0.08368814 -0.072911419 1.114954 -0.00077214662 0.99998802 0.0048377058 0.00016769028
-0.18300837 -0.072758012 1.0078322 -0.021137577 0.99967867 0.01398949 0.012395971
-0.0051056789 -0.073802441 1.2450546 0.07497251 0.98682493 0.14337249 0.048241716
-0.088917702 -0.073448628 1.1625448 -0.00097130326 0.99997681 0.0067390944 0.0001476608
-0.090518884 -0.076990411 0.94752932 0.015215236 0.97172534 -0.23562334 0.010448237
-0.12253443 -0.093158342 0.9041701 0.054863676 0.91871232 -0.39109811 0.0071611381
-0.052141111 -0.090133153 0.91471136 0.047397286 0.92126817 -0.38602906 0.010629632
0.053286776 -0.18495281 0.94637781 -0.11199155 0.58540541 -0.80296856 0.20327669
0.050647821 -0.075614713 0.99836934 0.013847252 0.99359232 -0.11217208 0.11364236
-0.075692534 -0.23913479 0.93258703 0.087827332 0.95031726 -0.29863602 0.022436146
-0.079225443 -0.30365101 0.87462831 0.13896963 0.1861237 -0.97264868 0.0080511896
0.057310548 -0.24696089 0.90586513 0.044906061 0.50571567 -0.86153066 0.026800103
0.12661715 -0.29202178 0.90988016 0.50509489 0.24628994 -0.82717621 0.051915813
-0.063778602 -0.38213685 0.86702192 0.13640305 -0.093625121 -0.98621929 0.039294343
-0.090019129 -0.075116098 0.98961598 0.016616931 0.99839222 -0.054191556 0.0076381871
0.009102203 -0.074590698 1.1486458 0.040603034 0.99885434 0.025327209 0.0022687519
-0.033775114 -0.074354887 1.0037348 0.032695275 0.99889499 -0.033761226 0.01906519
-0.10462546 -0.074841954 0.97134161 0.020359749 0.98092061 -0.19333953 0.010115182
-0.083300091 -0.2458016 0.90082538 0.084888563 0.77846783 -0.62191784 0.048709501
-0.092423461 -0.075239874 0.99277091 0.014467121 0.99922049 -0.036731899 0.0065389429
-0.048752513 -0.075841151 0.95434701 0.032220833 0.97239459 -0.23110761 0.013976177
-0.10869491 -0.073266536 1.020028 0.020747701 0.99975163 -0.0081477072 0.0045647277
-0.14026527 -0.074023962 0.95914173 0.0071999775 0.98164445 -0.19058438 0.015247252
0.076100543 -0.28667825 0.89702195 0.18140975 0.27563232 -0.94399005 0.012182588
0.11489718 -0.19661893 0.93396378 0.41306928 0.27683991 -0.86760211 0.13775389
0.0053774575 -0.073999368 1.1360615 0.020525651 0.99972844 0.01103209 0.00076157856
-0.29043013 -0.33520976 0.86088479 -0.71418482 0.14221862 -0.68535691 0.04039409
-0.006453454 -0.083652645 0.94002652 0.16746582 0.95377582 -0.24953347 0.088205442
-0.28268597 -0.26469377 0.87466747 -0.70370197 0.24616243 -0.66648906 0.059150774
0.017132655 -0.24449125 0.92090863 -0.12455396 0.63641983 -0.76122016 0.034694612
-0.101683 -0.075252429 0.97082144 0.023357118 0.98032475 -0.19600475 0.0098898495
-0.029908381 -0.075585045 0.95082211 0.052975975 0.97183734 -0.22962061 0.025323065
-0.27517423 -0.27079278 0.86480957 -0.56941873 0.2616671 -0.77928978 0.050762422
0.025263941 -0.098246202 0.92263013 0.17076151 -0.05466019 -0.98379517 0.1157357
-0.18540055 -0.072914638 1.0028344 -0.026105933 0.99959499 0.011331236 0.011636688
-0.21603298 -0.074155718 0.93242168 -0.18507382 0.95645887 -0.22568592 0.044230361
-0.19888698 -0.073315024 0.98776382 -0.10688718 0.99418193 -0.013320259 0.0070062978
-0.19229849 -0.073162071 0.99067867 -0.025053183 0.9995141 -0.01854635 0.001437356
-0.18221411 -0.072826199 1.0133208 -0.023787666 0.99928957 0.029231893 0.025045902
-0.24563418 -0.074589126 0.92388606 -0.4625276 0.81946069 -0.33845589 0.054523658
-0.2730101 -0.16707046 0.90397429 -0.99627429 0.07807415 0.036633417 0.16563202
-0.26515716 -0.136548 0.89642167 -0.71221536 0.30915391 -0.63021684 0.097201303
-0.29038322 -0.27004665 0.88679934 -0.85636336 0.23113278 -0.4617568 0.049268398
-0.14496154 -0.072502181 1.0108359 0.014591394 0.99985629 -0.0086227693 0.00014623671
-0.25986907 -0.10398416 0.89685214 -0.63205707 0.51725405 -0.57701999 0.071536481
-0.29697248 -0.25907275 0.91972202 -0.93335003 0.30595016 -0.18775594 0.03296724
-0.29055902 -0.27182877 0.88696128 -0.84879571 0.23926595 -0.47148433 0.049692627
-0.1228708 -0.073530778 1.0449275 0.015124789 0.99987471 -0.0046655927 0.00014138642
-0.30031592 -0.2697452 0.93607396 -0.91384 0.39406395 -0.0980312 0.033242412
-0.21514083 -0.22864988 1.0373899 -0.39519393 0.86166918 0.31835186 0.06945727
-0.29318357 -0.30873924 0.87998819 -0.80312502 0.19546284 -0.56283617 0.043098252
-0.31085369 -0.3808943 0.90166849 -0.95640302 -0.080193587 -0.28082395 0.03389848
0.0030462435 -0.076361276 1.0591016 0.029667076 0.99946618 -0.013685732 0.01538993
-0.025796873 -0.080782138 0.93131202 0.018853156 0.94219339 -0.33453876 0.013449741
-0.21527323 -0.079924509 0.90837306 -0.23102185 0.8232615 -0.5185262 0.075817913
-0.018138366 -0.074514315 0.97116023 0.1327132 0.97731292 -0.16506539 0.045065496
-0.30352157 -0.30834877 0.92920935 -0.96860808 0.17577671 -0.17578647 0.0058053927
-0.26693276 -0.09375596 0.92237151 -0.68925565 0.58889592 -0.42205244 0.064403675
-0.14213921 -0.077257581 0.93468344 0.053177312 0.96668804 -0.25037256 0.015928747
-0.052071437 -0.074763663 1.0230012 0.00878656 0.99993426 -0.0073646074 0.0069440287
0.005960281 -0.074721731 1.1024141 0.022064967 0.99975562 -0.0013502459 0.0006471668
-0.2887215 -0.34023273 0.85577023 -0.59488374 0.11759579 -0.79516321 0.055199292
-0.062981218 -0.074806347 1.0104618 0.0082333293 0.99987817 -0.013262817 0.0060393079
-0.043224983 -0.075477809 0.95509863 0.030832421 0.97244453 -0.23108639 0.013614902
-0.12937471 -0.07357426 1.0516508 0.01222522 0.99992174 -0.0026582456 0.00015678133
-0.2180738 -0.23025459 1.0332892 -0.40173921 0.85976678 0.31528816 0.068788797
-0.32571152 -0.39925867 1.0191008 -0.97578347 -0.21673544 -0.029534623 0.05112971
-0.26563171 -0.23877037 1.0505407 -0.33466133 0.94194579 0.027200159 0.022867028
-0.28465185 -0.24186115 1.0452031 -0.37645176 0.92561376 -0.039029054 0.02936079
-0.33318263 -0.37130076 1.0913932 -0.98022234 -0.0092707882 -0.19768216 0.022514217
-0.33171877 -0.37148714 1.0839852 -0.98268688 -0.018896185 -0.18430807 0.021982722
-0.24307024 -0.23718922 1.0681379 -0.28182808 0.95556998 0.086365297 0.02247406
-0.32083189 -0.28161538 1.0756928 -0.89134979 0.39135495 -0.22877261 0.040250834
-0.3410491 -0.41051146 1.1093178 -0.92914593 -0.25057408 -0.27184606 0.077385642
-0.34325549 -0.40992939 1.1146176 -0.93923163 -0.22639693 -0.25804725 0.072973691
-0.32429287 -0.37016097 1.0295609 -0.99564874 -0.064913407 -0.066857301 0.023492986
-0.29496983 -0.24290925 1.0584729 -0.40579921 0.91249043 -0.051849537 0.043435428
-0.053049289 -0.074636772 1.1877655 0.02135065 0.99903017 0.038507517 0.019597985
-0.3096543 -0.2529985 1.0716021 -0.72193301 0.68618298 -0.089249857 0.08749447
-0.2547994 -0.23643374 1.1410162 -0.34591872 0.90772527 -0.23743452 0.03402634
-0.24681634 -0.23796605 1.1145484 -0.25451383 0.95445848 -0.15566538 0.026720967
-0.14974183 -0.074543774 1.1752691 -0.00083796977 0.99952525 0.030799219 0.0092345756
-0.16986628 -0.074624091 1.1514626 0.0087556262 0.99995977 0.0019251381 0.00013053587
-0.22488526 -0.23357217 1.0388709 -0.34415635 0.91028684 0.23007473 0.048341494
-0.20535661 -0.074232668 1.0652213 -0.046573739 0.9989022 0.0050318879 0.010201028
-0.31931293 -0.24960375 1.108145 -0.68563241 0.72637695 -0.04779866 0.059208427
-0.32186821 -0.34674031 1.0395504 -0.98504972 0.11132074 -0.13147166 0.00080130924
-0.32980797 -0.35811871 1.0811266 -0.98542631 0.052921165 -0.161661 0.0063340124
-0.18114507 -0.073493831 1.0490509 -0.01548178 0.99965584 0.021175377 0.0088653248
-0.28828838 -0.085921682 1.1037881 -0.40632781 0.9122926 -0.051185228 0.013681562
-0.16900654 -0.074292161 1.1817081 0.00984543 0.99939579 0.033333436 0.0093827583
-0.22525828 -0.073052302 1.13512 -0.068867102 0.99758661 -0.0088468511 0.0034111303
-0.35251603 -0.41936252 1.1490551 -0.958386 -0.27366203 -0.081273317 0.084696986
-0.3380861 -0.31665328 1.1469079 -0.97300166 0.15361302 -0.17225201 0.0025374936
-0.27554208 -0.23988126 1.086646 -0.27439651 0.9612785 -0.025499988 0.021543724
-0.34475595 -0.41956323 1.1089036 -0.92286867 -0.25984377 -0.28424391 0.080252238
-0.1663271 -0.073713556 1.188488 0.0083938595 0.99942082 0.032977432 0.0096592493
-0.10869893 -0.074459217 1.2138035 -0.013567164 0.99941415 0.031421397 0.0059908293
-0.32667384 -0.39616853 1.0087599 -0.97894835 -0.20232865 -0.026893811 0.049124774
-0.23762138 -0.23728025 1.0998923 -0.25474855 0.96183503 -0.099882782 0.022774991
-0.093963847 -0.074557707 1.2369356 -0.022097848 0.98747212 0.15623865 0.01783663
-0.31185487 -0.25156602 1.081355 -0.706393 0.70198601 -0.09068986 0.077444211
-0.33298892 -0.28077751 1.1474565 -0.91776145 0.37343895 -0.13511977 0.032619283
-0.10642172 -0.074115098 1.2101436 -0.012812666 0.99954724 0.027224451 0.0056178654
-0.31908584 -0.24964663 1.1054945 -0.6936096 0.71779215 -0.060663134 0.059984263
-0.3140761 -0.25390607 1.0866592 -0.72212762 0.68395436 -0.10362533 0.07131616
-0.35250413 -0.3838113 1.1827602 -0.99183226 -0.093102589 -0.087181933 0.044148568
-0.22271781 -0.23493619 1.109694 -0.29455242 0.94215518 -0.15994523 0.036622446
-0.29456314 -0.090309612 1.1373842 -0.36117041 0.9308303 -0.055775452 0.0097143278
-0.3228887 -0.3241336 1.0572593 -0.97701156 0.15100889 -0.15048151 0.0013715107
-0.34483284 -0.32238805 1.1804579 -0.97736144 0.14169976 -0.15711717 0.00062337762
-0.34513584 -0.32672524 1.1793934 -0.97706074 0.14067243 -0.15988594 0.00061011984
-0.34344414 -0.37153497 1.1442711 -0.9864648 -0.0063676676 -0.16384934 0.027923038
-0.092450447 -0.075107381 0.98935503 0.016202779 0.99856991 -0.050946917 0.0075255702
-0.30627707 -0.1002372 1.1790266 -0.76589119 0.6426636 -0.019853843 0.074441813
-0.12104838 -0.075355947 1.1439506 -0.004675366 0.9999786 0.0045789629 0.00012636563
-0.10879135 -0.077336207 1.2738189 -0.077386737 0.96078211 0.26628754 0.021821165
-0.29295179 -0.078969538 1.2126615 -0.47689533 0.86212951 0.17118312 0.063813694
-0.34524077 -0.28392267 1.2259251 -0.95926148 0.27216581 -0.075784028 0.02184082
-0.27011243 -0.23930639 1.1468575 -0.4607695 0.86698496 -0.18981178 0.039914247
-0.21508004 -0.23648758 1.0804883 -0.30613929 0.95158213 0.027752204 0.032981817
-0.34802943 -0.36466786 1.1743207 -0.98981005 0.037054837 -0.13748813 0.01189785
-0.3262293 -0.26096967 1.1333405 -0.79379451 0.60069716 -0.095147789 0.048960056
-0.25793099 -0.23631918 1.1504198 -0.38364729 0.8737281 -0.29902169 0.039774019
-0.22267812 -0.073009871 1.1356579 -0.045523539 0.99890476 -0.010807461 0.002412338
-0.29283303 -0.082301721 1.1925077 -0.43634719 0.89913678 0.033973191 0.050410185
-0.35482582 -0.33718887 1.2381128 -0.989667 0.14227635 -0.017797753 0.0060645654
-0.19135107 -0.073140569 1.2139348 0.033995166 0.98045552 0.19378211 0.0781544
-0.1665269 -0.075517192 1.2278601 -0.099006198 0.97977108 0.17391524 0.043900371
-0.30537295 -0.24008411 1.1913309 -0.69153267 0.61008674 -0.38675165 0.031250294
-0.31862909 -0.2442746 1.2058426 -0.79699033 0.52797866 -0.29333413 0.026611222
-0.31687623 -0.24021265 1.2104945 -0.81151062 0.49293381 -0.31379396 0.02770064
-0.3041347 -0.089986153 1.2071608 -0.66588157 0.72344488 0.18228889 0.068556145
-0.280954 -0.078169644 1.2015381 -0.41609448 0.90619689 0.075315922 0.047525097
-0.32142538 -0.3674494 1.0022631 -0.99656725 -0.025886782 -0.078635499 0.019375114
-0.33345106 -0.22720125 1.26414 -0.94946396 0.25494543 0.18308742 0.068031333
-0.33613318 -0.2744953 1.1739848 -0.8828482 0.43222538 -0.18373993 0.03753715
-0.30467308 -0.24039945 1.1881715 -0.68875468 0.61643887 -0.38160211 0.033784252
-0.18365298 -0.074461684 1.1622717 0.01364377 0.99970233 0.020229526 0.0056392197
-0.33210605 -0.22274403 1.2558604 -0.95660287 0.27753195 0.088807836 0.077147923
-0.34722891 -0.31177035 1.2798527 -0.83783364 0.16255254 0.52116358 0.043198232
-0.33709246 -0.28680563 1.2844175 -0.75718588 0.2241118 0.61354989 0.049403414
-0.29936585 -0.081841528 1.2110711 -0.53690857 0.82942504 0.15421821 0.0618506
-0.36014274 -0.3939032 1.2970674 -0.70648438 -0.1518387 0.69124877 0.10770846
-0.3524566 -0.32633376 1.2690254 -0.87591439 0.1624497 0.45429513 0.046338342
-0.27425644 -0.23952878 1.0743629 -0.27776754 0.9602043 -0.029205322 0.021068569
-0.32556361 -0.19437681 1.2631414 -0.93792653 0.3154099 0.14425822 0.1406644
-0.344686 -0.31583679 1.1847376 -0.97397226 0.17024343 -0.14965028 0.0039716498
-0.12431873 -0.073494397 1.0586671 0.012042167 0.99992418 -0.0025603867 0.00017626934
-0.30629393 -0.098909386 1.1807933 -0.71349823 0.70060337 -0.0086743757 0.071303993
-0.3434484 -0.28529239 1.2787198 -0.83752817 0.22933595 0.49593505 0.057143398
-0.34983602 -0.41815859 1.1382799 -0.95806158 -0.24527416 -0.148184 0.082486548
-0.34605131 -0.37016502 1.160172 -0.98942739 0.0030320063 -0.14499722 0.02531277
-0.36598971 -0.41436255 1.2400103 -0.92708361 -0.36891487 -0.066466197 0.06728866
-0.32342744 -0.16359575 1.2454506 -0.81276649 0.28970894 0.50544971 0.13296273
-0.10647799 -0.073776938 1.1374232 -0.0037704576 0.99997133 0.0065688468 0.00014317156
-0.30349165 -0.42319006 1.3166506 -0.2866298 -0.52320218 0.80256027 0.073810086
-0.32569101 -0.1844092 1.262025 -0.81245989 0.26043761 0.52161402 0.11385645
0.068690866 -0.24524574 1.3448879 0.52911967 0.27768868 0.80182385 0.098645955
-0.022988774 -0.41984755 1.3627095 -0.062633708 -0.57153344 0.81818491 0.07965076
-0.045470256 -0.24476363 1.318293 -0.2166879 0.69729322 0.68324846 0.049820095
-0.23610336 -0.074998021 1.2473284 -0.14395159 0.88165301 0.44940615 0.077632576
-0.32288435 -0.1826314 1.2685846 -0.72089201 0.25817326 0.64316517 0.11821557
-0.31447583 -0.14086749 1.2637973 -0.64577198 0.353028 0.6770153 0.12067457
-0.35151592 -0.35180414 1.2905871 -0.73774791 0.16438243 0.65475661 0.035938948
-0.35661924 -0.37691665 1.2941649 -0.75411206 0.054051839 0.65451771 0.076113611
-0.32133999 -0.15679964 1.2387279 -0.84879643 0.29758784 0.43701971 0.11557549
-0.34193671 -0.28659847 1.2808241 -0.81430876 0.21587922 0.53879243 0.053590763
-0.32116643 -0.15920994 1.2535441 -0.76548475 0.28780136 0.57550275 0.12537721
-0.32192492 -0.17072941 1.2611766 -0.73875225 0.27427626 0.6156441 0.13369142
-0.31843323 -0.17378362 1.2687802 -0.61516428 0.25026849 0.74762195 0.13400185
-0.33754811 -0.32766512 1.1358379 -0.97640485 0.12597468 -0.17539644 0.00049219292
-0.35318828 -0.3671881 1.2924827 -0.74245679 0.10202935 0.66207844 0.053295642
-0.31131673 -0.15860589 1.230189 -0.95016193 0.22854502 0.21203628 0.17502554
-0.31122595 -0.11447147 1.2562941 -0.65866911 0.47840586 0.5807606 0.063162804
-0.043680474 -0.073959194 1.2129329 0.024983758 0.99937385 0.02505487 0.022611715
-0.23749603 -0.073042519 1.1248165 -0.18569887 0.98260659 -0.00046217497 0.0086037135
-0.040541116 -0.25649023 1.3317127 -0.092875041 0.41507268 0.90503532 0.022698658
-0.32046723 -0.15400314 1.2430642 -0.8046875 0.31023192 0.50619584 0.10781901
-0.3057442 -0.10393436 1.2616029 -0.63097602 0.50729918 0.58695555 0.065868288
-0.14454547 -0.3883988 1.3388481 -0.12393679 -0.030833378 0.99181092 0.040751293
-0.0827647 -0.073072195 1.2531233 -0.025283316 0.98282593 0.18279481 0.033163495
-0.34577262 -0.27564666 1.2695476 -0.91967082 0.24021533 0.31064773 0.054807287
-0.20672575 -0.2020949 1.0220177 -0.16969001 0.87704504 0.44944111 0.14539783
-0.30917224 -0.097824879 1.2299032 -0.70716608 0.58310032 0.39988771 0.071265958
-0.34349397 -0.27051002 1.2741836 -0.8974328 0.23915789 0.37069917 0.059128162
-0.11353189 -0.088055976 1.2858927 -0.10194118 0.94004834 0.32544896 0.022992199
-0.11655958 -0.088474661 1.2866288 -0.098088183 0.94011599 0.32643619 0.022230985
-0.35664839 -0.36313665 1.2251998 -0.99669892 0.033666473 -0.073877089 0.0126129
-0.25537819 -0.080877267 1.263658 -0.36987761 0.67006665 0.64358455 0.083654016
-0.071636349 -0.2445197 1.321894 -0.2140404 0.68796921 0.6934588 0.030175412
-0.26212007 -0.074274838 1.1959447 -0.33416229 0.94251537 0.00060355995 0.042915892
-0.17505135 -0.074370056 1.1521219 0.010092231 0.99994582 0.0025638724 0.00013228743
-0.22444198 -0.073556967 1.1819453 -0.028480956 0.99953938 0.010482691 0.0013287023
-0.21670125 -0.2307706 1.035272 -0.39418542 0.86747926 0.30347604 0.067616232
-0.23295765 -0.073202729 1.1939907 -0.11280936 0.99352318 0.013629181 0.017380942
-0.085512213 -0.073321223 1.1577135 -6.2448256e-05 0.99997085 0.0076401085 0.00016241771
-0.2322745 -0.23553002 1.0273645 -0.44090691 0.86690807 0.23253292 0.054636884
-0.20157954 -0.20965646 1.0354578 -0.38673547 0.80000657 0.45872107 0.10364048
-0.32191882 -0.41856641 0.97398025 -0.88899219 -0.44454423 -0.10987897 0.087184653
-0.2891956 -0.081453882 1.2471082 -0.55055779 0.67636985 0.48929524 0.089918301
0.016758263 -0.24485984 1.3347003 -0.11813837 0.38688511 0.91452897 0.043318007
0.00054561358 -0.23860836 1.3196697 -0.18859816 0.46695104 0.86393714 0.025392968
-0.13620804 -0.24082285 1.2758725 0.09111008 0.91984785 0.38154799 0.030379279
-0.13991183 -0.24067897 1.2775908 0.11449599 0.9122954 0.39320195 0.027907195
-0.12653026 -0.24149527 1.282209 -0.01137862 0.92389506 0.38247666 0.051881388
-0.14252859 -0.24646699 1.2968701 -0.021474529 0.83215165 0.55413228 0.059663258
0.077694595 -0.30512995 1.355729 0.53491825 0.15486674 0.83058935 0.057867717
-0.12770979 -0.2417495 1.2911069 0.0012543424 0.91246653 0.40914935 0.05210001
-0.1931065 -0.24383335 1.2994729 -0.058341194 0.75108546 0.65762216 0.040840972
-0.15178467 -0.24447605 1.2943238 0.067849889 0.84202504 0.53515452 0.041711695
-0.11716916 -0.24069166 1.2762755 -0.10927162 0.91858715 0.37981233 0.047895938
-0.20513338 -0.24385947 1.2971866 -0.054448437 0.74324447 0.6668005 0.041156173
-0.18985854 -0.24251477 1.2958552 -0.044539861 0.78823858 0.6137557 0.037838832
-0.29762745 -0.080154344 1.2392372 -0.60068184 0.68914586 0.40528902 0.080622673
-0.055783626 -0.082701713 1.3033373 -0.016410772 0.93251544 0.36075696 0.033084318
-0.35802925 -0.36791238 1.2528989 -0.98498535 0.023909241 0.1709744 0.056383196
-0.12256023 -0.41489249 1.3461882 -0.10321877 -0.18842627 0.97664803 0.061848857
-0.076012082 -0.40896019 1.353616 -0.18977493 -0.12022165 0.9744395 0.058803871
-0.35454848 -0.32930258 1.2422205 -0.98894441 0.14705126 0.019104533 0.01306819
-0.35786003 -0.39606297 1.2988598 -0.67512119 -0.17428337 0.71682394 0.10531379
-0.24211743 -0.41363749 1.3346951 -0.16527732 -0.4308297 0.88716918 0.063821219
-0.31884632 -0.15276687 1.25813 -0.75731951 0.29854774 0.58080673 0.11850563
-0.20087634 -0.39377895 1.335306 -0.13311774 -0.083743967 0.98755592 0.061535366
-0.15324374 -0.36461079 1.3348559 -0.13164343 0.065854661 0.98910725 0.013082623
-0.36183843 -0.38409799 1.2509865 -0.99077004 -0.084204085 0.10622862 0.065813437
-0.29251641 -0.079717726 1.2107663 -0.46960646 0.87067169 0.14628932 0.059339613
-0.29394937 -0.081197366 1.2435435 -0.57710874 0.68589556 0.44327503 0.08497116
-0.32287395 -0.18719335 1.2692113 -0.61944783 0.18538347 0.76283509 0.12937248
-0.36347166 -0.41317374 1.2382033 -0.9124319 -0.40329579 -0.069429673 0.071111828
-0.11585106 -0.23996063 1.2674277 -0.11176115 0.9610405 0.25280538 0.014391691
-0.10466563 -0.073623501 1.1583205 -0.0030605441 0.99997646 0.0061380095 0.00012638098
-0.32109746 -0.15731235 1.2480388 -0.78090298 0.29823422 0.54885966 0.11793696
-0.2623575 -0.23832287 1.0856757 -0.22965044 0.97281396 -0.029894467 0.014265631
-0.32498023 -0.35475683 1.0542498 -0.98951548 0.05754023 -0.13246937 0.0044861245
-0.14138632 -0.24786167 1.2996199 -0.067705803 0.75706708 0.64981943 0.0667096
-0.29139641 -0.2129638 1.2855114 -0.09368439 0.14294536 0.98528671 0.088350117
-0.34527919 -0.27657855 1.2609425 -0.94248354 0.22061551 0.25110474 0.053167909
-0.30301228 -0.27647778 1.3022189 -0.39083713 0.24876644 0.88620633 0.018885294
-0.16704439 -0.073886372 1.208325 -0.021519808 0.99769002 0.064433187 0.039527461
-0.34288773 -0.32168767 1.1687372 -0.97695893 0.14050952 -0.16064964 0.00067126541
-0.32293153 -0.38524041 0.98872972 -0.98570693 -0.1561334 -0.063278154 0.041914254
-0.32513216 -0.39605364 1.0062157 -0.97636759 -0.21328904 -0.034844633 0.054765318
-0.21403643 -0.36864391 1.3305037 -0.12783676 0.036363225 0.99112844 0.016764391
-0.31997979 -0.39419588 1.3144026 -0.42947271 -0.19888262 0.88090795 0.076461144
-0.36388677 -0.4033381 1.2918535 -0.71744782 -0.22817399 0.65818334 0.11611556
-0.19650716 -0.2148378 1.0448155 -0.49421939 0.77227908 0.39916435 0.082142852
-0.24273494 -0.40163606 1.3326449 -0.17886001 -0.27180579 0.94558477 0.056222972
-0.2466431 -0.42174149 1.3306227 -0.15436088 -0.58703023 0.79471266 0.068644263
-0.30695629 -0.12851182 1.2216104 -0.85616249 0.38477844 0.34486437 0.10633419
-0.26431814 -0.076647863 1.2470613 -0.35161725 0.80615121 0.47590494 0.096510254
-0.35037184 -0.40992489 1.1555284 -0.96115667 -0.26237142 -0.085668348 0.082290478
-0.066768393 -0.25219697 1.3291337 -0.19709383 0.55243558 0.80991912 0.030992685
-0.11819159 -0.29422337 1.3311675 -0.18921953 0.30376032 0.93376952 0.01856833
-0.24211249 -0.23767607 1.1022284 -0.24907508 0.9627955 -0.10481667 0.019966908
-0.13597642 -0.099073172 1.2987438 -0.076598264 0.90020341 0.42868 0.012049276
0.003182746 -0.21308292 1.3035519 -0.24099439 0.53381324 0.81053394 0.091016188
-0.33089459 -0.28075245 1.1366307 -0.9226253 0.36385763 -0.1279459 0.034604847
-0.168964 -0.072303087 1.1227713 0.0033829566 0.99999315 0.0014934002 0.00012616093
-0.16924761 -0.076400578 1.2685319 -0.10717104 0.94833732 0.29861483 0.032060303
-0.12594034 -0.074098006 1.1515671 -0.0040072412 0.99998385 0.0040277718 0.00011936114
0.016682474 -0.20302449 1.3172594 -0.26930025 0.33929005 0.90130997 0.095202237
-0.20603707 -0.233255 1.073186 -0.36589918 0.9267801 0.084831089 0.045495972
-0.32996154 -0.27066919 1.1408834 -0.88001168 0.45976245 -0.11915515 0.038339175
-0.34451842 -0.2694701 1.2685165 -0.92673337 0.21923387 0.30512583 0.05559003
-0.092114389 -0.073237866 1.103649 -0.0024895014 0.99999309 0.0027553947 0.00014506774
-0.17119652 -0.36823931 1.332981 -0.14577416 0.036718514 0.98863626 0.019943086
-0.22504413 -0.23620386 1.2746527 0.24217895 0.62641603 0.74091315 0.055601209
-0.17004479 -0.3872636 1.3363628 -0.14603227 -0.015986523 0.98915058 0.037451666
-0.066607989 -0.24895652 1.3286401 -0.21414189 0.60383838 0.76780367 0.029036159
-0.0013862831 -0.20704067 1.2949029 -0.40005594 0.50919461 0.76202101 0.10637258
-0.044177812 -0.27488187 1.340963 -0.13627036 0.31172389 0.94035029 0.0090637393
-0.18620361 -0.3946113 1.3368342 -0.13845521 -0.055541616 0.98881006 0.055215612
-0.20411168 -0.23819728 1.2549537 0.12577428 0.73860371 0.66230303 0.057400923
-0.022597061 -0.32642683 1.3537812 -0.15977329 0.15521315 0.97487503 0.00066102325
-0.11834024 -0.2955398 1.3309109 -0.17964174 0.2942265 0.93870103 0.017131312
-0.1288576 -0.23435113 1.2164584 0.055737939 0.83565027 0.54642636 0.060595013
-0.20916247 -0.2701765 1.3147422 -0.094401069 0.51903713 0.84952277 0.044626687
-0.11778941 -0.23773782 1.2351745 -0.045342676 0.90924215 0.41379085 0.043996777
-0.018845331 -0.15389067 1.2773906 -0.43497288 -0.51148766 0.74106604 0.17024416
-0.080613412 -0.28136349 1.3344582 -0.19411087 0.28234959 0.93946773 0.015677204
-0.11487327 -0.41551891 1.3494821 -0.11043023 -0.16599995 0.97992307 0.059122253
-0.24150081 -0.27438933 1.3119913 -0.1066838 0.4574931 0.88279027 0.036747381
-0.092510276 -0.34162125 1.3408296 -0.17246261 0.13648535 0.97551441 0.00049339479
-0.065571435 -0.081986144 1.3114328 -0.082753621 0.88449514 0.45915163 0.022111952
-0.10539012 -0.39169523 1.3486336 -0.15850425 -0.095057361 0.98277181 0.046028838
-0.051035788 -0.24534999 1.3207999 -0.21543674 0.66379666 0.71621293 0.03831831
-0.20734851 -0.25224271 1.3084607 -0.090195179 0.64547467 0.7584374 0.049189657
-0.14878066 -0.24792866 1.2998081 0.005095656 0.75517291 0.6555059 0.060703289
-0.19422024 -0.24233307 1.293882 -0.041817822 0.79213542 0.60891128 0.038347755
-0.27931681 -0.17775324 1.281092 0.071644709 -0.045020629 0.99641365 0.10309425
-0.074554898 -0.24431399 1.3199229 -0.19738863 0.69642061 0.68995374 0.030671041
-0.15041023 -0.088931419 1.2902668 -0.074488267 0.91886109 0.38748667 0.018178241
-0.020065116 -0.32769635 1.3538873 -0.15621938 0.15462363 0.97554451 0.00074593804
-0.026573587 -0.17000864 1.2590234 -0.51186383 0.82093263 0.25311068 0.16692984
-0.20023318 -0.38764912 1.3348727 -0.134894 -0.040037699 0.99005085 0.04725511
-0.1020595 -0.21994469 1.1968074 -0.34890488 0.57907307 0.73684442 0.087788716
-0.055876225 -0.25015277 1.3293297 -0.17434435 0.53921676 0.82392311 0.030069314
-0.22979958 -0.072821654 1.2411102 -0.078342944 0.92892867 0.3618755 0.066391557
-0.020028686 -0.38309482 1.3622129 -0.12706067 -0.039573483 0.99110514 0.037414204
-0.26421174 -0.30282748 1.3153201 -0.17987034 0.20027901 0.96308619 0.0044650733
-0.10929044 -0.2057953 1.1865001 -0.28591445 0.47316989 0.83328462 0.086581819
-0.1855282 -0.38586152 1.3351403 -0.12556633 -0.027515374 0.99170363 0.045975618
-0.22584854 -0.073076233 1.1495624 -0.052677847 0.99858147 -0.0077495179 0.0030745398
-0.18730856 -0.074093208 1.1620399 0.014782886 0.99973667 0.017547898 0.0056293379
-0.1647695 -0.34897789 1.3323342 -0.12227889 0.12066587 0.98513335 0.0010542773
-0.0030063135 -0.36574876 1.3619916 -0.11551481 0.046355784 0.99222344 0.016789163
0.027185941 -0.36869231 1.3654588 -0.044682108 0.024283348 0.99870604 0.017602019
-0.01218215 -0.088720515 1.3178742 -0.044337727 0.64197952 0.76543874 0.13699658
0.011679006 -0.24209189 1.3346078 -0.13940029 0.39816698 0.90665907 0.036474504
0.0098358151 -0.12286529 1.3086916 -0.16675663 0.041871998 0.98510855 0.17527786
0.03229316 -0.074630462 1.1164782 0.13326222 0.9897514 0.051315393 0.0096039195
-0.083242215 -0.074587785 1.1882828 0.0016153823 0.99998641 0.0049538319 0.00014392214
0.0071663214 -0.074645579 1.1042402 0.026698971 0.9996407 -0.0023910233 0.00080192718
0.0029738427 -0.090542167 1.314254 0.043589763 0.6546858 0.75464332 0.1298106
0.015276917 -0.093681268 1.3192915 0.083868109 0.58759332 0.80479819 0.12684637
