# .PCD v0.7 - Point Cloud Data file format
VERSION 0.7
FIELDS x y z
SIZE 4 4 4
TYPE F F F
COUNT 1 1 1
WIDTH 513
HEIGHT 1
VIEWPOINT 0 0 0 1 0 0 0
POINTS 513
DATA ascii
-0.2187393 -0.6396333 0.36424181
-0.1284747 -0.27294409 0.68211168
-0.19068611 -0.2775667 0.68983102
-0.15535749 -0.28925291 0.6867975
-0.15156411 -0.29270741 0.68594372
-0.2804454 -0.60894531 0.64648068
-0.1526597 -0.26007691 0.73862427
-0.1412915 -0.29019529 0.68420118
-0.17965209 -0.61334813 0.4742474
-0.16999801 -0.25338981 0.92757517
-0.080975913 -0.63732243 0.4751741
-0.055648811 -0.62984669 0.43814129
-0.1328301 -0.62959307 0.4933413
-0.085664243 -0.4639436 0.69589949
-0.086556539 -0.62682599 0.46569541
-0.1002824 -0.62711841 0.44563451
-0.037390769 -0.59687853 0.70186782
-0.060466569 -0.4483169 0.71829069
-0.068424597 -0.46786389 0.71148998
-0.026268991 -0.4885383 0.712565
0.03882296 -0.33748439 0.74190992
-0.048375141 -0.52830178 0.71757549
-0.022801749 -0.39082319 0.76867712
-0.0025858369 -0.4827686 0.71713722
-0.032046579 -0.3741816 0.77093619
-0.032624479 -0.37362319 0.77241647
0.0197157 -0.48522729 0.71274412
-0.069844499 -0.45887941 0.74839491
-0.01023979 -0.50694448 0.72320879
-0.028989131 -0.36252001 0.77597982
-0.068083987 -0.37616429 0.84553969
-0.073721237 -0.3175551 0.78076643
-0.085615337 -0.27151361 0.97448331
-0.083494909 -0.45438251 0.78250432
-0.082091443 -0.44473371 0.80079448
-0.097189493 -0.50309008 0.75992668
-0.1874871 -0.5334183 0.75223303
-0.1524507 -0.4411107 0.87132913
-0.13984209 -0.57638037 0.73999411
-0.11159 -0.48837379 0.73721188
-0.1156862 -0.49296409 0.74118328
-0.1743219 -0.51800603 0.73981887
-0.1162988 -0.66644192 0.61796218
-0.01295446 -0.2994611 0.76231521
-0.014915 -0.2742542 0.95990628
-0.043218311 -0.27832481 0.9451704
-0.066696063 -0.3180545 0.77524698
-0.032648269 -0.3541736 0.80327481
-0.04695924 -0.38973159 0.81883663
-0.17529561 -0.67523479 0.51154017
-0.2229993 -0.46000251 0.71495527
-0.2717593 -0.5704968 0.72252142
-0.2225091 -0.49809441 0.74039233
-0.24025179 -0.51612681 0.73453927
-0.2183931 -0.66765583 0.50981808
-0.2113281 -0.66956949 0.53102338
-0.25793511 -0.66590822 0.55640972
-0.2828905 -0.61452168 0.72581089
-0.2685948 -0.61580378 0.72133988
0.01385641 -0.50894111 0.68142658
-0.0150694 -0.46817061 0.68125552
-0.301489 -0.50796908 0.7424897
-0.005890667 -0.54158062 0.66910481
-0.031696919 -0.54128689 0.67079782
-0.2901969 -0.59047258 0.72383922
-0.3056739 -0.60758889 0.72581768
-0.3377277 -0.61711007 0.73057628
-0.27387649 -0.55647713 0.73311818
-0.2772651 -0.66537631 0.59310412
-0.29727039 -0.49682429 0.74562413
-0.35626391 -0.53411919 0.73951691
-0.27699569 -0.61924028 0.72783363
-0.1678573 -0.68606049 0.51146883
-0.3508983 -0.54456609 0.73494762
-0.27495351 -0.66747648 0.54503733
-0.2455259 -0.52231711 0.70375961
-0.36586171 -0.54787308 0.7473371
-0.34487131 -0.60122448 0.735412
-0.30466601 -0.6325255 0.72846889
-0.35914499 -0.6737237 0.52321601
-0.40854391 -0.65536171 0.74152058
-0.2563135 -0.67059141 0.54284668
-0.25788689 -0.6725052 0.54811883
-0.33270979 -0.51962882 0.73835981
-0.1735156 -0.67060739 0.50785398
-0.35189009 -0.65967911 0.71216983
-0.3301087 -0.6688959 0.64269203
-0.32583371 -0.66691267 0.63934487
0.24746069 -0.44342491 0.6796931
0.1183926 -0.42648631 0.71510738
0.2093205 -0.54624039 0.70293462
0.1424477 -0.55597568 0.6993314
0.1617679 -0.4710983 0.71217412
0.1751211 -0.47181329 0.70935678
0.2223004 -0.52508348 0.6824736
0.1238556 -0.44378439 0.71146047
0.13551439 -0.54152972 0.69797599
0.1055417 -0.46404991 0.71059883
0.071689934 -0.56160498 0.70067853
0.05861089 -0.5568614 0.70082539
0.2043895 -0.54344529 0.70730758
0.1461556 -0.53700292 0.7045247
0.1678744 -0.52587211 0.68200588
0.2257123 -0.47956869 0.67848009
0.1682626 -0.50666052 0.70818782
0.19043469 -0.52331269 0.71268189
0.2158096 -0.51968873 0.67715287
0.1072619 -0.40314251 0.74472642
0.094519317 -0.40209481 0.74772078
0.2120343 -0.42318529 0.68276513
0.2035941 -0.41862571 0.71077251
0.1931413 -0.55482668 0.69986409
0.18372341 -0.41234821 0.73395687
0.1426044 -0.45745921 0.70773292
0.1690539 -0.4549309 0.71949983
0.1660275 -0.50337517 0.70736492
0.121613 -0.59822989 0.68714851
0.1223034 -0.40810341 0.71700537
0.37494731 -0.33498999 0.74669892
0.29466739 -0.52715069 0.71514988
0.43024179 -0.37407121 0.7034716
0.3341898 -0.188797 0.87926269
0.23131789 -0.195813 1.036157
0.32975191 -0.2009636 0.88647968
0.29811609 -0.1973411 0.72795087
0.30245429 -0.1959333 0.83055252
0.3801282 -0.4018313 0.68186218
0.2130436 -0.1930978 0.77686828
0.30972081 -0.1964784 0.72881871
0.34068549 -0.1964314 0.80410522
0.28329909 -0.19177701 0.98103762
0.2575264 -0.1936761 1.032712
0.23036291 -0.1960364 0.79199612
0.39246139 -0.21115419 0.722161
0.28027591 -0.1936174 0.85924888
0.41606411 -0.1954449 0.86338001
0.34625241 -0.19931459 1.022717
0.2485318 -0.1886864 1.056229
0.3891331 -0.1913203 0.99889302
0.27257839 -0.1932857 0.98399758
0.2253657 -0.19636139 0.75766689
0.2478223 -0.22006039 0.71327788
0.083376311 -0.1911642 1.0195431
0.081725098 -0.18950211 0.87835783
0.26460281 -0.20395701 0.82025641
0.2018453 -0.1994728 0.7723428
0.1822561 -0.2002873 0.81920618
0.2505514 -0.2025499 0.80520988
0.24285071 -0.2000715 0.93203932
0.1636683 -0.41781089 0.67670172
0.2156954 -0.36478081 0.70350152
0.28187099 -0.19958469 0.80785018
0.2296892 -0.1987333 0.79893899
0.1784091 -0.1931365 0.81818342
0.1220356 -0.2085636 0.8729583
0.2359937 -0.1958497 0.91044152
0.2190036 -0.1992539 0.90524381
0.25062111 -0.1954679 1.06923
0.1217782 -0.198048 0.89075738
0.175898 -0.1987703 0.99549162
0.3769882 -0.20800839 0.78763533
0.20653559 -0.2008885 0.84795642
0.26826891 -0.2012338 0.84389973
0.24487109 -0.19743919 0.91166872
0.3147786 -0.1966778 1.014148
0.084608048 -0.1927575 0.88581407
0.3544791 -0.20599569 0.91258192
0.201695 -0.1959227 0.85877079
0.29807901 -0.1995641 1.0108989
0.27769971 -0.19620641 0.99482232
0.25668171 -0.196022 0.91764277
0.2315084 -0.20242649 1.005021
0.40870699 -0.2027289 0.87326717
0.23192839 -0.1982529 0.89415473
0.10792 -0.1923205 0.80800962
0.2313264 -0.19860061 1.010236
0.3780854 -0.2002591 0.8082965
0.115355 -0.1954017 0.99396741
0.21782 -0.19521511 0.95000798
0.1611347 -0.1982231 0.97319072
0.2125981 -0.19860031 0.82412452
0.19007321 -0.1968945 0.84712732
0.26259741 -0.1976155 1.04883
0.28953689 -0.2030925 0.928491
0.29748139 -0.20095889 0.96115768
0.061201502 -0.18967441 1.080936
0.29732111 -0.20176481 0.94805467
0.342585 -0.2010674 1.0328979
0.1655425 -0.51255769 0.67157263
0.31313881 -0.20032451 1.0040621
0.36087829 -0.20155521 0.96341127
0.41581619 -0.36772439 0.70418262
0.3979024 -0.2052526 0.85606313
0.1893864 -0.1953005 0.98039043
0.1729566 -0.2007246 0.76753718
0.1007698 -0.19608361 0.79809958
0.2104678 -0.2013593 0.88506639
0.1315302 -0.4241108 0.68134803
0.1006962 -0.1980699 0.74099702
0.1458891 -0.1977198 1.078843
0.2995508 -0.20072851 1.0719219
0.3318392 -0.2006997 0.92070061
0.08530093 -0.1981809 1.003423
0.33253431 -0.2003821 0.9950906
0.24027289 -0.2038946 0.8773849
0.3262091 -0.2001396 1.030521
0.31338379 -0.53560281 0.66542071
0.298601 -0.19815969 0.89400548
0.28276411 -0.1967777 0.87169152
0.2968325 -0.202038 0.78547257
0.19659451 -0.20113701 0.7440412
0.1984791 -0.2018657 0.72882801
0.2492255 -0.55505961 0.65443659
0.078104272 -0.1933897 0.85075402
0.36275819 -0.20876899 0.89383411
0.1002595 -0.3634617 0.70822942
0.29740691 -0.20567439 0.72794658
0.3293553 -0.20122661 1.020667
0.22272161 -0.20214421 0.9403398
0.023801271 -0.41833401 0.68538469
0.070968091 -0.1940933 0.9384315
0.063829087 -0.1985202 0.85241848
0.3494496 -0.55354339 0.65593499
0.4016583 -0.2058351 0.98988187
0.40217489 -0.20376091 0.95176357
0.39968911 -0.20866869 0.73675531
0.055884279 -0.27247229 0.70686609
0.046740521 -0.2000529 0.73588228
0.1247359 -0.1960776 0.92532718
0.1744155 -0.1986651 0.90676212
0.30337149 -0.2024903 0.91947627
0.27195099 -0.2005655 0.86782002
0.2407563 -0.1999587 1.077008
0.27508989 -0.2121716 0.72651798
0.29055229 -0.21029679 0.78228521
0.22194029 -0.4718858 0.68419331
0.093296029 -0.19882891 0.89769471
0.29335791 -0.2070199 0.9255805
0.051347092 -0.1973446 0.8936398
0.3842237 -0.2110274 1.0244859
0.20475049 -0.19791371 0.95452422
0.38467979 -0.55461568 0.65795809
0.083591357 -0.1970219 0.83192372
0.12614331 -0.19969881 0.79409271
0.2038182 -0.2038984 0.82849699
0.2372651 -0.199763 1.059476
0.27022019 -0.2061234 0.90939218
0.2312825 -0.19584461 0.96394938
0.14182 -0.2017515 1.00423
0.2901195 -0.21056999 0.83106643
0.099360593 -0.204946 0.82280499
0.18602809 -0.18596449 0.9239676
0.4039436 -0.20843209 0.93988812
0.31201121 -0.2064043 1.0224251
0.077966847 -0.2013803 0.89601839
0.2079924 -0.2083132 0.94129181
0.045481611 -0.1836928 1.065964
0.182467 -0.4373976 0.68273783
0.17003129 -0.2061733 0.80776322
0.3707234 -0.2120612 0.91476619
0.2675159 -0.2049478 0.94375038
0.35484639 -0.2158033 0.97556019
0.19610681 -0.2002974 1.0038919
0.28955531 -0.2135863 0.90507179
0.05950411 -0.1908733 0.90209937
0.16465171 -0.2066873 0.74368811
0.45582661 -0.58226448 0.63360208
0.35591069 -0.2135479 0.75096393
0.36659351 -0.19949161 0.87004828
0.34161809 -0.2113058 0.80137688
0.37292689 -0.2066728 0.7940011
0.214683 -0.2200692 0.75358838
0.1212665 -0.3602902 0.70684582
0.1886695 -0.1960609 0.820678
0.2354189 -0.2035455 1.087471
0.3234804 -0.20750789 0.8125748
0.1953633 -0.19190291 1.065202
0.35025579 -0.36357549 0.72178388
0.075739346 -0.43977821 0.67710137
0.20879009 -0.55424172 0.65267801
0.17501301 -0.56029201 0.65314132
0.14671721 -0.5728752 0.65299082
0.2211272 -0.20998029 0.85394669
0.35715479 -0.2090997 0.92894888
0.35119751 -0.2139892 0.75775588
0.26944149 -0.2102171 0.79485577
0.2309034 -0.52807039 0.67415857
0.18744349 -0.1984953 1.074041
0.085399963 -0.20758539 0.7549848
0.064857438 -0.32389539 0.70154631
0.1545011 -0.19558039 0.81990212
0.063433006 -0.2110119 0.73601228
0.1774952 -0.3839595 0.69917917
0.037204981 -0.28391501 0.71747178
0.2812272 -0.2086526 0.72429812
0.079570077 -0.4105348 0.67839903
0.1704327 -0.2040941 0.82781613
0.110744 -0.44085389 0.67644447
0.068682224 -0.1918283 0.96602207
0.4712362 -0.58991969 0.61592078
0.2491826 -0.1987077 1.0773211
0.041645549 -0.3160679 0.70305938
0.40317291 -0.21413919 0.73853612
0.28580639 -0.2263287 0.82913232
0.40100291 -0.2264327 0.72390658
0.33080149 -0.21407861 0.79547793
0.16911221 -0.19753329 0.92313081
0.2024439 -0.2031969 0.85202271
0.1426497 -0.20609219 0.83019131
0.2298605 -0.22144251 0.93539518
0.092647053 -0.2018487 0.76150578
0.35455659 -0.2318968 0.72458899
0.15591221 -0.1979064 1.009222
0.046650302 -0.2397719 0.71634817
0.036453951 -0.53731418 0.65209502
0.078607664 -0.2033073 0.94990122
0.39235729 -0.55708557 0.65310133
0.39628929 -0.19903921 1.031723
0.25202039 -0.1897233 1.05697
0.3688367 -0.1918965 1.027727
0.2509664 -0.53166151 1.159812
0.3837114 -0.55888629 1.165303
0.3612915 -0.35722059 1.111077
0.3890036 -0.37608409 1.126233
0.2680327 -0.53476089 1.148407
0.065084398 -0.1952399 1.081921
0.0432912 -0.2433001 1.082551
0.36738101 -0.35857731 1.1111521
0.3609046 -0.36643821 1.097038
0.2455686 -0.35597709 1.086441
0.24130841 -0.45819151 1.135193
0.033494379 -0.29645529 1.095331
0.3807897 -0.33633611 1.116991
0.3744534 -0.31968531 1.102605
0.075919643 -0.54109728 1.149249
0.1205098 -0.3523922 1.0760469
0.034634899 -0.30002701 1.1005189
0.0029194951 -0.48675001 1.1167001
0.13235261 -0.3608892 1.078786
0.1716522 -0.49107611 1.136869
0.2350245 -0.36271241 1.090577
0.135195 -0.38356161 1.123684
0.28721869 -0.47765809 1.136686
0.1439379 -0.3544879 1.088533
0.33771911 -0.36561799 1.116622
0.2039414 -0.49509081 1.1471879
0.21598209 -0.361597 1.117432
0.0017870479 -0.4152762 1.056291
0.40677139 -0.46013951 1.14764
0.068130746 -0.2938354 1.0988671
0.33332059 -0.50400001 1.158905
0.3110624 -0.35163799 1.098067
0.2187188 -0.3144201 1.087894
0.049847189 -0.45086971 1.1443599
0.3359884 -0.54141432 1.158691
0.1164415 -0.39746881 1.134717
0.051024791 -0.39416981 1.13507
0.39478719 -0.52910411 1.161574
0.35393041 -0.41052261 1.143623
0.204163 -0.1900363 1.104936
0.1368666 -0.35301301 1.066504
0.064298593 -0.28535491 1.088802
0.1501487 -0.35222971 1.069514
0.081854992 -0.2345756 1.105906
0.04328119 -0.26636651 1.107268
0.31356159 -0.43793949 1.145095
0.3110432 -0.33517611 1.110594
0.02102384 -0.33039159 1.04102
0.2078591 -0.3486062 1.073261
-0.0096760606 -0.51612723 1.136757
0.2363652 -0.27326709 1.084137
0.2049032 -0.2019465 1.100248
0.094346412 -0.2101189 1.098884
0.1197104 -0.52550822 1.148615
0.43142679 -0.50468409 1.16146
0.3535561 -0.47269741 1.15259
0.37350571 -0.2781868 1.1043659
0.073590957 -0.4719829 1.139751
0.050411541 -0.52659953 1.154488
0.25576329 -0.24522831 1.087056
0.084630281 -0.4364062 1.141834
0.3526116 -0.4233115 1.13822
0.076382577 -0.49358311 1.149995
0.087660797 -0.2026933 0.87653762
0.40785 -0.1970216 0.73028189
0.08902704 -0.2046942 0.81275839
0.2225316 -0.18652511 0.9480266
0.2641387 -0.18883561 0.78720099
0.35714689 -0.1879338 0.74982607
0.27219549 -0.1934007 0.80176318
0.2186356 -0.18932921 0.74406219
0.1733139 -0.1928864 0.96984679
0.19255491 -0.19232149 0.97615671
0.37681469 -0.2109874 0.89452738
0.3727006 -0.19662739 1.024117
0.38925749 -0.1917408 0.99314457
0.2493543 -0.19164561 1.063509
0.32238701 -0.18626609 1.0163
0.27445471 -0.1831155 0.9691726
0.3222909 -0.2000906 1.015389
0.2360678 -0.189463 1.002359
0.30349651 -0.1971671 1.000242
0.26961291 -0.1882697 1.043723
0.29353279 -0.1897887 0.92232013
0.233813 -0.19845331 0.76089072
0.15627 -0.1874525 0.96434808
0.2095989 -0.19095939 0.84232581
0.29759949 -0.19003551 0.86520457
0.113547 -0.2010559 0.80185997
0.30124599 -0.19012441 0.94452173
0.38805929 -0.1975909 0.81515479
0.1625644 -0.1975044 0.85411572
0.2070912 -0.2023637 0.85144782
0.2383666 -0.17443679 0.89380473
0.22944809 -0.1952659 0.78515249
0.34261611 -0.2010041 0.91657943
0.25665319 -0.19904681 0.8106429
0.2260583 -0.190934 0.93361843
0.1626396 -0.1877396 0.78738278
0.087018691 -0.1894366 0.99743962
0.32608989 -0.20124041 0.71424878
0.2309361 -0.2048291 0.78754377
0.048923831 -0.191662 1.048436
0.1117698 -0.1976108 1.005383
0.26204139 -0.1920813 1.026945
0.32219961 -0.1924085 1.0036711
0.30543411 -0.200792 0.71717709
0.31021801 -0.2076645 0.88944513
0.41186309 -0.1981525 1.0021681
0.073733881 -0.201226 0.93029159
0.082224287 -0.1975687 0.93681002
0.41341189 -0.2007281 0.93495423
0.24572 -0.2130277 1.0768059
0.4007462 -0.1987046 0.99948752
0.40139869 -0.2026556 1.025063
0.1977722 -0.1937273 0.84876812
0.29034019 -0.55389202 1.2977329
0.35173649 -0.2016177 0.80434841
0.3015334 -0.19728941 1.0609649
0.413679 -0.2119846 0.85010022
0.070217229 -0.184982 1.055482
0.33169621 -0.18833581 0.78877908
0.30075511 -0.18921091 1.017938
0.1787769 -0.1968503 0.75916481
0.20399439 -0.1938141 0.86641061
0.2187693 -0.197348 0.81652677
0.28195521 -0.202957 0.71707529
0.28932601 -0.1937471 0.84659368
0.34356871 -0.1998179 0.79545909
0.2306674 -0.18956169 0.91828728
0.40226099 -0.18257231 1.0306669
0.3250671 -0.54248881 1.30885
0.081829369 -0.209465 0.83998442
0.072892614 -0.18496311 0.99165052
0.16022409 -0.20069601 0.97507453
0.27399179 -0.2054684 0.78360897
0.2230545 -0.1817921 0.90124881
0.1525563 -0.1803045 1.055374
0.25273469 -0.1970484 0.89541483
0.2006809 -0.1940746 1.024335
0.2035411 -0.2004485 1.061842
0.2358626 -0.1902598 1.006902
0.41554761 -0.1884906 0.72671813
0.2981483 -0.1899042 0.91980213
0.23966131 -0.1817449 1.0558749
0.3529962 -0.17003749 0.91122359
0.1741772 -0.185627 0.96990311
0.3065671 -0.1900264 0.94257939
0.2428647 -0.2171035 1.083326
0.30016571 -0.1898136 1.076622
0.4104102 -0.19167461 0.94820708
0.41916299 -0.194784 0.85477412
0.41740179 -0.18915009 0.94294423
0.36893281 -0.1934575 0.96122849
0.41101119 -0.194454 0.98579019
0.4195486 -0.54669112 1.167855
0.41690049 -0.19537839 1.074784
0.3816134 -0.1899634 1.056905
0.3932876 -0.54819989 1.33403
0.35171279 -0.19311351 1.019446
0.40330341 -0.19984201 1.041083
0.25534841 -0.1856979 1.0111639
0.50710332 -0.56229639 1.172377
0.3603439 -0.1771571 1.043156
0.32871261 -0.5299989 1.154768
0.09447702 -0.1968818 0.88670403
0.15252499 -0.1880253 0.94713098
0.129795 -0.1882804 0.98072052
0.25116181 -0.53796369 1.152952
0.1087844 -0.1908994 0.98502898
0.23792291 -0.19774701 0.95781398
0.3129859 -0.55441958 1.155232
0.052046452 -0.2081793 0.90871292
0.14791089 -0.1877692 1.073542
0.17726029 -0.56822371 1.1705869
0.1300583 -0.195152 0.91981798
0.1872004 -0.1749265 0.93262267
0.30589551 -0.56244469 1.173015
0.29535341 -0.5533188 1.165351
0.09726049 -0.1908433 1.080183
0.38956439 -0.53105551 1.164999
0.059350889 -0.1963096 0.99948359
0.2481128 -0.172086 1.074854
0.3627018 -0.54642242 1.167068
0.3785322 -0.54673839 1.226949
0.2487683 -0.54574043 1.267432
0.26074219 -0.1844908 0.91455799
0.191304 -0.1878576 0.8171314
0.23182531 -0.1949918 0.89293021
0.38664931 -0.208524 0.78910679
0.24813201 -0.1906105 0.93073249
0.33681059 -0.2019133 0.87723452
0.34016809 -0.19944119 0.89136708
