# .PCD v0.7 - Point Cloud Data file format
VERSION 0.7
FIELDS x y z normal_x normal_y normal_z curvature
SIZE 4 4 4 4 4 4 4
TYPE F F F F F F F
COUNT 1 1 1 1 1 1 1
WIDTH 210
HEIGHT 1
VIEWPOINT 0 0 0 1 0 0 0
POINTS 210
DATA ascii
0.33359653 -0.19521017 0.87566304 0.080627136 0.99629897 -0.029794259 0.0047407448
0.23114324 -0.19442928 1.0361745 -0.038195767 0.99826515 0.044807762 0.018642867
0.32985607 -0.19826987 0.88702953 0.079184577 0.99647844 -0.027575422 0.0051089451
0.30356354 -0.20074908 0.8326962 0.0013059533 0.99894249 -0.045959976 0.005390658
0.21293242 -0.19859588 0.77719074 -0.04371487 -0.99904406 -2.7457052e-05 0.0017302545
0.33958128 -0.20033655 0.7980969 0.0059319264 0.99691206 -0.078301504 0.0084140049
0.28283253 -0.19310828 0.98107213 0.027408311 0.9988817 -0.038525648 0.0016659379
0.25704992 -0.1908329 1.0327321 0.019522509 0.99871564 0.046752676 0.015017332
0.23043537 -0.19766386 0.79191983 -0.049989838 -0.99874765 0.0020522699 0.0015606491
0.28106487 -0.19846962 0.85974616 0.02673723 0.99869817 -0.043440524 0.0017425104
0.34648293 -0.19661717 1.0219511 -0.0022561927 -0.99910754 0.042179767 0.005093053
0.25066361 -0.18913276 1.0568284 0.01055507 0.99825913 0.05802884 0.024408344
0.38905346 -0.19708875 0.99896747 -0.0015758188 -0.9957251 0.092352934 0.0055507254
0.27373505 -0.18987934 0.98423064 0.024519619 0.99900126 -0.037352294 0.0016801202
0.22569272 -0.19846848 0.75767308 0.050205108 0.99845362 -0.023869419 0.0017866284
0.081320681 -0.1964308 0.878313 -0.10639807 -0.99306297 -0.050053045 0.0055827801
0.26728517 -0.1994454 0.81989175 -0.032467157 -0.99941051 0.011164733 0.0035674621
0.20186175 -0.19865914 0.77229506 -0.032286406 -0.99947619 0.0022047022 0.0011548771
0.18209277 -0.19664024 0.81967485 -0.016740579 -0.9998585 0.001649797 0.002589409
0.25069016 -0.19981667 0.80531693 -0.04203935 -0.99895787 0.017772041 0.0017610162
0.2428038 -0.19790092 0.93209624 -0.026037067 -0.99931729 0.026212353 0.0024915489
0.28125 -0.20352657 0.80784392 -0.036235813 -0.99931055 0.0080783628 0.00504504
0.22966452 -0.19833346 0.79896635 -0.03914858 -0.99919498 0.0087599168 0.0016090919
0.17877501 -0.19657455 0.81784993 -0.016744193 -0.99985844 0.001649852 0.0025878109
0.23601955 -0.1961997 0.91038913 0.024758061 0.99901533 -0.036814827 0.0024078146
0.21897069 -0.19911808 0.90526646 -0.025287673 -0.9990384 0.035816822 0.0024199644
0.24681681 -0.19417079 1.0685076 0.012512615 0.99753588 0.069032535 0.035499666
0.17569442 -0.19658822 0.99584055 0.014185586 0.99964535 0.022535894 0.0037450069
0.3762593 -0.20342952 0.78667802 0.011977704 0.99817139 -0.059249178 0.050341237
0.20690694 -0.19934712 0.84801441 -0.00034936151 -0.99970782 0.024168909 0.0016031786
0.2683014 -0.19996831 0.84364963 0.022243069 0.9985677 -0.048659276 0.0017896444
0.24494953 -0.19619159 0.91193759 0.024895882 0.99874866 -0.043372855 0.0024401082
0.31480393 -0.19732107 1.013976 -0.016844233 -0.99934548 0.032014344 0.0037233585
0.084380396 -0.19665773 0.88578886 -0.10708309 -0.99392956 -0.025244223 0.0065933899
0.3543351 -0.20654149 0.91257346 -0.085190944 -0.99634004 0.006998199 0.0078493757
0.2012527 -0.19904169 0.85876036 0.005253986 0.99923819 -0.03867165 0.0026777801
0.29803401 -0.19752087 1.0113274 -0.020832267 -0.99970448 0.012525525 0.0026000987
0.27865919 -0.19194439 0.99487996 0.025170516 0.99920577 -0.030892929 0.0019150178
0.25649852 -0.1970434 0.91761488 0.037040208 0.99869466 -0.035170548 0.0028670344
0.23042229 -0.19429298 1.0053221 -0.012328035 0.99979323 -0.016173635 0.0066526453
0.23169112 -0.19415952 0.89410287 0.026507499 0.99903101 -0.035133738 0.0023541062
0.10765785 -0.19247726 0.80772632 -0.022807859 -0.99855059 -0.048748493 0.0047073578
0.23077004 -0.19443415 1.0103903 -0.01860247 0.99977505 0.010193126 0.0091041327
0.11535342 -0.19562413 0.99384266 -0.026059261 0.99965948 0.0014013409 0.0072354921
0.21849123 -0.19734018 0.95074391 -0.016918071 -0.99977154 0.013062377 0.0026619779
0.16129921 -0.19284913 0.97444355 0.02911528 0.99883759 0.038416196 0.004471757
0.21263345 -0.19838762 0.82414991 0.021417832 0.99951756 -0.022493405 0.0021195691
0.18999319 -0.19810797 0.84705681 -0.012785933 0.99976116 -0.017719507 0.0018743814
0.25701296 -0.18915221 1.0480649 0.024554014 0.99798018 0.058589328 0.016419036
0.28959876 -0.19847941 0.92822027 -0.028554618 -0.99929208 0.024493814 0.0027890645
0.29720551 -0.19604172 0.96049899 0.039881781 0.99837077 -0.040807854 0.001879435
0.29517776 -0.19437836 0.94640881 0.037211046 0.99850243 -0.040102158 0.0021118307
0.3415105 -0.19488958 1.0322092 -0.0031548946 -0.99893606 0.04600814 0.0047553689
0.31308597 -0.19581302 1.0050306 0.026136128 0.99957621 -0.01281651 0.0025172338
0.18933235 -0.19624864 0.98022813 0.012301181 0.999883 0.0090886913 0.0038226268
0.21393824 -0.19271021 0.88155437 0.023278918 0.99906385 -0.03646303 0.0025770389
0.33170417 -0.20158359 0.92083412 0.072428189 0.99675 -0.035266209 0.0051873545
0.33110747 -0.19096725 0.99847871 0.020174427 0.99895644 -0.040975999 0.003645936
0.24044189 -0.19986264 0.87627041 -0.040877979 -0.99847466 0.037112061 0.0018444903
0.32626376 -0.19853783 1.0306661 -0.018077655 -0.99898678 0.0412139 0.0043391879
0.29866299 -0.1987268 0.89394474 0.065489843 0.99753714 -0.025113786 0.0036263985
0.28270483 -0.19870222 0.87131262 0.024842354 0.99889874 -0.039802369 0.002057089
0.29687151 -0.2014475 0.78552502 0.054634903 0.99794394 -0.033509601 0.0062465919
0.19661348 -0.20283549 0.74444044 -0.020599786 -0.99919689 0.034368627 0.0019747771
0.077178232 -0.19803269 0.85143912 -0.096467249 -0.99352866 -0.059957441 0.0049406732
0.36366749 -0.20591547 0.89434576 -0.07230904 -0.99723721 -0.017009798 0.00857969
0.32925665 -0.19872114 1.0213372 -0.020072667 -0.99886668 0.043154936 0.0037842353
0.2220013 -0.19914801 0.94017231 -0.021975853 -0.99955922 0.019961581 0.0024714679
0.06602525 -0.19330816 0.85134637 -0.10639807 -0.99306297 -0.050053045 0.0055827801
0.40126029 -0.19923793 0.99025601 -0.014370726 -0.99498928 0.098943345 0.00688018
0.40247795 -0.20223624 0.95164758 -0.051200129 -0.99171948 0.11777512 0.0022136644
0.30322805 -0.2003683 0.91896087 0.061530542 0.99775332 -0.026502036 0.0036744154
0.27153274 -0.19787738 0.8678441 0.015972208 0.99914849 -0.038043283 0.0015572309
0.2423522 -0.1997512 1.0777518 -0.083251886 0.99138427 0.10112518 0.046366509
0.29111612 -0.20868361 0.78182793 -0.057657715 -0.99792188 0.028765799 0.0065275091
0.092648625 -0.20086987 0.89729804 -0.10708309 -0.99392956 -0.025244223 0.0065933899
0.29287505 -0.20020916 0.92468351 -0.04581587 -0.9986912 0.022729434 0.0033897152
0.052077796 -0.19442442 0.89611518 -0.075288586 -0.99585348 -0.051063746 0.0052281013
0.38468912 -0.19642374 1.0234777 0.0064552729 -0.99565822 0.092860505 0.0064746221
0.20575655 -0.19486786 0.95489877 0.011213524 0.99993622 0.0013035549 0.0031091613
0.085847303 -0.19682306 0.83399945 -0.065421037 -0.99726051 -0.034519136 0.0043873042
0.12555151 -0.19457211 0.79499376 -0.0047488888 -0.99840587 -0.056240909 0.0036201982
0.20386058 -0.19849071 0.82857621 0.0041168798 0.99982393 -0.018308571 0.0019429434
0.23672061 -0.19647856 1.0605205 -0.023320118 0.99776298 0.062651671 0.032386076
0.27094641 -0.19834471 0.90952158 -0.016025001 -0.9995417 0.025681993 0.0024063669
0.23090629 -0.19429673 0.96364415 0.01248888 0.99973798 -0.01917964 0.0023557509
0.1423367 -0.19784708 1.0046268 0.03524074 0.99579519 0.084557518 0.003089691
0.29107937 -0.20307788 0.83043021 -0.017128674 -0.99914479 0.037633881 0.004306375
0.098596856 -0.204979 0.8221246 -0.037636667 -0.998487 -0.040091958 0.0038632536
0.18249138 -0.18605159 0.92832452 0.02521506 0.99959385 -0.01328546 0.0035252457
0.31221965 -0.19953267 1.0240393 -0.012338889 -0.99961352 0.024913084 0.0042637275
0.077969044 -0.19812106 0.89654058 -0.10708309 -0.99392956 -0.025244223 0.0065933899
0.21096158 -0.195335 0.94119334 0.022404954 0.99970245 -0.0096399467 0.0029128576
0.16883965 -0.1962065 0.8120575 0.0025509426 0.99998593 0.0046507413 0.0028996461
0.37073138 -0.21203916 0.91476828 -0.088962689 -0.9960342 0.0011982077 0.009776134
0.2680732 -0.19579352 0.94288218 0.028792327 0.99895847 -0.035399497 0.0017613987
0.19631477 -0.19715522 1.0040039 -0.013038721 0.99990678 -0.0040547233 0.0033007995
0.29025131 -0.20122801 0.9044947 -0.037222944 -0.99911809 0.019430712 0.0027180698
0.059498772 -0.19879584 0.90083009 -0.075288586 -0.99585348 -0.051063746 0.0052281013
0.36613205 -0.20079306 0.86966968 0.12607753 0.99194843 -0.011946196 0.0053602057
0.34220964 -0.20999832 0.80337852 -0.001898098 -0.99675035 0.080530711 0.0088272281
0.37174064 -0.2074043 0.79119158 -0.016143888 -0.99897951 0.042180892 0.030265516
0.2105561 -0.20238321 0.75006795 -0.037373502 -0.99905831 0.022039868 0.0014109081
0.18874501 -0.19761176 0.82057416 -0.0058068028 -0.99998182 0.0016639006 0.0022769675
0.24231598 -0.20427331 1.0881364 -0.073534153 0.98742402 0.1399519 0.059736148
0.32347158 -0.2037694 0.81303614 0.0097863935 0.99770337 -0.067023739 0.0058940467
0.22271718 -0.20245069 0.85407478 -0.021425547 -0.99921501 0.033320971 0.0014432058
0.35805187 -0.20306028 0.92758924 0.064708129 0.99624205 -0.057573225 0.0051751374
0.35119751 -0.2139892 0.75775588 0.021162348 -0.99492538 0.098365083 0.039784584
0.26958975 -0.20217331 0.79400927 -0.028853575 -0.99949121 0.013588868 0.0043207584
0.15518862 -0.1996308 0.8192603 0.0027436574 -0.99946642 -0.032547239 0.0024956784
0.16979559 -0.19938372 0.82772666 0.0054637785 -0.99988526 -0.014128519 0.0032876437
0.24370062 -0.19942045 1.0747662 -0.083251886 0.99138427 0.10112518 0.046366509
0.28420568 -0.20666999 0.82282531 -0.016135501 -0.99896455 0.042538106 0.0041779238
0.32871675 -0.20853211 0.8021484 -0.0096603138 -0.99707973 0.075754553 0.0070748138
0.16932189 -0.19781442 0.92339873 -0.019288799 -0.99955362 0.022817113 0.0034783601
0.20317079 -0.19890504 0.85201752 0.00058550533 0.99952435 -0.030832939 0.0020875612
0.14230236 -0.20448072 0.83000195 -0.0070173894 -0.99969816 -0.023545669 0.0021444231
0.22444086 -0.19889906 0.93413484 -0.019857183 -0.99960953 0.019657115 0.0025221966
0.15559988 -0.19962718 1.0090663 0.011584077 0.9990806 0.041276094 0.0024642497
0.39648354 -0.19643874 1.0317131 0.0024353799 -0.99553758 0.094334744 0.0087740533
0.25066656 -0.18943983 1.0565894 0.01055507 0.99825913 0.05802884 0.024408344
0.36872274 -0.19490017 1.0284405 0.014013533 -0.99752057 0.06896659 0.0056874612
0.088390298 -0.19919382 0.87606269 -0.069921933 -0.9968183 -0.038264938 0.0048996052
0.22635894 -0.19645505 0.95021546 0.017486744 0.99971962 -0.015970364 0.0026532162
0.26302558 -0.20128234 0.78763241 -0.022677779 -0.99973178 0.0046876287 0.0042046267
0.27023944 -0.20150381 0.80079597 -0.03124105 -0.99941856 0.013655267 0.0037931991
0.22127263 -0.20063028 0.74631166 0.05889038 0.99767196 -0.034389716 0.0027570887
0.17327486 -0.19351166 0.9697302 0.023583299 0.9996351 0.013168552 0.004013692
0.19226608 -0.19603188 0.97559667 0.013441159 0.99990374 0.0034510086 0.0035026213
0.37685448 -0.2108878 0.89454854 -0.091078654 -0.99580663 -0.0085891932 0.012803892
0.37273574 -0.19499983 1.0239671 0.0076996908 -0.9957099 0.092208736 0.0053062481
0.38899902 -0.19670145 0.99244535 -0.0015758188 -0.9957251 0.092352934 0.0055507254
0.2483789 -0.19144137 1.0632347 -0.0026379647 0.99824464 0.05916661 0.03023587
0.31993917 -0.19393387 1.0022037 0.028733337 0.99950188 -0.013055782 0.0028126896
0.27766278 -0.19500847 0.97063267 0.026959768 0.99904597 -0.034357723 0.0016577949
0.32219234 -0.1975873 1.0160586 -0.016479703 -0.99951041 0.026594995 0.0044699614
0.23746075 -0.19435787 1.0020635 0.00039396249 0.99982327 -0.01879709 0.0066430783
0.30355731 -0.19628286 1.0002513 -0.025667254 -0.99911505 0.033321485 0.0023092905
0.26939592 -0.19245279 1.0433515 0.025726015 0.99777555 0.06149805 0.015014667
0.29329893 -0.19865803 0.92344481 0.04581587 0.9986912 -0.022729434 0.0033897152
0.23287372 -0.19555828 0.76097137 0.05052546 0.99843115 -0.024133826 0.0019028416
0.1561705 -0.19001105 0.96371722 0.054614592 0.99648345 0.063545153 0.0043412312
0.2077518 -0.19931594 0.84201604 0.012880307 0.99944049 -0.030866781 0.0019489944
0.2981998 -0.19658555 0.86451596 0.045232795 0.99829519 -0.036887147 0.0024870513
0.30189371 -0.19232233 0.94508266 0.043251909 0.99859715 -0.030545747 0.0030140155
0.16323017 -0.2012623 0.85379219 0.0059258123 -0.99959993 0.027656328 0.0034857229
0.20782962 -0.19979621 0.8515166 0.0030997319 -0.99975741 0.02180679 0.0016091682
0.23797429 -0.19392519 0.8997997 0.025894031 0.99896777 -0.037322331 0.0024478554
0.22958088 -0.19748035 0.78500605 -0.049363654 -0.99877959 -0.0015554965 0.0015514761
0.34189853 -0.2047894 0.91576093 -0.076617077 -0.99700588 0.010448646 0.0066638938
0.256598 -0.20015092 0.81061327 -0.027112121 -0.9995752 0.010697012 0.0029829857
0.2262838 -0.19703421 0.93293601 -0.022464901 -0.99936175 0.027773274 0.0024637235
0.16273843 -0.19638094 0.78694183 -0.00085896702 0.99998993 0.0043944279 0.0027632145
0.2313112 -0.19826047 0.78784096 -0.049362715 -0.99877971 -0.0015531456 0.001549903
0.26201984 -0.19166133 1.0269102 0.01270199 0.99907494 0.041084673 0.012512182
0.32226804 -0.19414639 1.0032061 0.017662369 0.99947679 -0.02709572 0.0042034909
0.30922529 -0.19832692 0.89089978 0.065513186 0.99754208 -0.024856681 0.003795906
0.40924525 -0.19280754 1.0021852 0.034981489 0.99425131 -0.10119644 0.0084343385
0.073799796 -0.20269665 0.93011945 -0.053099744 0.99852836 -0.011017481 0.0037269397
0.24764079 -0.21125418 1.0786719 -0.083251886 0.99138427 0.10112518 0.046366509
0.40049335 -0.19712828 0.99943835 -0.018069021 -0.99475884 0.10063902 0.0078428201
0.40192088 -0.19748203 1.0247663 0.0038134232 -0.9949035 0.10075888 0.0086207809
0.19747965 -0.19864421 0.84846902 -0.00735811 0.99973774 -0.021687686 0.0017160767
0.34989113 -0.20570724 0.79826605 -0.0057491604 0.99691182 -0.078318007 0.011154773
0.3015334 -0.19728941 1.0609649 0.028709017 0.99675781 0.075164445 0.016893502
0.33213165 -0.18949434 0.78738576 0.011534367 0.9986186 -0.051262613 0.012006371
0.30038199 -0.19664302 1.0163163 0.021458641 0.99971449 -0.010503692 0.0027216203
0.17878707 -0.19673963 0.75913769 0.014367818 0.99971414 -0.01910691 0.0019180992
0.20340782 -0.19580182 0.86677593 0.011370406 0.99934095 -0.034472078 0.0024137499
0.21857265 -0.19872276 0.81637233 0.019593978 0.99964225 -0.018203804 0.0020222594
0.29046944 -0.19805196 0.84765166 0.017508432 0.99905473 -0.039787378 0.0031901128
0.34373814 -0.19944339 0.79603243 -0.0010687255 0.99762887 -0.068814747 0.011491787
0.23137796 -0.19493222 0.91730231 0.022812389 0.99898541 -0.038830049 0.002453798
0.40181258 -0.19634728 1.0315574 0.0042086146 -0.99518085 0.097965926 0.010138669
0.084026076 -0.20138682 0.84007353 -0.073395029 -0.99616343 -0.047660913 0.0047390303
0.1604484 -0.19336843 0.9767828 0.034080472 0.99870926 0.037659638 0.004475208
0.2748616 -0.20114097 0.78390455 -0.037418973 -0.99925387 0.0095616095 0.0049226508
0.22322424 -0.1937374 0.90325302 0.025752107 0.99904072 -0.035418775 0.0024872248
0.25291818 -0.19577247 0.89537293 0.031455062 0.99851596 -0.04445767 0.0022214553
0.20089205 -0.19826956 1.0242953 -0.049121 0.99770886 0.046520591 0.011743223
0.20396324 -0.19629502 1.0621283 -0.12096242 0.9873336 0.10266673 0.029366149
0.23619238 -0.19323428 1.0067532 0.00038353074 0.99982327 -0.018794237 0.006638357
0.29707465 -0.19864392 0.92195177 0.047907963 0.99856162 -0.024073061 0.0034277616
0.24910323 -0.19376279 1.0571357 0.01055507 0.99825913 0.05802884 0.024408344
0.1736979 -0.1933035 0.96847194 0.023583299 0.9996351 0.013168552 0.004013692
0.30676204 -0.19729757 0.94268852 0.054618724 0.99791592 -0.034359373 0.0030641812
0.23853645 -0.21470419 1.0838683 -0.073534153 0.98742402 0.1399519 0.059736148
0.36851349 -0.19704272 0.96241146 0.046402786 0.99539262 -0.083906211 0.002512072
0.40921187 -0.20050402 0.98668534 -0.046964418 -0.99339408 0.10470225 0.0066454615
0.38361809 -0.18184038 1.0511844 0.0168778 -0.99249613 0.12110541 0.0080130426
0.35084733 -0.19708098 1.0212408 -0.00088817673 -0.99884582 0.04802363 0.0054502413
0.40294576 -0.19362023 1.0395066 0.048116975 -0.98391038 0.17206167 0.0082944958
0.2560519 -0.19290431 1.0116011 -0.0031986476 0.99986792 0.015934896 0.0093823439
0.36061016 -0.18720648 1.0469735 0.013814976 -0.99659574 0.081277184 0.0058934879
0.093939178 -0.19897664 0.88655323 -0.064382896 -0.99784064 -0.012995866 0.0042973203
0.15662171 -0.19562042 0.94674885 -0.057875689 -0.9968577 -0.054085117 0.004397714
0.12925358 -0.19196916 0.9798646 -0.040706221 0.99806631 0.046974842 0.0079417862
0.10878584 -0.19069736 0.98514229 -0.045429341 0.99893284 0.0083230883 0.0079750754
0.23734604 -0.19232558 0.95453423 0.017225746 0.9996683 -0.019144803 0.0026988366
0.05153852 -0.20128457 0.90990031 -0.075087234 -0.99581718 -0.052056789 0.0064648348
0.18739854 -0.18675235 0.92925966 0.032937318 0.9994483 -0.0042778472 0.0032329664
0.24310334 -0.17222829 1.072525 -0.083251886 0.99138427 0.10112518 0.046366509
0.26095703 -0.19382007 0.912265 0.028650803 0.99900949 -0.034045409 0.0025542525
0.19261189 -0.1976787 0.81683183 -0.012727029 -0.9999069 0.0049229306 0.0020738426
0.23185037 -0.19456041 0.89284009 0.026507499 0.99903101 -0.035133738 0.0023541062
0.38303107 -0.19724017 0.78196573 -0.031897206 0.99415648 -0.10312814 0.069030143
0.24682263 -0.19815226 0.92974561 -0.024938494 -0.99914545 0.032961849 0.0027661263
0.33529156 -0.19431475 0.87411362 0.076468565 0.99680346 -0.023138065 0.0047350801
0.33595145 -0.19677885 0.87696862 0.081217796 0.99622893 -0.030522512 0.0051249214
