# .PCD v0.7 - Point Cloud Data file format
VERSION 0.7
FIELDS x y z normal_x normal_y normal_z curvature
SIZE 4 4 4 4 4 4 4
TYPE F F F F F F F
COUNT 1 1 1 1 1 1 1
WIDTH 582
HEIGHT 1
VIEWPOINT 0 0 0 1 0 0 0
POINTS 582
DATA ascii
0.016907824 -0.15189797 0.81681424 0.17157857 0.58766776 0.79070055 0.062952273
0.020688161 -0.14988987 0.8145988 0.23315316 0.61799496 0.75081414 0.057260893
0.14040317 -0.3280836 0.67830426 0.98399973 0.051937308 -0.17043164 0.040839091
0.089036025 -0.13688755 0.72042304 0.46848571 0.8377974 0.28038642 0.024949679
0.10859242 -0.14558809 0.71378201 0.64877427 0.68674946 0.32782167 0.036148898
0.13858055 -0.25086635 0.6825667 0.99891561 0.038156964 -0.02667754 0.038827658
-0.038183194 -0.14261037 0.60285717 -0.35600471 0.82935017 -0.43062612 0.02730646
0.093886718 -0.13816567 0.71454281 0.4910571 0.84225947 0.22240007 0.027610334
0.10630719 -0.16401012 0.72880483 0.73394883 0.42952663 0.5261426 0.016687403
0.1399314 -0.34528884 0.69345158 0.9788779 -0.02209693 0.20324807 0.027081914
0.13120823 -0.36942762 0.71427101 0.91876888 0.11478731 0.37774009 0.016897665
0.11636428 -0.22156343 0.72961324 0.82428294 0.057860073 0.56321383 0.0042941119
0.1311641 -0.19389935 0.70476753 0.93660671 0.16100712 0.31119886 0.017454011
0.11811984 -0.36844313 0.73267716 0.80954134 0.1189706 0.57488161 0.0074570365
0.13418813 -0.24897467 0.70225364 0.950436 0.052234728 0.30650115 0.018764002
0.022540009 -0.13882259 0.79042184 0.19201568 0.89629668 0.3997277 0.027342064
-0.10023899 -0.14326207 0.71253121 -0.39088047 0.91548127 0.095428437 0.026351171
-0.087564059 -0.13887294 0.7021488 -0.29239035 0.95610869 0.019080309 0.0087917158
-0.1065225 -0.14531501 0.67963594 -0.49541476 0.8466934 -0.19409907 0.030974014
-0.10905941 -0.14855216 0.73224986 -0.53657234 0.72354752 0.4342455 0.036495287
-0.0049013807 -0.14213534 0.79393756 -0.093616337 0.92232215 0.37491035 0.027454652
0.1378593 -0.24571322 0.68140185 0.99597621 0.031386532 -0.083941959 0.036715709
0.017793218 -0.12976576 0.65012789 0.043767661 0.98650897 -0.15774785 0.0020921528
0.1224226 -0.32658312 0.72512478 0.85927647 0.041528881 0.50982279 0.0032466617
0.13051979 -0.29218397 0.7108286 0.9269101 0.030986909 0.37400204 0.015379567
0.13851106 -0.29164916 0.69004422 0.99759597 0.065747336 0.021900587 0.042247303
-0.011711455 -0.1381382 0.77888519 -0.14401074 0.94634956 0.28928083 0.010430095
0.12363943 -0.37617475 0.72483581 0.86752892 0.13006976 0.48007855 0.019730257
0.037005592 -0.1752544 0.80789876 0.52022928 0.31789729 0.79265553 0.016478855
-0.019517375 -0.13350751 0.75650901 -0.15505649 0.96523666 0.21041797 0.004072478
0.017698318 -0.43357432 0.83038473 0.31053689 0.070842646 0.94791776 0.037794136
0.11028167 -0.16486116 0.72159463 0.76574129 0.42990136 0.47835666 0.025319209
0.028926102 -0.28033015 0.82645619 0.45969006 -0.052697424 0.88651454 0.031192411
0.097667821 -0.13647218 0.6945796 0.47401959 0.87563425 0.092575207 0.033566758
0.025467135 -0.1478937 0.80696452 0.31173044 0.66520268 0.6784758 0.046247933
0.13059722 -0.20680983 0.68087572 0.98838145 0.11120517 -0.10361237 0.039999008
0.12779732 -0.2188578 0.71280777 0.93066961 0.059877452 0.36092749 0.014378024
0.13900867 -0.31741512 0.68884033 0.99002534 0.035170369 0.13642925 0.030221751
-0.066109061 -0.14025211 0.74433267 -0.29649025 0.90183175 0.31431347 0.022090521
0.10447606 -0.14092422 0.69677919 0.56261766 0.81959486 0.10828491 0.040875129
0.11084264 -0.14588283 0.70887601 0.67709696 0.67892903 0.28389272 0.042669136
0.13904509 -0.25958455 0.68342209 0.98640245 0.05072337 -0.15632437 0.049058124
-0.089982755 -0.14147212 0.71704298 -0.31599861 0.933227 0.17097403 0.015408619
0.14099424 -0.36097005 0.68807626 0.99740332 -0.049228601 0.052565478 0.052134003
0.11938148 -0.14517915 0.6917147 0.73097682 0.68093407 0.044740729 0.054384876
0.006439114 -0.14839526 0.81337339 0.026674079 0.62213075 0.78245878 0.073335454
0.021016328 -0.19925877 0.82552171 0.12415716 0.15195534 0.98055828 0.042008862
0.058767743 -0.12888598 0.68378949 0.13905658 0.99012804 -0.017601117 0.0030147193
0.13529511 -0.25091127 0.68705326 0.99189073 0.017875699 0.12582976 0.043153569
0.12269408 -0.32663533 0.72470522 0.86534584 0.042346384 0.49938297 0.0039053895
0.1163485 -0.25356835 0.73020095 0.84652436 0.016890211 0.53208196 0.0047307685
0.13828169 -0.27606982 0.68775326 0.99738359 0.049275778 -0.05289346 0.038702562
0.069963716 -0.14219925 0.62884474 0.33013898 0.80145717 -0.49867293 0.03970819
-0.064382598 -0.14821951 0.77017289 -0.4600867 0.69538587 0.55204958 0.035964068
0.00079446362 -0.13974458 0.78795624 -0.029072495 0.94190115 0.33462968 0.021373704
0.018018788 -0.29592925 0.83375567 0.13387437 0.010682759 0.99094069 0.052997336
0.011855604 -0.38919213 0.83217376 0.14465925 -0.025674589 0.98914838 0.03248335
0.11760892 -0.14567398 0.68345106 0.76186311 0.64563805 -0.052115437 0.061174694
0.10749963 -0.14216985 0.70795572 0.60012645 0.76937824 0.21887283 0.041184843
0.064621113 -0.13043776 0.6700775 0.21551438 0.96690834 -0.13653518 0.015377256
-0.0072387834 -0.13166106 0.62652916 -0.019500937 0.97671771 -0.21364042 0.0032935187
0.00055206887 -0.14366046 0.58962786 0.17278892 0.79967856 -0.5750289 0.037681602
0.098060235 -0.14341304 0.72478658 0.5804047 0.72218651 0.37626728 0.023969647
0.13244058 -0.1946969 0.70242739 0.94115055 0.16317314 0.29599029 0.017350839
0.14385557 -0.41068059 0.70511389 0.96083438 0.15401812 0.23038179 0.063994467
0.12450101 -0.2524471 0.71869838 0.92426938 0.028147759 0.38070184 0.020754777
0.13209005 -0.18168953 0.69573277 0.95102549 0.23796587 0.19728833 0.034954738
0.13782778 -0.28723574 0.69287401 0.99110413 0.058825601 0.11938276 0.0416651
0.025581358 -0.13912429 0.79086661 0.20302956 0.88771629 0.41320553 0.026408939
-0.034799334 -0.133462 0.73667866 -0.15363909 0.97581893 0.15547536 0.0025472532
-0.026311604 -0.13183802 0.64124554 -0.12455595 0.98018473 -0.1540249 0.0026932778
-0.044418152 -0.14543968 0.78667212 -0.448217 0.65099198 0.61262637 0.026684931
0.0095175151 -0.18246429 0.82522845 -0.051393829 0.23206352 0.97134197 0.031793542
0.025315523 -0.21258245 0.82449323 0.27243936 0.14143641 0.95172083 0.038462196
-0.024871726 -0.14316358 0.59245014 -0.19802752 0.81975847 -0.53738368 0.045677844
0.009503426 -0.13308701 0.62097007 0.0892893 0.95547485 -0.28123876 0.011495828
-0.0098995315 -0.13436712 0.61315048 -0.017799847 0.95410722 -0.29893565 0.0068717459
0.015450872 -0.1348336 0.61556631 0.12231955 0.93160373 -0.34227532 0.017213615
0.098192446 -0.13915713 0.6603117 0.46763155 0.83384651 -0.29329288 0.039745554
0.10897702 -0.14519045 0.66164994 0.65101069 0.67842418 -0.34047869 0.045000754
0.11836942 -0.16194625 0.70870548 0.83492255 0.42957953 0.34404331 0.030924981
0.13968714 -0.29738083 0.68147463 0.97547913 0.061268479 -0.21139185 0.040456686
0.14062619 -0.32758039 0.67547184 0.95847946 0.064424552 -0.277789 0.032687958
0.13564116 -0.31164306 0.70243651 0.94062793 0.033569433 0.33777556 0.021445172
0.13496126 -0.18802691 0.68001348 0.97051007 0.22105826 -0.096142977 0.043240622
0.11006922 -0.1997772 0.73534483 0.78990436 0.15783441 0.59257019 0.0015482956
0.13480374 -0.23610936 0.70117021 0.95709276 0.022288423 0.28892341 0.018406453
0.1298781 -0.35675517 0.7165063 0.91609365 0.072807871 0.39429858 0.013191326
0.013859924 -0.16959783 0.82476336 0.139606 0.38307288 0.91310751 0.050315697
0.021368545 -0.2382713 0.8316468 0.14814785 0.041217376 0.98810595 0.03966599
0.12489257 -0.1703306 0.70114988 0.91508812 0.33896503 0.21844062 0.034410693
0.018520398 -0.1943804 0.82569748 0.062928483 0.16875538 0.98364711 0.032672931
0.012327724 -0.31369516 0.83412153 0.0027765082 -0.019570831 0.99980462 0.035581034
0.0188004 -0.28558677 0.83430386 0.19951469 -0.031475216 0.97938919 0.038325634
0.11328241 -0.15156649 0.70982707 0.74266517 0.58591896 0.32426438 0.039459985
0.11292527 -0.15168905 0.7078169 0.7428816 0.59506661 0.30663118 0.040468611
0.13929367 -0.40714642 0.68357891 0.98728335 -0.063998319 -0.14551958 0.064229295
0.14201613 -0.36397889 0.6907028 0.97925025 0.0066177784 0.20254637 0.037901793
-0.0077120089 -0.13416196 0.76900148 -0.10674743 0.96458042 0.24122512 0.0045243469
-0.050778564 -0.14528686 0.77916682 -0.44903702 0.71552175 0.53515828 0.034929302
-0.12887266 -0.15348114 0.7113865 -0.7328614 0.67453057 0.08900962 0.074384764
0.015391248 -0.37495852 0.833112 0.05014487 -0.054680057 0.997244 0.030964023
0.026291993 -0.35237503 0.82369649 0.29626247 -0.038031396 0.95434916 0.035690844
0.11798204 -0.41059831 0.73537505 0.72498345 0.22940263 0.64944094 0.047158431
0.13721877 -0.35967693 0.70232654 0.95781147 0.0019713033 0.28739032 0.032221187
-0.012585619 -0.13116817 0.74678797 -0.095816158 0.98538613 0.14083123 0.0015397487
0.011267371 -0.33643577 0.83698708 -0.039527211 -0.0089422874 0.99917847 0.029622987
0.0034354345 -0.14858302 0.81557477 -0.022947751 0.5819276 0.81291676 0.073307991
0.13322593 -0.42915043 0.68471164 0.92106593 0.11348709 -0.3725028 0.051389147
0.040286906 -0.1526348 0.79701865 0.46847308 0.55263042 0.68929857 0.028724423
0.039624747 -0.21626569 0.81015623 0.58278978 0.13150205 0.80191225 0.006967505
0.012281462 -0.1521375 0.81923503 0.10680459 0.55612975 0.82420415 0.066905558
0.01302707 -0.13842556 0.60439038 0.15452935 0.8773495 -0.45428905 0.02268154
0.041993711 -0.23406714 0.58882302 0.58339 0.055542491 -0.81029075 0.00065631466
0.13228022 -0.35540357 0.66494793 0.90970582 -0.0086603612 -0.41516298 0.032220669
0.012976368 -0.20408136 0.57319903 0.47277308 0.14634442 -0.86894709 0.015740838
0.034276374 -0.35394362 0.57866371 0.57485902 0.010149767 -0.81818956 0.00055830023
0.12540376 -0.25657701 0.66900438 0.91835493 0.10009348 -0.382891 0.044245176
0.060306851 -0.21885435 0.604568 0.61969393 0.095129766 -0.77905703 0.0010043737
0.070874423 -0.15842257 0.628097 0.52161676 0.52931958 -0.6691314 0.043656748
0.093455672 -0.22295371 0.6321401 0.69647837 0.099785455 -0.71060592 0.0024429383
0.088781781 -0.28963667 0.62510508 0.69421172 0.049309958 -0.71807975 0.00063448661
0.10670556 -0.18151374 0.66023242 0.80515122 0.25045559 -0.53759056 0.015922025
0.09758205 -0.22671869 0.6363194 0.70898199 0.059914339 -0.70267695 0.0020373212
0.038523745 -0.19597559 0.59087884 0.57769489 0.14449817 -0.803361 0.00051525305
0.10777014 -0.27479562 0.64681792 0.7380628 0.042189483 -0.67341179 0.00085978972
0.09766037 -0.14502946 0.64857805 0.51331222 0.75271195 -0.4122321 0.043299112
0.079567358 -0.14267254 0.63396102 0.3754119 0.8181904 -0.43546569 0.04379594
-0.016217999 -0.29297164 0.5533998 -0.047446623 0.017873211 -0.99871385 0.035858538
0.050591201 -0.18302165 0.6042344 0.59452897 0.23505378 -0.76895064 0.0048059588
0.036983538 -0.24916096 0.58491874 0.57854426 0.046529677 -0.81432271 0.00039867224
0.091041237 -0.25821236 0.62883824 0.6921199 0.006261508 -0.72175539 0.00085840723
0.11256678 -0.40711772 0.64268863 0.77333909 0.20915543 -0.59849864 0.012272932
0.12692861 -0.40201628 0.66345924 0.87764156 -0.05079833 -0.47661796 0.013851283
0.064191855 -0.26067808 0.60570288 0.63607454 0.031103497 -0.77100044 0.00018736001
-0.016481856 -0.36136818 0.55268842 -0.18163425 0.012454544 -0.98328733 0.038340788
-0.0051396852 -0.26353365 0.55710363 0.060035065 0.056584258 -0.99659121 0.030054381
0.12103493 -0.19866601 0.66646159 0.88725811 0.16288102 -0.43155852 0.046173986
0.03259166 -0.40745494 0.57612902 0.48528337 0.01100796 -0.87428761 0.0028212958
0.10146933 -0.17390497 0.65446192 0.7264607 0.32212391 -0.60703456 0.021168429
0.00013014999 -0.21766452 0.56117958 0.14133075 0.060385596 -0.98811901 0.031283569
0.0663528 -0.1904439 0.61462826 0.64495945 0.16845874 -0.74541867 0.0009135658
0.048995655 -0.1496359 0.60964167 0.46706876 0.53357702 -0.70508325 0.028474422
-0.025952436 -0.13968956 0.60674083 -0.17174904 0.91231054 -0.3717415 0.019673742
0.059399422 -0.26041773 0.60195202 0.63055205 0.031361714 -0.77551311 0.00020892949
0.12977867 -0.35628802 0.66383934 0.90970582 -0.0086603612 -0.41516298 0.032220669
0.057740565 -0.217797 0.60246396 0.61850154 0.095408075 -0.77996999 0.0011263677
0.11285619 -0.36242938 0.64896661 0.75336665 0.026763704 -0.6570558 0.0028316814
0.093349598 -0.22735846 0.63169521 0.68263829 0.054500852 -0.72872126 0.0018668973
-0.012088547 -0.31345662 0.55209655 -0.089613497 0.012784381 -0.99589455 0.028502217
0.069456235 -0.3436901 0.60647577 0.62935627 0.056304753 -0.77507454 0.0004227566
0.12718382 -0.34101352 0.66309428 0.87868363 0.027565187 -0.47660801 0.02879283
0.0080680875 -0.41121346 0.56344604 0.29419357 -0.07473626 -0.95281929 0.018034214
0.10140651 -0.27385524 0.63904315 0.73163188 0.016881503 -0.6814909 0.00089032197
0.052926697 -0.36965731 0.5916118 0.59666985 0.041472819 -0.80141449 0.00095001387
0.080550872 -0.15137351 0.63493323 0.49405631 0.61371493 -0.61584282 0.061134294
0.061787456 -0.1355698 0.64331102 0.20437481 0.93278116 -0.29690117 0.015984798
0.027871838 -0.12925315 0.65839541 0.04639015 0.9920786 -0.11673872 0.002286128
0.051233571 -0.17535719 0.60748029 0.58427507 0.26150486 -0.76826936 0.0076064626
0.10526411 -0.18393959 0.65673161 0.76536518 0.20183668 -0.61112851 0.0082905823
0.082486548 -0.28463557 0.61997187 0.69436389 0.043920945 -0.71828264 0.0007578932
0.049085118 -0.14881793 0.61060232 0.45703301 0.59227127 -0.66357785 0.036642108
0.12774211 -0.25688589 0.67095143 0.91865814 0.09938661 -0.38234729 0.04691517
0.078418128 -0.36703092 0.61216497 0.62294024 0.078924432 -0.77827793 0.00039537431
0.11262941 -0.26918817 0.65351456 0.78049767 0.059098829 -0.6223591 0.0044207443
0.12918873 -0.26728463 0.67238957 0.94596255 0.074866429 -0.31551537 0.050499722
0.052987967 -0.24727069 0.59692341 0.60695112 0.03994913 -0.79373443 0.00079440599
0.03365282 -0.37393183 0.57841063 0.55068249 0.0071219918 -0.83468443 0.0011590301
0.039057594 -0.14653182 0.60627478 0.40618935 0.63487571 -0.65722382 0.032210469
0.011132557 -0.1692325 0.57959038 0.3958829 0.44804341 -0.8015821 0.027800895
0.059689064 -0.1441997 0.62265563 0.38754585 0.73600715 -0.55506915 0.043500073
0.11252871 -0.40981019 0.64402217 0.79203099 0.18530251 -0.58167851 0.01642566
0.03982912 -0.19691409 0.59147584 0.5764299 0.14373499 -0.80440593 0.00056023378
0.05413625 -0.27808934 0.59638858 0.6165477 0.033432979 -0.78660744 0.00040390179
0.012698072 -0.34537983 0.56300765 0.43053997 -0.026577171 -0.90218014 0.0090726772
-0.014884809 -0.36645672 0.55232042 -0.077809945 0.0063013844 -0.9969483 0.034983549
0.013489719 -0.33243036 0.56407791 0.44249317 -0.010683401 -0.89670825 0.0062544197
-0.0020463886 -0.22615993 0.55926156 0.085640572 0.053687252 -0.99487865 0.033586208
0.05399847 -0.41543767 0.58945143 0.5422883 0.056955352 -0.83825976 0.0021470808
0.13305578 -0.26130584 0.67838579 0.96707445 0.07057105 -0.24451357 0.054688491
0.083050333 -0.4051545 0.61157161 0.65097475 0.17159551 -0.7394504 0.013413423
0.13666382 -0.35036162 0.67423177 0.97459483 -0.0039079953 -0.2239411 0.047740761
0.11600579 -0.27606848 0.65601742 0.79574549 0.06784945 -0.60181844 0.0098289838
-0.01069407 -0.2779758 0.55406392 -0.024401683 0.04725283 -0.99858487 0.034294497
-0.016280919 -0.22536427 0.5537529 -0.1573659 0.092675418 -0.98318219 0.038079266
0.12732589 -0.37472203 0.66406107 0.88376987 0.009120211 -0.46783298 0.029849984
0.00019094624 -0.18612717 0.56811184 0.30683291 0.28015757 -0.9095962 0.032308266
0.06867215 -0.13448972 0.64970297 0.21163873 0.93836629 -0.27327237 0.018845877
-0.013370669 -0.26355469 0.55413818 -0.039467279 0.045705661 -0.99817497 0.036230341
0.091595314 -0.25934109 0.62966895 0.6928069 0.0046328339 -0.72110832 0.00087465189
0.11439274 -0.2869404 0.65277517 0.78161407 0.0228063 -0.62334532 0.0057877791
0.11425132 -0.32235238 0.65028584 0.76099002 0.058901675 -0.64608425 0.0040348084
0.066477336 -0.20135899 0.61100692 0.62941211 0.1371249 -0.76487726 0.0010922572
-0.0022166723 -0.17359821 0.57056087 0.23192708 0.41519132 -0.87967384 0.044755805
0.093030937 -0.23210177 0.6311999 0.69039208 0.031833272 -0.72273469 0.001577731
0.023468899 -0.24792232 0.57573658 0.53348672 0.033893444 -0.84512907 0.0025294754
0.015754655 -0.23405424 0.57247359 0.47926286 0.034749202 -0.87698323 0.010834863
0.070294723 -0.19555525 0.61591214 0.64758378 0.1630843 -0.74433774 0.0010243045
0.0198297 -0.17273764 0.58295739 0.48118681 0.38915777 -0.78550333 0.015409261
-0.0070652319 -0.40445516 0.55675161 0.12870994 -0.11096855 -0.98545408 0.032104727
0.064724244 -0.23025315 0.60740989 0.62884408 0.06950406 -0.77441865 0.00070756394
0.086700179 -0.23100208 0.62558466 0.67481613 0.045962024 -0.73655325 0.0014900499
0.098447733 -0.15818556 0.65603584 0.61839539 0.63027185 -0.46940884 0.041841123
0.062029105 -0.27381182 0.60329747 0.6353206 0.03161722 -0.77160096 0.00015883462
0.091792561 -0.32606724 0.62731028 0.70359945 0.029753976 -0.70997363 0.00074041751
0.003212081 -0.25654766 0.56182814 0.30140972 0.048185539 -0.95227641 0.025594261
0.036006045 -0.30519158 0.58133966 0.58134758 0.044730786 -0.81242484 0.00047289568
-0.062033433 -0.13559631 0.72327286 -0.19067785 0.9721114 0.13653319 0.00242437
-0.016743548 -0.21564886 0.55415946 -0.21358223 0.10724575 -0.97102058 0.039122298
-0.098111801 -0.14421427 0.72872812 -0.42062464 0.83875597 0.34577951 0.027494283
0.072392404 -0.1311993 0.70041639 0.23825401 0.96927929 0.061095245 0.0051295166
0.060793191 -0.41259333 0.59209502 0.5598563 0.073399365 -0.82533234 0.0020904914
0.078622848 -0.27871686 0.61762762 0.67726845 0.033385094 -0.7349782 0.0007663393
0.07768093 -0.23575769 0.61849278 0.65024745 0.040290967 -0.75865334 0.0005671081
0.075675517 -0.23596391 0.61701298 0.64478719 0.043392107 -0.76312947 0.00049603329
0.095883012 -0.21414466 0.63469321 0.69406009 0.13296564 -0.70753145 0.0019226769
0.11828408 -0.16568483 0.67152584 0.8749938 0.41866192 -0.24312152 0.04367771
0.075202517 -0.25807247 0.61606026 0.66091996 0.020482482 -0.75017679 0.00068507821
-0.011330822 -0.32867962 0.55148327 0.00094970316 -9.239152e-06 -0.99999958 0.027768558
0.036732614 -0.27004814 0.58375651 0.5750072 0.052313019 -0.8164742 0.00061352976
0.086311698 -0.21964116 0.62556702 0.67211431 0.079650603 -0.73615086 0.0020101035
0.0036217461 -0.20588744 0.56573284 0.30353227 0.12431591 -0.94467652 0.033234879
-0.0087200748 -0.34295738 0.55254483 -0.017099066 0.0036220222 -0.99984729 0.033880472
0.095078327 -0.34434932 0.62919831 0.70331049 0.034158979 -0.71006173 0.0010044683
0.081729405 -0.42809734 0.60513139 0.57982528 0.30946687 -0.75367963 0.011570239
0.0026148213 -0.33291215 0.55706209 0.29729238 -0.0090678371 -0.95474344 0.018818174
-0.0055001718 -0.32637441 0.55270773 0.024102438 -0.003386453 -0.99970382 0.026876401
0.064633928 -0.1302298 0.71016574 0.18945776 0.97826302 0.084304944 0.0037001146
-0.11078373 -0.14794019 0.72812998 -0.51470476 0.77777416 0.36075819 0.034344506
0.043130603 -0.36718348 0.58464074 0.58269215 0.03754051 -0.81182539 0.00089471129
0.11892947 -0.14574817 0.68942624 0.73961216 0.67283899 0.016171854 0.05793884
0.11537364 -0.15563381 0.67372268 0.83529586 0.51057047 -0.20395736 0.053837612
0.13676988 -0.2561428 0.68631649 0.99546021 0.056425001 0.076649025 0.049636066
0.098043367 -0.15186779 0.65676558 0.55623925 0.73231113 -0.39283374 0.040821936
-0.0087070549 -0.29220453 0.55401874 0.032161251 0.036960665 -0.99879909 0.032033149
-0.11398123 -0.14634843 0.69791675 -0.53440624 0.8415013 -0.079281539 0.044394601
0.029866749 -0.14935778 0.59779185 0.42024341 0.59001738 -0.68940187 0.041638073
0.13616411 -0.20255326 0.68430746 0.99266207 0.11648276 -0.032462474 0.03966549
-0.0061976905 -0.20767854 0.55601662 -0.0083989287 0.12701859 -0.99186486 0.041942596
0.12936924 -0.19291848 0.67588627 0.96986675 0.21241814 -0.11931875 0.044396657
-0.0024160757 -0.15119815 0.57829887 0.13745221 0.70644122 -0.69429648 0.049455252
0.12665121 -0.18029559 0.67857122 0.94036126 0.31089497 -0.13807604 0.046093613
-0.0049757608 -0.39911437 0.55765676 0.12852313 -0.11315016 -0.98523027 0.031451005
-0.0021884011 -0.26872748 0.55752468 0.19523016 0.056197122 -0.979146 0.030931909
0.13306306 -0.22920692 0.68514973 0.99572915 0.055832405 0.073526047 0.027302917
-0.044227179 -0.14370227 0.7770412 -0.41161755 0.77280933 0.48304942 0.033367433
0.089784339 -0.13994165 0.72948331 0.51374197 0.78131431 0.35442495 0.021170542
-0.13348435 -0.1542166 0.70624024 -0.75859505 0.64952403 0.051500067 0.072124198
-0.032056622 -0.14248352 0.78409362 -0.34870079 0.81341857 0.46557283 0.027158499
0.054822948 -0.13192526 0.65642893 0.15678437 0.96050572 -0.2298857 0.016664704
0.11265395 -0.14633843 0.69658387 0.68167979 0.72368652 0.10765939 0.048867196
-0.015691573 -0.41875079 0.55684149 -0.11371786 -0.30424544 -0.94578165 0.060615178
-0.031087261 -0.41549537 0.55947876 -0.34563375 -0.31703347 -0.88319141 0.049730249
0.017579541 -0.12819813 0.6968922 -0.00094892451 0.9999063 0.01365776 0.00040963478
0.016777877 -0.36672136 0.56727731 0.43882334 -0.018169174 -0.89838958 0.007861576
0.013233834 -0.23117283 0.57080436 0.43711028 0.028636007 -0.89895201 0.016775187
0.11785635 -0.1488671 0.684026 0.7794621 0.62539595 -0.036315605 0.061416991
-0.0084463386 -0.14578816 0.80422568 -0.27477792 0.67465496 0.68508226 0.0504173
0.077345222 -0.37776926 0.60949522 0.6188975 0.08653491 -0.78069049 0.00058849476
0.017044989 -0.16630983 0.58345163 0.43859345 0.47241509 -0.76449972 0.022938855
0.0061159641 -0.16725549 0.5750491 0.34061694 0.46439618 -0.81750619 0.036723066
-0.0094552152 -0.21311386 0.55597955 -0.12614271 0.10881412 -0.98602611 0.041879088
0.014538543 -0.27028009 0.56862032 0.40819591 0.046666704 -0.91170079 0.016057035
0.054738946 -0.3660419 0.59322971 0.59667158 0.04145059 -0.80141425 0.00095073442
-0.0061791386 -0.39323965 0.55434871 0.1013646 -0.10941485 -0.98881429 0.027998138
-0.0085521154 -0.19953722 0.55597562 -0.048765488 0.13918632 -0.98906475 0.045865037
0.11002387 -0.30870032 0.64610708 0.73702854 0.049182769 -0.67406964 0.00079626404
-0.021048887 -0.14133878 0.78861469 -0.24421819 0.87468195 0.41867536 0.024812831
-0.038282033 -0.1325462 0.64994818 -0.17698923 0.97578633 -0.12851427 0.0022069751
0.036816075 -0.16330768 0.5970723 0.48651463 0.44655445 -0.75092787 0.024636703
0.01171015 -0.33916849 0.56278294 0.41559789 -0.03791564 -0.90875787 0.011580678
0.055210285 -0.18059631 0.60940349 0.59617245 0.23601408 -0.76738244 0.0045363624
-0.017415604 -0.35711804 0.55172211 -0.18182121 0.0091334879 -0.98328918 0.037230428
-0.0024578709 -0.20201245 0.56129098 0.070176624 0.13906716 -0.98779327 0.044164598
0.0053060385 -0.26216149 0.56311446 0.3001658 0.062964596 -0.95180666 0.024702776
0.090256155 -0.32156706 0.62543988 0.68444955 0.042329431 -0.72783041 0.00044079468
0.009195135 -0.16398804 0.57866389 0.35599625 0.52370363 -0.77395171 0.036377553
-0.054620981 -0.13435683 0.66472417 -0.20312087 0.97251332 -0.11384062 0.0037628885
0.01285729 -0.1495322 0.58664179 0.26002747 0.71615463 -0.64769453 0.032572355
0.060777999 -0.13095523 0.66326523 0.19802953 0.96387517 -0.17812604 0.018295148
-0.0078006792 -0.28724295 0.55421919 0.052084558 0.046844255 -0.99754333 0.030562464
0.00060546672 -0.21163227 0.56284839 0.21646032 0.083710201 -0.97269607 0.037520461
-0.022646552 -0.14475168 0.79389602 -0.34188986 0.71277505 0.61242384 0.031695023
-0.088302523 -0.14290282 0.73527908 -0.37425649 0.8331514 0.40717405 0.025502451
0.13933162 -0.2962741 0.68389547 0.97636771 0.06307134 -0.20670776 0.043300007
0.12628539 -0.22279298 0.66958308 0.93478233 0.073566228 -0.3475199 0.043975916
-0.02658263 -0.12923536 0.66159391 -0.11308856 0.99084437 -0.073744334 0.0017003949
-0.13171761 -0.15191931 0.71627837 -0.72065043 0.67861593 0.14192668 0.071610764
0.015642187 -0.27106798 0.56915402 0.43216145 0.038994372 -0.90095282 0.01280045
-0.016759155 -0.29187006 0.55354261 -0.066367589 0.032230657 -0.99727452 0.035505511
0.038442254 -0.27049574 0.58490407 0.57939553 0.051975749 -0.81338757 0.00078894646
-0.010342402 -0.26894733 0.5547297 -0.0063996832 0.056788925 -0.99836564 0.035082858
-0.0098596262 -0.27838209 0.55398327 -0.023732521 0.046388444 -0.99864155 0.033146515
-0.056427211 -0.14182024 0.61922562 -0.42790842 0.80925941 -0.40248433 0.025716292
0.067544751 -0.18242697 0.61826611 0.61243469 0.18547431 -0.76845491 0.0024035014
0.0016175418 -0.20130731 0.5647589 0.25621086 0.13657549 -0.95692372 0.038952697
0.1388797 -0.29368845 0.68646669 0.99401999 0.081463546 -0.072718553 0.041130919
0.0012996024 -0.23111932 0.56217623 0.19215828 0.036107708 -0.98069942 0.04063401
0.064917073 -0.13241178 0.7231825 0.21274903 0.96350569 0.16246428 0.0086959628
-0.0016079432 -0.12866095 0.67539561 -0.029057024 0.99928129 -0.02434312 0.00062227919
-0.0085109742 -0.18831976 0.5586471 -0.057054676 0.20196809 -0.97772884 0.045115586
-0.00014379642 -0.32691023 0.55674773 0.23766753 -0.0032096 -0.97134125 0.024268206
-0.0028215016 -0.29305395 0.55603111 0.13871655 0.034495443 -0.98973119 0.038867433
-0.031771999 -0.13974363 0.60259968 -0.27288127 0.87138885 -0.40769756 0.030373413
-0.0079525141 -0.1286242 0.66385514 -0.048815519 0.99745166 -0.052030597 0.0014095602
-0.057024393 -0.14578924 0.77158988 -0.42997965 0.75246841 0.49890748 0.035550509
0.086558104 -0.13435441 0.66217428 0.35891363 0.90489191 -0.22880489 0.02783796
-0.06081162 -0.13691512 0.73585796 -0.23618209 0.9446559 0.22769101 0.011958336
0.13966879 -0.39892983 0.68687904 0.99858284 0.045118812 0.028225077 0.052207224
0.14087033 -0.36702549 0.68216503 0.99979413 -0.013550401 0.015102939 0.05662296
0.1269967 -0.28471795 0.66655922 0.92429179 0.062377665 -0.37655514 0.045734748
-0.013858703 -0.18280418 0.55780888 -0.13261765 0.25545609 -0.95768201 0.050898481
-0.028012611 -0.14717577 0.58464193 -0.27810901 0.71293575 -0.643722 0.050354399
-0.036197424 -0.13879284 0.6115067 -0.28751531 0.88684237 -0.36172578 0.023553532
-0.0017833577 -0.18908355 0.56457883 0.17361017 0.22031108 -0.9598555 0.043794848
-0.013547834 -0.2048666 0.55488521 -0.14012372 0.11037379 -0.98396283 0.042191785
-0.011740835 -0.3856644 0.55325413 0.00054564944 -0.088389657 -0.99608582 0.029754916
0.14014909 -0.32886502 0.68248433 0.99951988 0.030751811 0.0037719454 0.044195376
0.12081566 -0.35211942 0.65753055 0.82871413 -0.0067129214 -0.55963188 0.03081871
-0.0059872041 -0.31508455 0.55310231 0.013828192 0.022888776 -0.99964243 0.028822999
-0.0048602191 -0.15306181 0.5775432 0.085519619 0.68981922 -0.71891302 0.053563785
0.013274428 -0.19333455 0.57536638 0.47064695 0.20444466 -0.85830873 0.013273809
-0.021709265 -0.12990598 0.71112329 -0.073824637 0.99579477 0.054247782 0.00077840342
-0.0022882086 -0.23410718 0.55863625 0.11279778 0.052017417 -0.99225539 0.036283206
0.051721957 -0.23830444 0.59625977 0.60020834 0.050420959 -0.79825288 0.00072239019
0.053247064 -0.12849474 0.66954905 0.11266642 0.98786992 -0.10686134 0.0062700044
-0.044580877 -0.13752359 0.75304872 -0.25276822 0.93178153 0.26055989 0.014624481
0.13392353 -0.27108157 0.6761722 0.95961493 0.066825286 -0.27326447 0.047666717
-0.057803076 -0.13792312 0.64577192 -0.277399 0.93728381 -0.21106574 0.01200847
-0.086773925 -0.14139004 0.6665749 -0.42925423 0.8707146 -0.23999372 0.026263287
-0.044525489 -0.14315632 0.59981477 -0.43559512 0.75346345 -0.49249333 0.028025657
0.026979757 -0.14498961 0.59726983 0.36149845 0.67545962 -0.64270765 0.040184889
0.016112156 -0.17358388 0.58161533 0.45512661 0.40840894 -0.79124069 0.018009352
-0.014721989 -0.26256129 0.55362952 -0.058745846 0.047155872 -0.99715859 0.036589187
-0.012594818 -0.19798985 0.55481881 -0.088604935 0.14795662 -0.98501676 0.047567859
-0.0052514779 -0.3067404 0.55348384 0.13181953 0.024096949 -0.9909808 0.038512725
0.015483709 -0.40560374 0.56592357 0.35339779 -0.069602363 -0.93288022 0.014824994
0.013824758 -0.31575415 0.56607926 0.41359541 0.027714061 -0.91003889 0.01247018
-0.010735378 -0.3782334 0.55313349 -0.027829157 -0.065186523 -0.99748498 0.027312968
0.0067602065 -0.28758904 0.56280988 0.32990319 0.074260339 -0.94108939 0.02403469
0.0029424359 -0.37314177 0.55855101 0.24926499 -0.042527903 -0.9675011 0.019936867
0.014590275 -0.4181532 0.56642443 0.36994433 -0.11085082 -0.92241704 0.010522044
-0.0061187567 -0.16612047 0.57158893 0.066602468 0.51478451 -0.85472858 0.060855974
-0.08735688 -0.13946851 0.67861271 -0.3623856 0.91845036 -0.1585101 0.019674199
0.14225155 -0.3644852 0.68172491 0.99866325 -0.047645055 0.020041065 0.054491896
0.13680173 -0.34503293 0.67637086 0.98535675 -0.013338683 -0.16998325 0.042360786
-0.013768851 -0.38553956 0.55220217 -0.030885071 -0.075944506 -0.99663353 0.030222015
0.11445143 -0.15033214 0.67665976 0.78060251 0.60567725 -0.15432063 0.061765868
-0.067216739 -0.13485482 0.70265239 -0.1992783 0.97933018 0.034648668 0.0012197628
-0.12178285 -0.15071473 0.71419823 -0.67857695 0.71915656 0.14948942 0.065935805
0.086493999 -0.418816 0.61126208 0.65022349 0.21935295 -0.72738832 0.0146283
-0.018715655 -0.42442286 0.55939597 -0.12362881 -0.37292081 -0.91959018 0.064730741
0.015247674 -0.37309361 0.56670558 0.39500222 -0.027607152 -0.91826522 0.013264054
0.1257425 -0.15865614 0.68901396 0.90437472 0.42657366 -0.011886601 0.048350733
0.064793058 -0.13695671 0.74382704 0.27000651 0.91756684 0.29183492 0.019150265
0.019913802 -0.12995584 0.73584038 0.049656637 0.99196899 0.11632597 0.0020216946
0.039138671 -0.16243573 0.59995139 0.49918813 0.44737026 -0.74207217 0.029822469
-0.013598046 -0.1620924 0.56569648 -0.087914012 0.51543909 -0.85240465 0.066330656
-0.049871672 -0.14007355 0.62248015 -0.39904583 0.84273601 -0.36132881 0.028261267
-0.13067403 -0.15066162 0.71075618 -0.69857043 0.71342343 0.055013306 0.068054922
0.0006267787 -0.24588242 0.56090021 0.23744285 0.043634351 -0.97042102 0.028482089
-0.014300825 -0.29976648 0.55182868 0.014655768 0.031157516 -0.99940699 0.032684952
0.0028313149 -0.29052994 0.55844951 0.27672109 0.05946153 -0.95910883 0.030434189
-0.010373963 -0.37512666 0.55307758 -0.034210306 -0.044550586 -0.99842119 0.025212303
-0.011509162 -0.15880747 0.56953138 -0.015275995 0.5687964 -0.82233649 0.063386448
-0.017578132 -0.41264325 0.55536687 -0.10917909 -0.20159137 -0.97336578 0.040898148
-0.010598873 -0.22798057 0.55574751 -0.09615498 0.075684227 -0.99248481 0.040982015
0.052299067 -0.13345866 0.74596983 0.18906437 0.94116712 0.28010553 0.016758438
-0.013439476 -0.12871151 0.66130817 -0.061575916 0.99593794 -0.065696262 0.001736972
-0.011285284 -0.12947159 0.64183372 -0.059302196 0.98683989 -0.15043345 0.002455625
0.11304636 -0.14950262 0.67600089 0.76333606 0.63010246 -0.14243907 0.06067558
0.11279226 -0.21342619 0.6567806 0.76518953 0.056858905 -0.64128941 0.0063231494
0.088928789 -0.37038308 0.61984181 0.68804175 0.066001959 -0.72266334 0.0020355745
0.12419008 -0.15878472 0.68882376 0.89740717 0.44068298 -0.021423433 0.047755972
0.14022709 -0.41203761 0.68092245 0.92894191 -0.075163044 -0.36251557 0.043410584
0.074239999 -0.36860618 0.60864657 0.62829655 0.082528643 -0.77358413 0.00038369058
-0.021267999 -0.13277444 0.62671226 -0.10356592 0.97539335 -0.19463265 0.0028564744
-0.038519349 -0.13591175 0.62818396 -0.22954737 0.94075215 -0.24958651 0.013312371
-0.0088535286 -0.41917264 0.55863047 0.10485366 -0.27289501 -0.95631266 0.061344724
0.071531124 -0.21624838 0.6132189 0.63187563 0.094027787 -0.76934516 0.001376343
0.10256436 -0.14735477 0.6578778 0.57616061 0.71880066 -0.38905588 0.041052654
0.13319468 -0.35496664 0.66726708 0.9539662 -0.024287401 -0.29892915 0.048412908
-0.013421551 -0.26227468 0.55525643 -0.058745939 0.047155924 -0.99715859 0.036589228
-0.014831648 -0.17170665 0.55983037 -0.14013106 0.334719 -0.93184036 0.061050635
0.035209965 -0.13883245 0.6146245 0.29732281 0.8299734 -0.47195685 0.040666934
-0.00021373419 -0.1804014 0.56919628 0.28734887 0.34091589 -0.89510167 0.036238864
0.0063839117 -0.18674026 0.57224292 0.37016824 0.26928407 -0.88907903 0.025718918
-0.019970275 -0.38830158 0.55360597 -0.095972732 -0.083821677 -0.99184835 0.034572933
-0.00083954819 -0.28365287 0.55633062 0.15656519 0.043406971 -0.98671335 0.038299937
0.083274834 -0.14531931 0.63414168 0.42749894 0.7723822 -0.46975568 0.056668527
0.12009889 -0.15398704 0.67836297 0.8559128 0.49417549 -0.1523279 0.051296301
0.12623301 -0.20129956 0.66732204 0.91835314 0.1126552 -0.37938938 0.046436016
0.079258546 -0.40911582 0.60774463 0.67811906 0.12723166 -0.72385544 0.0077722813
-0.077054925 -0.14359574 0.64197028 -0.49396667 0.76741797 -0.40873781 0.03494003
-0.038305104 -0.13426733 0.63326174 -0.19943421 0.96076041 -0.19278347 0.0068704099
-0.12249901 -0.15262005 0.6797505 -0.72629625 0.62807995 -0.27930152 0.042919602
0.0036673225 -0.41395888 0.56317222 0.18791693 -0.14262906 -0.9717738 0.037281945
0.03398332 -0.40745866 0.57712078 0.48803645 0.016981276 -0.87265807 0.0027815008
0.0014756734 -0.17249119 0.57141006 0.31579912 0.41073185 -0.85531878 0.038326759
-0.014929664 -0.31367734 0.55086786 -0.097205676 0.014216721 -0.99516273 0.029408187
0.027740261 -0.16618046 0.59013146 0.47300151 0.44429168 -0.76083809 0.025021885
0.0039776093 -0.24838515 0.56451482 0.31391174 0.05608622 -0.94779414 0.02492217
0.024393929 -0.34228945 0.57092315 0.49031621 -0.031717483 -0.87096739 0.0037323926
-0.037511457 -0.3459349 0.56061393 -0.47479567 0.028565533 -0.87963235 0.01941108
0.066928796 -0.3913593 0.59996307 0.58350861 0.087453 -0.80738443 0.001403651
-0.010153435 -0.35538143 0.55544752 -0.077982783 0.0095361369 -0.99690914 0.031083705
-0.0043604588 -0.22711831 0.55885333 0.069418959 0.048467144 -0.99640954 0.032227095
-0.0033795142 -0.17284416 0.56746244 0.19351281 0.40193036 -0.89498872 0.047268532
0.063308463 -0.36437482 0.60028851 0.62219036 0.073605463 -0.77939808 0.00075318222
0.011453313 -0.30572128 0.56364322 0.39735547 0.050234351 -0.91628885 0.012985756
-0.0025410324 -0.37314939 0.55591786 0.1632199 -0.026900772 -0.98622292 0.023773687
0.0060010394 -0.24201645 0.56573063 0.32247964 0.02218117 -0.94631648 0.026067108
-0.099365927 -0.14306001 0.6632359 -0.50278533 0.79357576 -0.34270155 0.037292812
0.036918905 -0.13296975 0.76281589 0.19907799 0.93771124 0.28472033 0.012627489
-0.028284587 -0.3872523 0.55779982 -0.33392796 -0.12702359 -0.93400061 0.035653919
0.00078889163 -0.13377649 0.6174584 0.036762543 0.96056831 -0.27560282 0.0077078668
-0.024632841 -0.1456897 0.58417517 -0.21865921 0.74470139 -0.63056153 0.05115455
-0.12160742 -0.39288265 0.64883453 -0.85264277 0.0023739359 -0.52248871 0.0057213325
-0.14076655 -0.2887429 0.70248985 -0.99401051 0.013226191 0.10848133 0.025617199
-5.9509217e-05 -0.14770587 0.81210506 -0.12253741 0.60115767 0.78967965 0.072091036
-0.11477488 -0.1498051 0.67485231 -0.63044107 0.72103339 -0.28749758 0.037465911
-0.13625529 -0.32423669 0.69043297 -0.99555755 -0.015870655 -0.092807695 0.024487704
-0.018019192 -0.15898982 0.56806743 -0.1679237 0.53166354 -0.83014184 0.063198417
-0.062351786 -0.40931746 0.5859983 -0.66014457 -0.062111769 -0.74856615 0.0011643649
-0.084881879 -0.36856124 0.60529625 -0.73275441 -0.00023975273 -0.68049312 0.00048592771
-0.077522896 -0.30473757 0.59919095 -0.72607815 0.024921466 -0.68716037 0.00055874733
-0.081790097 -0.34173661 0.60243553 -0.72820377 0.019253619 -0.68509018 0.00031785778
-0.045853145 -0.23971188 0.57051653 -0.49971682 0.045746099 -0.86497998 0.013333778
-0.069657199 -0.25953773 0.59280473 -0.69660103 0.028049245 -0.71691018 0.00083420041
-0.044645153 -0.34918296 0.56650579 -0.54652542 0.021909308 -0.83715582 0.008198102
-0.099840239 -0.1835787 0.63528639 -0.76518834 0.26999807 -0.58445519 0.0080219312
-0.11481921 -0.2661331 0.64560032 -0.82848859 0.020630363 -0.55962586 0.0016483514
-0.11532895 -0.33434156 0.6417284 -0.83774042 0.02567522 -0.54546463 0.0038005465
-0.12217836 -0.32890832 0.65250129 -0.87965405 0.030354666 -0.4746446 0.0050476142
-0.046107411 -0.28670257 0.57001859 -0.54470563 -0.00076239265 -0.83862698 0.010642646
-0.04102369 -0.37321767 0.56454098 -0.53611994 -0.034529343 -0.84343535 0.010312052
-0.067489333 -0.3522813 0.58725518 -0.68838257 0.0045570047 -0.72533339 0.00098893093
-0.11054181 -0.22994435 0.64150709 -0.81040108 0.060607363 -0.58273226 0.0010991895
-0.055039395 -0.19476372 0.58247626 -0.6502015 0.16275936 -0.74212354 0.0032241261
-0.095544882 -0.20636053 0.62474424 -0.7760641 0.11038202 -0.62091905 0.00084998616
-0.059398059 -0.16231196 0.59693253 -0.59019244 0.49027246 -0.64133126 0.020671178
-0.054527435 -0.22939248 0.57812631 -0.61570811 0.049868543 -0.78639466 0.0033581085
-0.08637096 -0.15639064 0.63154918 -0.62897062 0.5702641 -0.52838886 0.027857123
-0.024342252 -0.15398642 0.57402307 -0.23998177 0.60035539 -0.76287758 0.061839264
-0.12825425 -0.15123947 0.6917358 -0.72429264 0.66814685 -0.1702348 0.052277748
-0.026660996 -0.15393054 0.57595384 -0.27289402 0.5991019 -0.75273216 0.059822362
-0.088677488 -0.20460437 0.61690849 -0.75333619 0.12646037 -0.6453622 0.00099642109
-0.087113813 -0.19978246 0.61594015 -0.75094497 0.15346178 -0.64228588 0.0017675741
-0.032066219 -0.18861428 0.56537795 -0.38036603 0.20798716 -0.9011454 0.033313915
-0.12775838 -0.16014338 0.68853092 -0.81206608 0.5402683 -0.22058755 0.052358303
-0.049551807 -0.16403887 0.58839881 -0.57733351 0.47698316 -0.66270137 0.023280192
-0.042828258 -0.40758756 0.56952029 -0.50981086 -0.22110552 -0.83138752 0.026224125
-0.042764116 -0.32414839 0.56616122 -0.53206456 0.01714419 -0.84653026 0.0079007763
-0.14053713 -0.24617958 0.70891106 -0.99049371 -0.047412187 0.12912868 0.027993834
-0.11153863 -0.16897425 0.65736639 -0.76116598 0.40123269 -0.50954753 0.023901453
-0.1269215 -0.21108705 0.66678351 -0.89014721 0.11477186 -0.44098228 0.0052871834
-0.13960795 -0.20687228 0.7013787 -0.99669623 0.033103593 -0.074167714 0.030472452
-0.11665783 -0.23194778 0.64991683 -0.84319669 0.05046241 -0.53523153 0.002188385
-0.12144227 -0.22620445 0.65770459 -0.84933275 0.059301578 -0.52451605 0.0021628791
-0.12377658 -0.22114122 0.66153967 -0.86677682 0.083876565 -0.49159196 0.0033654065
-0.064012691 -0.20677225 0.58943933 -0.69069695 0.13110021 -0.71116132 0.0024276716
-0.032606635 -0.26121673 0.56065667 -0.33880073 0.027895255 -0.94044453 0.037963308
-0.048675105 -0.20143493 0.57579154 -0.57789636 0.15118329 -0.80198467 0.0076722191
-0.078128286 -0.14299177 0.64436156 -0.4762319 0.77635288 -0.41289151 0.032723773
-0.035550844 -0.37778977 0.56082624 -0.514732 -0.048515845 -0.85597736 0.010588259
-0.064049028 -0.40399152 0.58610988 -0.66100073 -0.061010711 -0.74790096 0.0011170259
-0.09491013 -0.29428235 0.61939418 -0.75863951 0.036034629 -0.65051335 0.00031397064
-0.10099795 -0.38212681 0.62279189 -0.76384383 0.0047802497 -0.64538342 0.00066838483
-0.10919122 -0.15988059 0.65875876 -0.69761276 0.52239472 -0.49034703 0.027311362
-0.033146221 -0.23063053 0.56146342 -0.37818116 0.055259045 -0.92408085 0.025661536
-0.12359205 -0.21119753 0.6621083 -0.86715263 0.12164897 -0.48295733 0.003501432
-0.080016673 -0.17507981 0.61421973 -0.7094335 0.33381122 -0.62070465 0.011111438
-0.13601793 -0.19128437 0.69421411 -0.96441472 0.1666961 -0.20522346 0.022811987
-0.039213207 -0.18468912 0.57042772 -0.45978746 0.23708706 -0.85579515 0.023797235
-0.077705562 -0.21623041 0.60286528 -0.72946519 0.096852161 -0.67712647 0.0011350602
-0.12980847 -0.32835057 0.66856295 -0.92882359 0.039962962 -0.36836091 0.0093457522
-0.10447132 -0.32273209 0.62890106 -0.78994006 0.036016356 -0.61212552 0.0013272
-0.017651461 -0.287637 0.55406278 -0.074192941 0.036471423 -0.99657673 0.034205589
-0.11817777 -0.16280957 0.67158622 -0.76576632 0.50551212 -0.39756688 0.037242543
-0.098570265 -0.15326713 0.6485678 -0.61468267 0.61107177 -0.49875489 0.026236841
-0.063973114 -0.14525981 0.61499339 -0.49839005 0.73471183 -0.46022379 0.02832655
-0.099348515 -0.41186073 0.62236655 -0.75488955 -0.037981551 -0.65475112 0.00069382461
-0.11997255 -0.35254008 0.64795977 -0.858805 0.017849976 -0.51199156 0.0039163157
-0.10259833 -0.40761453 0.62561446 -0.76309216 -0.023913087 -0.64584714 0.0012043581
-0.03389037 -0.24659704 0.56153345 -0.40754849 0.048272595 -0.91190678 0.021536894
-0.13394581 -0.2410911 0.68182355 -0.95919716 -0.0014632115 -0.28273436 0.016537182
-0.13696709 -0.22172004 0.69149143 -0.98437452 -0.026537836 -0.17407641 0.028377032
-0.12307513 -0.23254757 0.65983981 -0.86213022 0.047013186 -0.50450104 0.0025842963
-0.10290832 -0.33109421 0.62686199 -0.78502625 0.03413957 -0.61852098 0.0012102714
-0.065281615 -0.29394126 0.58612722 -0.68050075 0.03114981 -0.73208499 0.0018645967
-0.070642345 -0.34748334 0.59076709 -0.705872 0.01173402 -0.70824212 0.00072348362
-0.13560236 -0.36864117 0.68314195 -0.97803658 -0.012244101 -0.2080735 0.01506906
-0.075900197 -0.27513143 0.59878826 -0.72474277 0.026226042 -0.68852031 0.0011048084
0.081156164 -0.13370496 0.6596297 0.33468831 0.914271 -0.22823747 0.029821562
0.01695592 -0.13186172 0.631697 0.090471424 0.96764129 -0.235553 0.0076705143
0.098846972 -0.13892281 0.70313287 0.5059706 0.85136384 0.13846813 0.03233958
-0.12117382 -0.17130059 0.67285806 -0.83262867 0.38659692 -0.39657584 0.028382977
-0.082233727 -0.15266414 0.62922055 -0.58429563 0.63677299 -0.50310898 0.029445669
-0.048068997 -0.19539407 0.57685357 -0.56427199 0.17935234 -0.80587214 0.0092387721
-0.058792602 -0.34675235 0.57932216 -0.64113975 0.0025930777 -0.76741976 0.0020242806
-0.13187127 -0.40183994 0.67117894 -0.94794655 0.02712097 -0.31727269 0.013701688
-0.059376776 -0.17585397 0.59183455 -0.63967621 0.3706001 -0.67340165 0.013409349
-0.052394498 -0.2095833 0.57809013 -0.60967213 0.11906569 -0.78366017 0.0042488081
-0.11603871 -0.2675384 0.64723551 -0.82848859 0.020630363 -0.55962586 0.0016483514
-0.071498215 -0.36405465 0.59110641 -0.70198983 -0.00761557 -0.71214616 0.00090923818
-0.054721247 -0.16968444 0.58919102 -0.60925967 0.42794806 -0.66758001 0.018167095
-0.091963246 -0.39239711 0.61328822 -0.73748165 -0.021133482 -0.67503649 0.00061432057
-0.13206628 -0.37014699 0.67375994 -0.94896024 0.0033353542 -0.31537813 0.0062363571
-0.024578761 -0.2751441 0.55697793 -0.24133717 0.032869715 -0.96988446 0.043093979
-0.081754513 -0.16899553 0.61866003 -0.69358802 0.3938061 -0.60320169 0.014843543
-0.077761419 -0.18761718 0.60776961 -0.72002131 0.22517598 -0.65640312 0.0030799299
0.079729363 -0.13367978 0.7187227 0.38437515 0.90588444 0.17784563 0.022702755
-0.023342829 -0.24410222 0.55536944 -0.16980568 0.061904889 -0.9835313 0.034284327
-0.021036226 -0.35449743 0.55249214 -0.27680331 0.018243194 -0.96075338 0.034533184
-0.1072877 -0.16360854 0.65430498 -0.70034438 0.50552738 -0.50394422 0.024927076
-0.11684869 -0.15737678 0.6725558 -0.7317279 0.56939924 -0.37464491 0.036757961
-0.056003295 -0.20420074 0.58208197 -0.65475965 0.14519404 -0.74176043 0.0033072471
-0.11441341 -0.35573038 0.64012015 -0.83712232 0.01779495 -0.54672629 0.0037168602
-0.10116452 -0.35780826 0.62418115 -0.76965326 0.022427697 -0.63806802 0.00058811787
-0.07415124 -0.19369817 0.60223866 -0.71999174 0.18499424 -0.6688714 0.0024281056
-0.024909578 -0.28700435 0.55669713 -0.24377401 0.0293997 -0.96938634 0.040450517
-0.095707551 -0.33400559 0.61841649 -0.75713605 0.025524104 -0.65275842 0.00031080638
-0.020453634 -0.15144575 0.57224911 -0.18819341 0.63293755 -0.75098163 0.063199431
-0.019008368 -0.24793346 0.55460399 -0.1141542 0.047205687 -0.99234098 0.034976941
-0.098263651 -0.18359295 0.63386118 -0.76021141 0.26968965 -0.5910551 0.0083538741
-0.088975109 -0.2692807 0.61412412 -0.75709897 0.037258025 -0.652237 0.00015552642
-0.038310669 -0.22796248 0.56543905 -0.42288658 0.070418373 -0.90344238 0.020957287
-0.098121516 -0.17008583 0.63978916 -0.7133314 0.4011696 -0.57464886 0.017766811
-0.1262604 -0.36908782 0.65654391 -0.88397223 0.0088682454 -0.46745533 0.005851524
-0.13034627 -0.27066568 0.66942447 -0.92029619 0.0085636536 -0.39112845 0.005089785
-0.077458695 -0.16968268 0.61340183 -0.68805563 0.38855213 -0.61286759 0.014307139
-0.11805106 -0.30801842 0.64715093 -0.8583678 0.018633546 -0.51269639 0.0033719167
-0.13589807 -0.34312412 0.6874975 -0.99305582 -0.0062552551 -0.11747776 0.020395817
-0.029192785 -0.14346509 0.59335738 -0.24766749 0.80835134 -0.53406835 0.042169087
-0.066396408 -0.21433398 0.59097946 -0.70051563 0.09382005 -0.70744306 0.0014544751
-0.050606329 -0.37506714 0.57293862 -0.58855933 -0.024334956 -0.80808765 0.0051822294
-0.096999303 -0.2126836 0.62624842 -0.78068364 0.10757747 -0.61559737 0.00087466108
-0.1372748 -0.31539881 0.68980056 -0.99321383 -0.0066179773 -0.11611436 0.021157809
-0.10536567 -0.18613914 0.64074332 -0.78902781 0.21686502 -0.57480842 0.0049762959
-0.033800852 -0.15211266 0.57937056 -0.38474318 0.59423685 -0.70629692 0.046274718
-0.032695301 -0.18814729 0.56636161 -0.3803679 0.20797597 -0.90114719 0.033316236
0.067443907 -0.13666011 0.74371886 0.30693728 0.90334404 0.29959825 0.020985765
0.072690286 -0.13231249 0.71050358 0.26802269 0.95870608 0.095112719 0.010811313
0.10822374 -0.1429348 0.68630171 0.63922703 0.76878268 0.019024709 0.055380575
-0.05079056 -0.16270863 0.58905119 -0.5841307 0.47811949 -0.65589112 0.023589445
-0.12529734 -0.15079811 0.71686459 -0.68438381 0.70750922 0.17620862 0.066618599
-0.099609643 -0.1513792 0.65240324 -0.5685854 0.68214548 -0.45976982 0.033948649
-0.083399132 -0.34006 0.60447681 -0.73309976 0.018131452 -0.67987937 0.00032282626
-0.10499272 -0.28838366 0.63205677 -0.78850758 0.042820074 -0.61353266 0.0010758502
-0.12030132 -0.3910419 0.64665025 -0.84702337 0.006559921 -0.531515 0.0054631908
-0.127711 -0.34930038 0.66298592 -0.91069216 0.030783089 -0.41193703 0.0075588818
-0.12062152 -0.33439258 0.64996511 -0.873761 0.021380834 -0.48588547 0.0048080734
-0.13166504 -0.34310809 0.67432386 -0.95288306 0.027231168 -0.30211309 0.0075536096
-0.13808456 -0.21568543 0.69037741 -0.979258 -0.0040107523 -0.20257746 0.024304001
-0.063648485 -0.30810279 0.58491176 -0.68587345 0.028057424 -0.72717977 0.0010252044
-0.12889412 -0.20135167 0.67353642 -0.89406854 0.1222548 -0.43092373 0.0050276862
-0.096318096 -0.3598257 0.61845219 -0.75810146 0.016089886 -0.65193814 0.00039095865
-0.082965106 -0.17540234 0.61842668 -0.70737273 0.34237346 -0.61838847 0.010110786
-0.13607875 -0.23731436 0.68638456 -0.97825152 -0.0128202 -0.2070258 0.023121502
-0.050363317 -0.14405255 0.59950507 -0.4991686 0.68920475 -0.52519286 0.025451927
-0.049743302 -0.18859343 0.57896817 -0.58867443 0.22640345 -0.77601802 0.0063691693
-0.050828855 -0.17874806 0.58277041 -0.59877586 0.32622123 -0.73146909 0.011204314
-0.046005685 -0.29602194 0.56948924 -0.551956 0.03992008 -0.83291709 0.0091496482
-0.048002753 -0.33650357 0.57018524 -0.57574999 0.015704315 -0.81747496 0.0056630587
-0.017230595 -0.35964948 0.55200833 -0.18163425 0.012454544 -0.98328733 0.038340788
-0.027712286 -0.38833165 0.55597746 -0.32099783 -0.12092922 -0.93932778 0.036031671
-0.032746311 -0.29364204 0.5595659 -0.40458491 0.005325363 -0.91448492 0.026238067
-0.034217134 -0.28517795 0.56116372 -0.44558224 0.0054418999 -0.89522451 0.022900311
0.023799133 -0.14100653 0.60467362 0.26074779 0.81860375 -0.51176006 0.042542174
-0.021291396 -0.23905675 0.55491787 -0.2083074 0.070337623 -0.97553098 0.034097947
-0.10371287 -0.15248138 0.65601289 -0.62048918 0.63016838 -0.46677721 0.032039929
-0.038708165 -0.14221871 0.6035794 -0.35379785 0.83285302 -0.42565596 0.026550742
-0.016111623 -0.12910345 0.68089747 -0.065493293 0.99770993 -0.016895948 0.0010111663
-0.097473145 -0.14427485 0.6554305 -0.54607439 0.72174931 -0.42530075 0.037037976
-0.059689581 -0.17450792 0.59276438 -0.63764542 0.37811553 -0.67114604 0.013847338
-0.062639579 -0.34435609 0.5830518 -0.67857474 0.0016022861 -0.73452967 0.0012119736
-0.12313406 -0.30342075 0.65619075 -0.87984049 0.013672941 -0.47507247 0.0046126046
-0.13479684 -0.35333374 0.67884415 -0.95798385 0.0053822054 -0.28677157 0.0092000589
-0.069487453 -0.30778372 0.59073061 -0.70741725 0.022304572 -0.70644414 0.0005729695
-0.13641487 -0.41139397 0.68602788 -0.98930401 0.039969612 -0.14028521 0.03176032
-0.10918692 -0.22612683 0.63995397 -0.80128235 0.063948162 -0.594859 0.00065279991
-0.10548 -0.3316679 0.62999767 -0.78961444 0.035622947 -0.61256844 0.0012180575
