# .PCD v0.7 - Point Cloud Data file format
VERSION 0.7
FIELDS x y z normal_x normal_y normal_z curvature
SIZE 4 4 4 4 4 4 4
TYPE F F F F F F F
COUNT 1 1 1 1 1 1 1
WIDTH 580
HEIGHT 1
VIEWPOINT 0 0 0 1 0 0 0
POINTS 580
DATA ascii
-0.077067949 -0.15709104 0.77390075 -0.57441694 0.46964559 0.67043138 0.040048711
-0.12243785 -0.34206808 0.74433714 -0.76514876 -0.0097912801 0.6437791 0.0041591474
-0.02403179 -0.29756963 0.82600808 -0.47009695 0.055954337 0.88083935 0.0079814652
0.011182859 -0.13380213 0.80851907 0.10659163 0.91373891 0.39207074 0.064290054
-0.15010929 -0.16645004 0.70925671 -0.9677642 0.25163707 -0.010543376 0.065009996
-0.092704855 -0.13529685 0.7278201 -0.23639449 0.93444794 0.26631686 0.028300725
-0.13156301 -0.29764506 0.73511761 -0.79835039 -0.014929454 0.6020081 0.0091275219
-0.11312051 -0.3947548 0.75221968 -0.6978181 -0.026410645 0.71578795 0.00080384145
-0.11294283 -0.41710648 0.75216079 -0.70216453 -0.033181489 0.71124113 0.00091188791
-0.10727292 -0.33301833 0.7576763 -0.67913091 0.003540504 0.73400867 0.00049595302
-0.040878035 -0.1379059 0.79717296 -0.46745059 0.75910091 0.45305154 0.054580234
-0.12804917 -0.28056231 0.73856795 -0.7748242 -0.0039262665 0.6321646 0.0064235735
-0.12300281 -0.37527484 0.74307519 -0.77085912 -0.017137541 0.63677508 0.0038713901
-0.1059825 -0.20565714 0.75832289 -0.66405582 0.047681555 0.74616104 0.0011694003
-0.100302 -0.1792959 0.76217854 -0.63446969 0.24371696 0.73351908 0.015277354
-0.060083598 -0.21560721 0.79642159 -0.6310119 0.03005464 0.77519077 0.00046146676
-0.043093581 -0.21185763 0.81056577 -0.59699881 0.024365842 0.80187201 0.0015807211
-0.10360976 -0.30569655 0.76054716 -0.66612804 0.0039856532 0.74582666 0.00038118742
-0.06961605 -0.13099526 0.68320751 -0.092082717 0.99553055 -0.02096843 0.0015474823
-0.14404798 -0.30510378 0.71722049 -0.90693057 -0.064920381 0.41624793 0.023684444
-0.14223914 -0.15879527 0.72169048 -0.82158202 0.39647064 0.40965107 0.094450742
-0.14190096 -0.24548978 0.72184247 -0.90818542 -0.018860474 0.418143 0.032794073
-0.13604359 -0.16543458 0.72807866 -0.79057735 0.28301108 0.54303974 0.063448742
-0.12722479 -0.29269931 0.73935872 -0.7716428 0.0079197846 0.63600683 0.0062670833
-0.10181066 -0.16056824 0.75567049 -0.57658494 0.41675311 0.70275652 0.033329029
-0.10208745 -0.17433998 0.75977612 -0.60702103 0.31037831 0.73156732 0.017774247
-0.067453966 -0.33753613 0.7925086 -0.64662945 0.012679457 0.76269889 0.00010144614
-0.063146695 -0.17050472 0.79019946 -0.58013409 0.27481866 0.76675886 0.019952869
-0.041441306 -0.29935744 0.81394237 -0.60018688 0.015644291 0.79970676 0.0011271362
-0.038149443 -0.13497533 0.77529269 -0.29732466 0.92887151 0.22089769 0.028594112
-0.0068728118 -0.24041142 0.83247018 -0.33986646 0.034074206 0.93985623 0.01454983
0.011815206 -0.13473177 0.81393236 0.12805577 0.90439594 0.40702558 0.071281672
-0.056738209 -0.26677394 0.80063462 -0.63415509 0.015530922 0.77304995 0.00027552308
-0.14289035 -0.38980141 0.71150935 -0.96685165 0.067979872 0.2461234 0.031719077
-0.096659206 -0.40583602 0.76818681 -0.68140614 -0.014421011 0.73176336 0.00033625259
-0.09856119 -0.28587446 0.76504934 -0.65669405 0.0068177856 0.75412631 0.00013177108
-0.099704333 -0.33793551 0.76465225 -0.6667397 0.0069881589 0.74525791 0.00033436698
-0.14859256 -0.15287976 0.71437305 -0.8303349 0.55031383 0.087741807 0.099341281
-0.13815697 -0.24970447 0.72793645 -0.89938182 -0.0099851396 0.43704996 0.027456602
-0.12379405 -0.32335734 0.74293107 -0.76781136 -0.021716023 0.64030784 0.0054968512
-0.118407 -0.28204823 0.7477805 -0.69545424 -0.0020665077 0.71856749 0.0018397367
-0.13975711 -0.21442358 0.72442782 -0.87236798 0.01190888 0.48870474 0.033374995
-0.08506874 -0.25466278 0.77629501 -0.65045881 0.0079130316 0.75950027 0.00012431279
-0.087843969 -0.38192192 0.77521294 -0.66856408 0.0049843909 0.74363786 0.00018292767
-0.13312879 -0.24529101 0.73400283 -0.82531506 -0.0060915793 0.56463969 0.012260036
-0.081121966 -0.40356058 0.78158528 -0.66536939 -0.0076436447 0.74647516 0.00033409917
-0.077670217 -0.30080301 0.78298062 -0.65475988 0.0087694731 0.75578606 0.00029849471
-0.067329742 -0.39966327 0.79391766 -0.64547896 0.011311969 0.76369423 0.00050899631
-0.12131 -0.40269026 0.74355227 -0.74339259 -0.038543548 0.66774398 0.0045496188
-0.12324053 -0.30231571 0.74338418 -0.73836559 -0.0017999805 0.67439818 0.0048943227
-0.10997126 -0.23946659 0.7547915 -0.66903651 0.00057606545 0.74322927 0.00071047014
-0.044725724 -0.41097537 0.81252027 -0.57791615 -0.015930612 0.81594062 0.0034193324
-0.04504092 -0.15466131 0.79906154 -0.59943604 0.45020407 0.66181028 0.044604693
-0.038078923 -0.33255711 0.81699556 -0.5713824 -0.0015935844 0.82068235 0.001565916
-0.0040593613 -0.41612035 0.83371454 -0.18824653 -0.049428046 0.98087716 0.040376768
-0.058922876 -0.18133368 0.79559243 -0.60971129 0.16582438 0.77508348 0.0043860935
-0.046417627 -0.23301981 0.80806851 -0.5951857 0.0087143574 0.80354095 0.0015871217
-0.027938832 -0.18878685 0.82067555 -0.52667171 0.08154247 0.84614879 0.0043260395
-0.12952866 -0.19628908 0.73655772 -0.78483945 0.017305441 0.61945748 0.013748872
0.012117403 -0.36006141 0.83843035 -0.028312812 -0.05946904 0.99782854 0.036069062
-0.061310895 -0.13483898 0.74648076 -0.21244356 0.94609779 0.24447207 0.029948266
0.008697113 -0.27496845 0.83761597 0.12406205 -0.024396814 0.99197447 0.04022764
-0.10435602 -0.1921307 0.76002336 -0.64732474 0.077716388 0.75824195 0.0020558224
0.0029910386 -0.31437197 0.83810794 -0.14048325 0.006868782 0.9900592 0.043649808
-0.14489467 -0.14582042 0.70964795 -0.69814408 0.7159009 -0.0089868279 0.091322415
-0.11922354 -0.32763433 0.74686277 -0.73346025 -0.0028148314 0.67972654 0.0042752135
-0.12696101 -0.31677032 0.73964888 -0.78289258 -0.021777807 0.62177557 0.0078829499
-0.013330601 -0.14331737 0.8277353 -0.37717614 0.56032926 0.73740709 0.08530882
-0.055395987 -0.21835443 0.80040604 -0.62993103 0.030284056 0.7760604 0.00038187797
-0.092389338 -0.18513601 0.76917219 -0.61663562 0.18031938 0.76631939 0.0055736243
-0.097417109 -0.28182402 0.76573783 -0.65676528 0.0049869311 0.75407857 0.00018116531
-0.059774157 -0.37780359 0.79975599 -0.63702095 0.0097980285 0.7707842 0.00062373799
-0.064578898 -0.37926054 0.79583395 -0.64089644 0.0096911453 0.7675662 0.00053296972
-0.06204145 -0.34659514 0.79715908 -0.64378816 0.010993432 0.7651248 0.00016170046
-0.058410425 -0.25285116 0.79907298 -0.63947141 0.015703849 0.76865453 0.00023137193
-0.084541917 -0.40268391 0.77819145 -0.66965139 -0.0011576575 0.74267471 0.00041534414
-0.0961743 -0.37550077 0.76791346 -0.67344016 -0.002825811 0.73923641 0.00018978168
-0.079832681 -0.24612999 0.78012884 -0.64843464 0.011850428 0.76117808 9.733504e-05
-0.07950516 -0.24837932 0.78033394 -0.64845729 0.011869345 0.76115847 0.0001123183
-0.096709579 -0.27012464 0.76610637 -0.6529848 0.0030180416 0.75736505 8.0615697e-05
-0.14804302 -0.21025521 0.71453381 -0.9890852 -0.046272732 0.13989009 0.037493311
-0.13219206 -0.35699254 0.73352695 -0.81916755 -0.018471831 0.57325667 0.0053990348
-0.082769141 -0.20312503 0.77730477 -0.63019532 0.044916179 0.77513641 0.0006305509
-0.016377313 -0.26837346 0.82965732 -0.37977511 0.026013654 0.92471302 0.011154045
-0.14900784 -0.21861005 0.70842505 -0.9969635 -0.075052254 0.02075973 0.054590013
-0.14432554 -0.23882483 0.71642804 -0.95836341 -0.060651388 0.2790356 0.04361115
-0.13495623 -0.31189853 0.73012608 -0.85403556 -0.040681213 0.51862162 0.012178677
-0.11802319 -0.38844195 0.74736834 -0.71837956 -0.03005101 0.69500196 0.0027761837
-0.036564976 -0.30666834 0.81746233 -0.56456339 0.011425758 0.82531059 0.0024491022
-0.06208514 -0.33415374 0.79660547 -0.64325607 0.0099390559 0.76558661 0.00016565887
-0.060929399 -0.32348466 0.79776716 -0.64246774 0.0085337879 0.76626521 0.00017829314
-0.036960382 -0.27481908 0.81715935 -0.57204574 0.027654117 0.81975549 0.0010266847
0.012489808 -0.30343777 0.83786535 0.082486972 -0.00065598002 0.99659193 0.052432988
-0.075271249 -0.17951398 0.78187412 -0.60362667 0.19881926 0.77207881 0.0059235892
-0.076185696 -0.24229811 0.7833944 -0.64667505 0.013128893 0.76265258 3.5229834e-05
-0.1240831 -0.13931233 0.71261811 -0.47268215 0.87071627 0.13573779 0.059306327
-0.10058354 -0.13454489 0.71097964 -0.23219618 0.96500015 0.12190069 0.017552676
-0.1092753 -0.33385009 0.75579 -0.68383998 0.0039057739 0.72962153 0.00092183903
-0.056730509 -0.19413406 0.79796535 -0.61815 0.093558796 0.78047252 0.0015167043
-0.051582273 -0.15718979 0.79355681 -0.54285038 0.44303524 0.71346575 0.040043671
-0.036960647 -0.19729872 0.81474549 -0.5865671 0.067551158 0.80707866 0.0021884313
-0.0061853882 -0.15971452 0.82877517 -0.24358495 0.3147749 0.91737843 0.074019119
-0.084311627 -0.32007843 0.77732915 -0.65601891 0.0096430229 0.7546829 0.00018189712
-0.059746329 -0.28702787 0.79859537 -0.64401293 0.009469917 0.76495606 0.00037431513
-0.084147245 -0.37974712 0.7787416 -0.66325867 0.01000379 0.74832338 0.00027048797
-0.019336578 -0.37500513 0.82961768 -0.4443498 -0.012110761 0.8957715 0.00670054
-0.047337409 -0.30084306 0.80921489 -0.61732602 0.012040738 0.78661525 0.00095176284
-0.027341308 -0.34067929 0.82486188 -0.52226985 -0.0063400222 0.85275674 0.004311814
-0.0037511799 -0.35425779 0.83634233 -0.25300655 -0.037897546 0.96672207 0.025622265
-0.087611996 -0.27594861 0.77371401 -0.65351957 0.0066249687 0.75688058 4.271006e-05
-0.022958586 -0.434378 0.83332372 -0.44783574 0.092514709 0.88931668 0.0072003258
-0.12288708 -0.22444449 0.74421734 -0.74954385 0.026769308 0.66141325 0.0031711264
-0.13556212 -0.43401262 0.65828449 -0.8550927 0.14279678 -0.49842304 0.011124015
-0.077522919 -0.3140848 0.7831853 -0.6542964 0.010091109 0.75617087 0.00020460799
-0.071326822 -0.22277178 0.78747874 -0.64015764 0.021326829 0.76794749 0.0002041813
-0.025446601 -0.12936072 0.68070436 -0.040314373 0.99907845 0.014733987 5.3073763e-05
-0.030768653 -0.13020262 0.71185654 -0.047396872 0.99844491 0.029346351 0.00013114451
-0.056939717 -0.1485299 0.78604168 -0.5150528 0.53870869 0.66671848 0.053730115
-0.12681499 -0.26792467 0.74027896 -0.76318872 -0.0083984733 0.64612108 0.0050233873
-0.10822416 -0.40762186 0.75660795 -0.69797158 -0.025685513 0.71566474 0.00085578416
-0.13190037 -0.42044598 0.73000157 -0.80227441 -0.00092625391 0.59695476 0.0078831818
-0.14131431 -0.15350743 0.72253555 -0.74331129 0.56327415 0.36084691 0.10215133
-0.11344905 -0.36305216 0.75233722 -0.70266491 -0.0093078818 0.71146011 0.0010076424
-0.041198809 -0.13144299 0.61296952 -0.27830985 0.93233848 -0.2308432 0.033670269
-0.10134237 -0.19752792 0.76237553 -0.64406753 0.069016851 0.76184887 0.0015793404
-0.097871937 -0.13575412 0.6824066 -0.31704891 0.92411751 -0.21327674 0.03432449
-0.11161233 -0.33282784 0.75377363 -0.68353188 0.0030017551 0.72991449 0.0009170167
-0.13710317 -0.21723226 0.72675741 -0.85966104 0.048126336 0.50859284 0.034643807
0.0025050354 -0.13268961 0.80231094 -0.0025976482 0.95418876 0.29919395 0.040332168
-0.029256888 -0.14535798 0.81363636 -0.4910973 0.57325584 0.6558972 0.062636226
0.00053274061 -0.13067409 0.78572643 -0.041443836 0.98751831 0.15195374 0.0098055266
0.019785071 -0.22964172 0.83775836 0.050405934 -0.01209783 0.9986555 0.041746214
-0.066295363 -0.18404944 0.78980279 -0.6062842 0.16663595 0.77759361 0.0039169211
-0.047796089 -0.15030839 0.79428911 -0.56060326 0.50746536 0.65437222 0.045838159
-0.042943232 -0.22453061 0.81109393 -0.58365071 0.011443887 0.8119241 0.001398109
-0.032724835 -0.20483139 0.81839436 -0.54421908 0.036585558 0.83814502 0.0030178525
-0.040869363 -0.35641545 0.81410843 -0.58960021 0.0031230201 0.80768919 0.0014134821
0.012614609 -0.30020654 0.83785641 0.11091487 0.025849491 0.99349374 0.056828901
0.016924517 -0.26899332 0.83708429 0.28806043 -0.027228709 0.95722497 0.024949946
-0.083180763 -0.14660892 0.76225293 -0.48970595 0.65386456 0.57675755 0.043980759
-0.059175707 -0.15672934 0.78709483 -0.54458928 0.48198989 0.68637323 0.047392514
-0.067763425 -0.2497956 0.79044753 -0.64821714 0.016294375 0.76128113 0.00012183757
-0.014876772 -0.1476367 0.81786335 -0.3790924 0.61430252 0.6920414 0.083563715
-0.13039786 -0.14969477 0.73230523 -0.54291904 0.68880856 0.48039737 0.054822803
-0.064222768 -0.14503153 0.77885795 -0.51230633 0.65465504 0.55584991 0.047341745
-0.088061616 -0.39812389 0.77515787 -0.67128873 -0.0022429479 0.74119258 0.00042028437
-0.12724656 -0.33600613 0.73886156 -0.78824759 -0.021188825 0.61499327 0.0075295148
-0.093968168 -0.32354832 0.7691583 -0.6588105 0.0092116743 0.75225252 0.00017182194
-0.1373731 -0.15630925 0.72711682 -0.72998327 0.49901819 0.46701741 0.090803355
-0.13890502 -0.14310643 0.69931066 -0.66133684 0.74296814 -0.10311168 0.080998868
-0.12635425 -0.39857578 0.73896968 -0.79302412 -0.037429877 0.60803932 0.0045979256
-0.029123014 -0.13516219 0.57494211 -0.30827096 0.82334763 -0.47651616 0.076597057
-0.020269552 -0.18905336 0.82519817 -0.46543679 0.058193598 0.88316602 0.0083935075
0.0083952025 -0.15422732 0.83512282 0.12693563 0.40800953 0.90411037 0.077975154
0.012121179 -0.36612472 0.83907193 0.0075613046 -0.01762541 0.99981612 0.039466742
-0.054531198 -0.35467291 0.80337036 -0.62033314 0.0013115456 0.78433734 0.00023774554
-0.062212188 -0.26533857 0.79644859 -0.65048605 0.014823198 0.75937355 3.3516379e-05
-0.019607594 -0.35078347 0.8297326 -0.41361561 -0.03590158 0.90974349 0.013444897
-0.061280176 -0.21963504 0.7958191 -0.6342324 0.028148228 0.77262998 0.00039568715
-0.023779577 -0.32732949 0.82735819 -0.50027347 0.007797637 0.86583239 0.0067082853
-0.089270651 -0.16675431 0.76806939 -0.62198764 0.33727628 0.70666546 0.019263936
-0.0023796931 -0.40085468 0.83639622 -0.13555343 -0.081015289 0.98745221 0.026086241
-0.1340367 -0.33795556 0.7300359 -0.86115366 -0.0075267721 0.50828904 0.012386537
-0.097550012 -0.14767908 0.75375527 -0.48884517 0.62123382 0.61245322 0.041828897
0.048530132 -0.12718916 0.73153108 0.044909768 0.99233764 0.11510454 0.006908305
-0.1512554 -0.42069957 0.69862181 -0.99122149 0.13145278 0.01414908 0.069929413
-0.1108947 -0.38835439 0.75444126 -0.69754547 -0.027021874 0.71603084 0.00047795451
0.014857512 -0.19374396 0.83663648 -0.048019607 0.061228715 0.99696809 0.044797983
0.016464576 -0.22369464 0.83948731 -0.040291153 -0.030989708 0.99870729 0.040339548
-0.036116205 -0.18406892 0.81400335 -0.5966689 0.10472681 0.79562461 0.0032732431
-0.024712889 -0.22181267 0.82337415 -0.48705173 0.0046222187 0.87336093 0.0067239292
-0.088049807 -0.41078597 0.77504545 -0.67266273 -0.0039854385 0.73993844 0.00031038513
-0.019057805 -0.31177175 0.83039302 -0.43063611 0.038093999 0.90172142 0.01061437
-0.029597566 -0.38900101 0.82256246 -0.51469052 -0.0023786973 0.85737276 0.0062164185
-0.085607938 -0.31045842 0.77604836 -0.65599716 0.0096968273 0.75470108 0.00017451184
-0.064019501 -0.2500034 0.79386204 -0.64150476 0.015827872 0.76695573 0.00010795479
-0.056320209 -0.13807219 0.61288369 -0.4913176 0.79602832 -0.35347697 0.04724345
-0.11961059 -0.26104423 0.74676287 -0.68903399 0.01320415 0.72460872 0.0014616019
-0.093294926 -0.13874668 0.6492238 -0.5135231 0.73963279 -0.43501413 0.053035896
-0.084046818 -0.1364076 0.73861951 -0.2589159 0.89904964 0.35308969 0.034850609
-0.085511126 -0.1648272 0.77094764 -0.61849338 0.34828308 0.70438975 0.020779235
-0.00079158257 -0.42369598 0.83788699 -0.033714935 0.011172091 0.99936903 0.033644293
-0.05601706 -0.13605303 0.60756135 -0.50310153 0.78259057 -0.36666179 0.046062525
0.054393228 -0.12775084 0.66579652 0.049832325 0.9945758 -0.091300771 0.0052048434
-0.11018998 -0.16141768 0.749807 -0.55080181 0.43757874 0.71073359 0.030744893
-0.14252017 -0.39441392 0.70898509 -0.96962851 0.071506254 0.23389621 0.035046849
-0.13555828 -0.29483849 0.73059428 -0.83706766 -0.037299003 0.54582644 0.0093450733
-0.13711624 -0.19990887 0.72856182 -0.84833157 -0.0062849661 0.52942812 0.023518417
-0.10861379 -0.42572129 0.75447172 -0.69906282 -0.041993748 0.71382612 0.0006761431
-0.14399086 -0.27237609 0.720846 -0.91411662 0.019320374 0.40499067 0.0281618
-0.033865988 -0.40010709 0.55089617 -0.41605943 -0.090469994 -0.90482581 0.037123676
-0.16237898 -0.4444595 0.6944266 -0.86323351 0.36175108 -0.35208538 0.029858245
-0.15001531 -0.24606659 0.7091797 -0.99314356 -0.045033075 0.10787886 0.042726062
-0.12874316 -0.14193067 0.68631762 -0.61051464 0.74883837 -0.2579011 0.057390545
-0.14430769 -0.23467085 0.7165755 -0.94537735 -0.058322918 0.3207182 0.048564795
-0.15125535 -0.42106569 0.69991475 -0.97952163 0.16885714 0.109657 0.058831245
0.025900234 -0.14426801 0.8213619 0.36458924 0.59715569 0.71447867 0.066020004
-0.079228997 -0.16475029 0.77654362 -0.58017987 0.37444326 0.72331429 0.027174002
0.014025794 -0.24261196 0.83750743 0.0014833143 -0.0036254879 0.99999231 0.056074746
0.013379375 -0.32826447 0.84053344 0.0021209721 0.018173648 0.99983263 0.041791022
-0.03048747 -0.21210323 0.8203885 -0.53499138 0.016140664 0.84470338 0.003436924
-0.08701583 -0.26273394 0.77435017 -0.65103251 0.0060141804 0.75902599 0.00015447501
-0.13912292 -0.16728151 0.72574228 -0.84152865 0.24021861 0.48386422 0.063007839
-0.0038292278 -0.18143848 0.83339286 -0.26115704 0.083795205 0.96165246 0.028759042
-0.0083629945 -0.224684 0.831635 -0.37719491 0.00087556214 0.92613345 0.011865483
-0.14357962 -0.3596043 0.70983285 -0.97520131 -0.055344731 0.21428812 0.021557907
-0.0045858128 -0.32683027 0.83731991 -0.28489831 -0.0045572892 0.95854694 0.021358559
-0.024424974 -0.17961594 0.82261056 -0.51091349 0.1003213 0.85375822 0.0097988611
-0.071414396 -0.13572934 0.63351887 -0.45186231 0.82059175 -0.34992796 0.046884201
-0.050317731 -0.21991003 0.80470878 -0.61577821 0.0248337 0.7875281 0.0008571418
-0.14515063 -0.14616138 0.71349061 -0.69372964 0.71684492 0.069804177 0.092567295
-0.081193395 -0.1338561 0.66256201 -0.32680705 0.91942686 -0.21874954 0.029004419
-0.14546047 -0.37322885 0.70744097 -0.98468447 0.022886127 0.1728369 0.027865991
-0.1461288 -0.38595879 0.70459503 -0.97550237 0.035917208 0.21703725 0.031329554
-0.15140808 -0.20456533 0.70851654 -0.99792236 -0.042662226 0.048277825 0.043715391
-0.033028521 -0.13256149 0.75748473 -0.15177742 0.9785111 0.13956991 0.010181259
0.070454098 -0.13496448 0.76593614 0.45886442 0.79022247 0.406192 0.050567389
-0.068174496 -0.14084996 0.7698161 -0.46095833 0.74608785 0.48048976 0.050724104
-0.030328097 -0.2259407 0.82043779 -0.53342974 0.0030675563 0.84583873 0.003471856
-0.017128328 -0.38424015 0.83123428 -0.3947441 -0.015585608 0.91865897 0.012663051
-0.06417127 -0.32720757 0.79510146 -0.64595813 0.0086978739 0.76332337 0.00017048788
-0.0054000122 -0.22406596 0.83338207 -0.37111548 -0.0015822008 0.92858529 0.011647108
0.009893869 -0.12825845 0.70246089 -0.037595455 0.99918687 0.014565511 4.1848158e-05
-0.12296294 -0.37780496 0.74292535 -0.76941741 -0.020918991 0.63840371 0.0045683454
-0.14695515 -0.15184359 0.71608686 -0.78257006 0.59236121 0.19155225 0.10645592
-0.054100797 -0.39437541 0.80471885 -0.62429243 0.0063069765 0.7811653 0.00075895758
-0.095385768 -0.33934146 0.76850158 -0.65959871 0.011357293 0.75153208 9.4444971e-05
-0.01127586 -0.15329465 0.82482916 -0.33160475 0.48666298 0.80820626 0.085456058
-0.14654176 -0.2907626 0.71347207 -0.93972445 -0.034312829 0.34020689 0.028878296
-0.14386714 -0.29992253 0.71768266 -0.9106636 -0.035498951 0.41162074 0.025994293
-0.044625096 -0.38088518 0.81229866 -0.59487092 0.0083950916 0.8037774 0.00065205002
-0.15584888 -0.44015014 0.68364811 -0.90035218 0.21616544 -0.37767497 0.023449507
-0.054812007 -0.42473912 0.57902068 -0.6102581 -0.40819895 -0.67893934 0.0096211545
-0.14149968 -0.28682527 0.72258002 -0.89864677 -0.027301665 0.43782252 0.02062213
-0.020891745 -0.22584902 0.82559949 -0.42381918 -0.00064935791 0.90574658 0.0097583234
-0.11257896 -0.14712682 0.74252611 -0.44075069 0.67662847 0.58984137 0.037621118
-0.13789955 -0.27879247 0.72864074 -0.8563261 -0.023953136 0.51587957 0.010911038
0.013782312 -0.12901136 0.75074029 -0.017194387 0.9980886 0.059359156 0.00068954157
-0.096114844 -0.13249865 0.69909763 -0.18697439 0.98231441 -0.0099513922 0.006747291
-0.14963606 -0.21898298 0.70395374 -0.99324489 -0.08463148 -0.079385966 0.058183137
-0.14573328 -0.34299827 0.70571959 -0.99234277 0.0013773014 0.12350698 0.03142494
-0.016098307 -0.12898318 0.69943202 -0.043451168 0.99886 0.019767998 2.0497484e-05
-0.1311139 -0.15397659 0.73020643 -0.60357291 0.61879265 0.50278753 0.065749049
0.0043719136 -0.12788862 0.67819148 -0.032061853 0.9994477 0.0087339198 5.5419954e-05
-0.12491881 -0.283373 0.74158382 -0.76344651 -0.00057389046 0.6458708 0.006107341
-0.014686234 -0.20982619 0.82863218 -0.38642472 0.020601572 0.92209083 0.012049586
0.00087911554 -0.22691591 0.83700591 -0.21831223 0.034120999 0.97528225 0.025656182
-0.14198454 -0.16752526 0.72225034 -0.88548785 0.22582194 0.40609801 0.061018698
-0.14637592 -0.27247292 0.71631896 -0.95418757 0.023924937 0.29825115 0.038581029
-0.029088566 -0.29917523 0.82273757 -0.48512763 0.053636145 0.87279683 0.0082012769
-0.14637856 -0.32864803 0.7054674 -0.97691095 -0.044584259 0.20894329 0.037040405
-0.14358579 -0.29724213 0.7156235 -0.92551643 -0.021472098 0.37809837 0.030788194
-0.081899554 -0.17099218 0.77645206 -0.60884666 0.28578719 0.74002123 0.013980572
-0.10138825 -0.43724641 0.62083507 -0.75262344 0.042334244 -0.65708882 0.0014809301
-0.0035217667 -0.26581225 0.8366403 -0.23905505 0.025954187 0.97065908 0.012710124
0.0044375034 -0.3035664 0.83958238 -0.053092167 -0.022106195 0.9983449 0.060138553
-0.13918377 -0.39219233 0.72177655 -0.8913306 0.025795609 0.45261943 0.022639908
-0.12901688 -0.23380582 0.73866105 -0.78180522 0.01705608 0.62328947 0.0088325376
0.069092013 -0.13568352 0.76861209 0.48913234 0.76776534 0.41386715 0.051266331
0.05668243 -0.13424551 0.78089672 0.42317072 0.80343652 0.41882727 0.051012665
0.10838544 -0.13424133 0.7153635 0.52874511 0.74164397 0.41278666 0.041579418
0.058474455 -0.20759107 0.79603648 0.75284648 0.043852277 0.65673369 0.00027158714
0.08298374 -0.4267166 0.77000767 0.78649557 -0.092272647 0.61066395 0.002247548
0.14033286 -0.27507645 0.70025933 0.91691798 0.043598477 0.396687 0.021634495
0.070810191 -0.1321321 0.76022941 0.31977683 0.8790518 0.35356861 0.042725902
0.1120031 -0.30193567 0.73909646 0.77506989 0.026399028 0.63132387 0.00075073296
0.12806435 -0.14222708 0.70297098 0.76534903 0.48405507 0.42418337 0.058076624
0.144137 -0.41707671 0.7055577 0.87083888 0.16847162 0.4617976 0.036796909
0.062309876 -0.36229086 0.79746306 0.72605467 0.078422353 0.68315047 0.00082624046
0.12027249 -0.40467334 0.73200125 0.7628395 -0.013088106 0.64645547 0.00088341709
0.14190206 -0.34223413 0.69676626 0.96226424 -0.052665908 0.2669715 0.027356308
0.093232237 -0.38876954 0.76203239 0.74510741 -0.036912519 0.66592228 0.00068234856
0.04482602 -0.30142683 0.81442952 0.65066624 -0.017950656 0.75915164 0.0061337817
0.080948472 -0.43111631 0.76985526 0.78649557 -0.092272647 0.61066395 0.002247548
0.08416827 -0.4231796 0.77156198 0.76378995 -0.065198287 0.64216369 0.0020989378
0.081672959 -0.19456711 0.76989144 0.75269806 0.097559929 0.6510973 0.0020527719
0.12068668 -0.16399908 0.72137308 0.76396918 0.28254059 0.58010513 0.025342023
0.1348912 -0.19461039 0.70476741 0.92895758 0.057926334 0.3656258 0.015380099
0.059913464 -0.299413 0.79688096 0.73363858 -0.0036060032 0.67953026 0.00044490135
0.14436516 -0.38026348 0.67888725 0.99391222 0.10362522 -0.037421044 0.069452852
0.049832013 -0.14718059 0.79561055 0.61397338 0.42779231 0.66334796 0.035135757
0.14081921 -0.24559358 0.68818653 0.94585323 0.060276899 0.31894884 0.025069736
0.09115009 -0.18616466 0.75896966 0.73830622 0.096849635 0.66747582 0.0014402105
0.022977006 -0.22624435 0.83618587 0.098648071 -0.030515594 0.99465442 0.038097925
0.1232431 -0.32613248 0.72768056 0.82196534 0.027785096 0.5688594 0.001748597
0.061397243 -0.16920459 0.79037595 0.72817832 0.20702535 0.65337342 0.0090422118
0.059708018 -0.14786866 0.78457123 0.66430521 0.42504811 0.61484361 0.039176036
0.13955702 -0.1949569 0.6868121 0.99517471 0.058494594 0.078775764 0.047834773
0.14565481 -0.32874295 0.6862064 0.98599899 -0.02404245 0.16500905 0.042335238
0.095657155 -0.35317865 0.76034373 0.73956519 0.013479947 0.67294985 0.00023027333
0.07691592 -0.3713966 0.78122199 0.7553007 0.036171824 0.65437943 0.0007099139
0.085433513 -0.28468981 0.76908773 0.74744016 0.020182945 0.66402239 0.00015365893
0.10621618 -0.32710776 0.74758464 0.74842131 0.028787322 0.66259849 0.00026061464
0.054498024 -0.40386543 0.81187558 0.68921363 0.064686984 0.72166485 0.0077727181
0.077053912 -0.15906377 0.7668187 0.73645586 0.34798217 0.58012176 0.041675117
0.044093471 -0.27237511 0.81551933 0.64606106 -0.013352715 0.76316899 0.0043383315
0.13321774 -0.16779937 0.70581937 0.89351577 0.18540069 0.40896958 0.02844701
0.14532052 -0.26090217 0.68858528 0.99799615 0.055366006 0.030632304 0.061610483
0.11526807 -0.29956222 0.73576432 0.77980167 0.025009699 0.62552691 0.00070092053
0.068202265 -0.31070215 0.78830516 0.73720104 0.0067299511 0.67563993 0.00018920774
0.1386444 -0.36106655 0.70443523 0.92619574 0.0086081056 0.37694475 0.024758836
0.12525304 -0.40495509 0.72704542 0.79045045 0.0044351267 0.61250985 0.0035412791
0.099535547 -0.40971929 0.75273299 0.74091387 -0.044144183 0.6701476 0.00092015532
0.058463652 -0.14024848 0.78415072 0.62564546 0.53992915 0.5630669 0.046761062
0.084461734 -0.1284398 0.71750206 0.30034086 0.94201869 0.14965306 0.031890765
0.11096198 -0.40336391 0.7411961 0.74945205 -0.038385753 0.66094488 0.00071655819
0.044652406 -0.31659877 0.81421691 0.62363172 0.012892806 0.78161198 0.0081373369
0.11627993 -0.25282881 0.7326405 0.77861995 0.014208495 0.62733495 0.0010508983
0.076244533 -0.12845692 0.73310548 0.23935769 0.9492451 0.20406264 0.029362492
0.14530338 -0.36735523 0.68388683 0.99465942 0.038556658 0.095739044 0.069799714
0.0080844183 -0.1894366 0.83679008 -0.15567659 0.050420787 0.98652041 0.04216503
0.14932527 -0.39737648 0.68422139 0.98887259 0.065354474 0.13364056 0.076612294
0.14290603 -0.2972275 0.67938507 0.97814482 0.045396797 -0.20290835 0.058242727
0.074532136 -0.34049249 0.78196573 0.73916447 0.027509388 0.67296284 0.00012021232
0.038672037 -0.12721959 0.68704045 -0.0042899642 0.99987245 -0.015381306 0.00034645619
0.051602971 -0.43329287 0.81873453 0.63265288 0.02611991 0.77399492 0.01664505
0.039193105 -0.30825272 0.81995994 0.56979692 0.01130141 0.82170784 0.014297805
0.07589756 -0.28437212 0.78011125 0.74756384 0.014840545 0.66402411 0.0002303026
0.13649504 -0.23714767 0.70492065 0.92032188 0.017272314 0.39078039 0.017418867
0.084485441 -0.18256928 0.76555359 0.74332184 0.12317116 0.65749645 0.0018951268
-0.044008277 -0.13366261 0.59938556 -0.4371061 0.8264907 -0.35475528 0.04782347
0.14418213 -0.31681699 0.6911183 0.95751458 -0.0113964 0.28815952 0.023139955
0.0055521675 -0.22407897 0.83702087 -0.21011192 0.018688943 0.97749877 0.026436703
0.084635995 -0.12716739 0.70898378 0.26143733 0.96054882 0.09485025 0.029995956
0.056616697 -0.18189791 0.79808056 0.74357182 0.13963518 0.65391356 0.0018056392
0.13081297 -0.27690595 0.71570462 0.8688696 0.022327546 0.49453723 0.010023805
0.10002706 -0.13673961 0.7289046 0.49989635 0.7813741 0.37357503 0.040335584
-0.033415787 -0.12995516 0.68934131 -0.043007895 0.99888772 0.019327926 3.6400023e-05
0.14009365 -0.19968462 0.68081892 0.99837124 0.050917648 -0.025732329 0.049090028
0.14476702 -0.3039704 0.69388843 0.93424022 0.011535207 0.35645792 0.016993595
0.1018448 -0.30072352 0.75111067 0.75837278 0.031620473 0.65105361 0.00019356291
-0.084246486 -0.13515039 0.65557373 -0.38677314 0.88500983 -0.25916016 0.035094857
0.033680398 -0.28834426 0.82460171 0.5397656 -0.040232126 0.84085333 0.02027645
0.13788953 -0.31532252 0.70560735 0.87914306 -0.01410434 0.476349 0.0085104555
0.087030306 -0.257909 0.76714486 0.75234419 0.026693719 0.65822917 0.00019943093
0.13272502 -0.29832086 0.7133745 0.87495375 0.0087293675 0.48412773 0.013903951
-0.13260229 -0.14487714 0.72412711 -0.51510429 0.80420035 0.29652902 0.058339007
0.14270525 -0.33340463 0.67557317 0.96229088 -0.0079506822 -0.27190644 0.043932028
0.14499825 -0.35293898 0.68974143 0.96357316 -0.0095250998 0.26727524 0.034835141
0.084754698 -0.26710275 0.76830113 0.74963933 0.027123377 0.66129047 0.00035747857
0.011661517 -0.26429707 0.83878684 0.2011967 0.00096308388 0.97955042 0.024803581
0.012038127 -0.37040907 0.8378284 -0.0037487417 -0.034452982 0.99939924 0.034188408
0.060056791 -0.19800255 0.79366046 0.7534005 0.078397922 0.65287173 0.0011955211
0.014102431 -0.23897962 0.83667892 -0.022569278 -0.026650414 0.99939001 0.052383222
0.044282913 -0.12799537 0.74081695 0.053449754 0.98797321 0.14509314 0.0081574162
-0.050093479 -0.14162216 0.79164523 -0.51228136 0.64539301 0.56660008 0.053306803
0.13928027 -0.14994691 0.68526435 0.94272012 0.32487476 0.075731322 0.09215311
0.07039272 -0.13138247 0.63735908 0.14880505 0.96371335 -0.22161588 0.016790414
-0.071633942 -0.13941556 0.62063056 -0.53442603 0.7126615 -0.45442519 0.040113062
0.052048545 -0.12645748 0.72530901 0.043915447 0.99506623 0.088964835 0.0042492161
0.074296966 -0.14662562 0.76409113 0.69574875 0.51954371 0.49599192 0.063013114
0.12929419 -0.14377953 0.70251614 0.7797485 0.46103778 0.42359939 0.057795212
0.013504161 -0.29747579 0.83658659 0.096222445 0.01863189 0.99518543 0.057378367
0.080991194 -0.32647163 0.77515322 0.73872596 0.016545519 0.67380279 0.0001543143
0.01188895 -0.39951432 0.83868325 -0.0064573339 -0.074707583 0.99718451 0.03203693
-0.029074647 -0.12973824 0.69165415 -0.042255409 0.99892396 0.019114183 3.526677e-05
-0.082532011 -0.13503848 0.64924783 -0.39119831 0.87207627 -0.29401824 0.038804155
0.079247609 -0.1283067 0.66729116 0.1409872 0.98150468 -0.12950322 0.013181883
0.1276492 -0.18506543 0.71696401 0.88103569 0.065999836 0.46842289 0.010564857
-0.014291938 -0.13676792 0.81783479 -0.22194596 0.86877227 0.44269031 0.057581201
0.13819802 -0.20095605 0.68785948 0.99447024 0.076900974 0.071520872 0.050101414
0.14672911 -0.36402807 0.68538809 0.99551392 0.02221377 0.091971003 0.068890385
0.088106528 -0.13475949 0.74896199 0.41554078 0.8493762 0.32540116 0.035618018
0.13765459 -0.13795677 0.68305832 0.83923328 0.53214037 0.11186666 0.11236934
-0.043780144 -0.13598232 0.77680677 -0.32903463 0.90569013 0.26732281 0.028040662
0.05540856 -0.12663104 0.69166332 0.022895109 0.99967718 -0.011015984 0.0007662602
0.020599674 -0.13149506 0.79563487 0.15103215 0.95442683 0.25740781 0.029240264
0.057617903 -0.34919158 0.80159682 0.72935671 0.025713723 0.68365014 0.00023167535
0.096778095 -0.13511115 0.64807534 0.33925828 0.85175669 -0.39926705 0.063061558
0.13339543 -0.13359754 0.68881935 0.70011276 0.66504449 0.25991914 0.097250052
0.14026268 -0.31403062 0.70056069 0.90696406 0.0032986312 0.42119509 0.019284515
0.13912494 -0.24058391 0.70030904 0.92057031 0.028425775 0.38954109 0.017820448
0.14266399 -0.25915697 0.69397897 0.94821328 0.063284226 0.31126618 0.037565969
0.033761188 -0.12752528 0.70079648 -0.021861838 0.99975866 0.0021655778 0.00022929008
0.12884414 -0.13337688 0.68260884 0.56721616 0.82052386 0.070755564 0.10780117
0.030932512 -0.13400723 0.59994382 0.29009876 0.79238731 -0.53662366 0.047296878
0.12447747 -0.37303412 0.72708637 0.82124919 0.027661247 0.56989872 0.003862031
0.077455521 -0.23024198 0.77582824 0.7497099 0.027361376 0.66120076 8.5235886e-05
0.11962954 -0.14179093 0.71145201 0.68017274 0.55625671 0.47743425 0.051292524
0.12434103 -0.1551007 0.71395051 0.78854269 0.3498579 0.50576663 0.040277157
-0.1145455 -0.13660282 0.69730002 -0.38339806 0.92147774 -0.062327277 0.040482521
0.12923692 -0.21551147 0.71599853 0.90132517 0.030483102 0.43206924 0.010288344
0.066167466 -0.34310815 0.79081261 0.73668396 0.024360305 0.67579818 0.0001961333
0.14515077 -0.29081172 0.69127649 0.99214935 0.058960471 0.11028725 0.048588671
-0.14954272 -0.14788048 0.70832992 -0.80800235 0.58792406 -0.038439479 0.089501686
-0.021725724 -0.22412859 0.54752195 -0.20824863 0.063811235 -0.9759922 0.038064741
0.01652897 -0.128022 0.70202005 -0.034585763 0.99934071 0.011043101 5.4043507e-05
0.071770586 -0.15996332 0.77420378 0.75630814 0.31688663 0.57234687 0.04156322
0.069242336 -0.22055946 0.78664869 0.75022489 0.027961085 0.66059113 0.00013065853
0.056649584 -0.2961117 0.80103892 0.73022318 -0.01044477 0.68312877 0.0004995885
0.066257559 -0.25625664 0.60695332 0.62375361 0.041208208 -0.78053397 0.00018925524
0.027955713 -0.24161479 0.83119178 0.39465052 -0.019393604 0.91862667 0.03381595
0.084769107 -0.20330255 0.76706618 0.74617475 0.062710591 0.66279006 0.00092861522
0.066497758 -0.3569968 0.60200804 0.6591602 0.0046508303 -0.75198823 0.0007182571
-0.046438247 -0.12966473 0.65573657 -0.114792 0.99233741 -0.045707982 0.0031362532
0.061672717 -0.19135369 0.79154527 0.74971706 0.10280794 0.65372384 0.001242461
0.14075394 -0.15229514 0.68230903 0.95534676 0.29520121 -0.012990446 0.089565463
0.14634447 -0.38136417 0.67564791 0.98113507 0.09973757 -0.16560926 0.060960736
0.055942696 -0.40543562 0.8116371 0.67599767 0.056867328 0.73470628 0.0088456487
0.036221121 -0.35568359 0.82341284 0.51509964 0.034166679 0.85644901 0.033151206
0.043922111 -0.25800261 0.81675291 0.63892066 -0.038451433 0.76831096 0.0040244013
0.046615869 -0.15487824 0.80127388 0.63163978 0.40215895 0.66279668 0.030949742
0.027417053 -0.14043595 0.81702262 0.35808113 0.70602179 0.6109919 0.053155217
0.017124377 -0.13417003 0.80843657 0.15886696 0.89901948 0.408075 0.061202712
0.02099723 -0.18532267 0.57266057 0.55349481 0.12836525 -0.82290083 0.0051795677
0.072716467 -0.29928747 0.61023122 0.64313257 0.043934546 -0.76449335 7.0769362e-05
0.066137426 -0.43266213 0.59516656 0.64302528 0.16501722 -0.74785548 0.001112639
0.045638938 -0.13082033 0.76045746 0.13483584 0.9615311 0.2393267 0.031949647
0.10743051 -0.16130152 0.73523986 0.70535827 0.36504003 0.60763109 0.025682889
0.039199796 -0.25067016 0.58678538 0.61356521 0.041429486 -0.78855646 0.00021699614
0.14201751 -0.21062005 0.67562246 0.99553657 0.08850161 -0.032778572 0.048319958
0.10757983 -0.27400205 0.64015394 0.70179862 -0.053667095 -0.71035093 0.04558856
0.13804092 -0.17347832 0.67781162 0.99360871 0.11197063 -0.014290872 0.061742026
0.13589837 -0.19202137 0.67537427 0.98036408 0.056530952 -0.18891923 0.058038428
0.08146517 -0.30095598 0.77368313 0.74350452 0.014541872 0.66857284 0.00019616546
-0.021257579 -0.1306051 0.74260092 -0.072917968 0.99579537 0.055448096 0.00056968635
-0.0077456487 -0.13319401 0.80756617 -0.14162792 0.92789632 0.34489137 0.034520276
0.0062752017 -0.28164852 0.84095061 -0.053880207 0.027899753 0.99815756 0.033812813
0.079618812 -0.12976082 0.65610945 0.14007466 0.97205704 -0.18837257 0.016928505
-0.0068195174 -0.13379408 0.58618915 0.15044203 0.9045586 -0.39892474 0.035263978
0.0026418688 -0.18471637 0.55917621 0.33327949 0.12092174 -0.93504155 0.025940487
0.11356021 -0.15411343 0.72452348 0.68172055 0.39077049 0.61851072 0.034652933
0.13667311 -0.35739505 0.6645335 0.91624916 0.0076207803 -0.40053642 0.041711628
0.065037921 -0.21985146 0.60831875 0.6295864 0.029078389 -0.77638614 0.00024296617
0.037666827 -0.40943503 0.57618171 0.60343409 0.021964863 -0.79711026 0.00093277474
0.10672852 -0.2356092 0.64124149 0.66661024 0.02202474 -0.74508101 0.00093006244
0.13267912 -0.2968255 0.71339977 0.87422007 0.0094044292 0.48543876 0.012541507
0.11736863 -0.21020707 0.65227419 0.72881883 0.027545076 -0.68415231 0.0064036692
0.04772323 -0.37498137 0.5851571 0.64312452 0.023857569 -0.76538998 0.00099193421
0.054743521 -0.1624904 0.7961005 0.69138592 0.28766242 0.66274863 0.025268814
0.14529459 -0.31425309 0.67648447 0.95788312 0.079068229 -0.27605823 0.041950081
0.03225103 -0.43430001 0.82737541 0.35421097 0.070464469 0.93250704 0.010511003
0.11369641 -0.34171161 0.64359564 0.69370699 0.03338363 -0.7194832 0.0017154393
-0.023099909 -0.41745123 0.54428297 -0.086420096 -0.14086844 -0.98624927 0.060826521
0.14341265 -0.23517303 0.67895228 0.99281782 0.081842817 0.087260924 0.0345066
0.047019929 -0.12725931 0.66240239 0.032789268 0.99567628 -0.086911015 0.0046556676
0.044675648 -0.12810044 0.64357364 0.10784008 0.9802168 -0.16596851 0.0087733772
0.070638746 -0.14763041 0.62354159 0.47892174 0.63954645 -0.60134369 0.067988545
0.031750318 -0.12769759 0.72867173 -0.013630332 0.99870229 0.049070794 0.00057525007
0.08749456 -0.22662333 0.76323485 0.74377793 0.020421904 0.66811472 2.2884986e-05
0.095169097 -0.26723093 0.75629014 0.75261527 0.024930142 0.65798837 0.00017777643
0.094285198 -0.18648796 0.75553298 0.73714924 0.093627088 0.66921222 0.0011912528
0.078349873 -0.23974559 0.77575189 0.7530359 0.028128615 0.6573779 0.00018213445
0.060553588 -0.26432842 0.79530197 0.74373311 0.0077132354 0.66843212 0.00045635531
0.056263909 -0.12690362 0.67354584 0.040943004 0.99768454 -0.054306205 0.0017119595
0.050816037 -0.1432614 0.6081875 0.47547156 0.53885782 -0.69538409 0.043470193
0.11864893 -0.36900604 0.73445553 0.78006303 0.0079030795 0.62565112 0.0015377121
0.056219254 -0.17973654 0.60176069 0.64940143 0.15562767 -0.74435061 0.0036923997
0.11050695 -0.40749756 0.63907301 0.65314066 0.062976174 -0.75461334 0.026775261
0.14200959 -0.34600118 0.67467731 0.98428094 -0.041307926 -0.17171136 0.051098701
0.14031367 -0.36691254 0.69950444 0.92660618 0.095978007 0.36357826 0.034838278
0.087223746 -0.22909397 0.62602872 0.63395137 0.042127818 -0.77222466 0.00018298978
0.12871549 -0.18314993 0.71538526 0.8811388 0.074238665 0.46699345 0.010900658
0.094053805 -0.2157875 0.75606143 0.74641556 0.024263099 0.66503763 7.4488977e-05
0.1345 -0.20163296 0.66914916 0.9705081 0.12471871 -0.20629895 0.053009503
0.074119031 -0.2114976 0.77872175 0.75006175 0.037231985 0.66031903 0.00017184205
0.017898021 -0.29779455 0.56519502 0.47323009 0.044788655 -0.87979954 0.0070828414
0.14177962 -0.18396299 0.68349141 0.99925971 0.03355778 0.018813763 0.055625316
0.019763011 -0.39736041 0.56304544 0.47990894 0.020568024 -0.8770771 0.0045595472
0.1113237 -0.17053069 0.64966589 0.65744221 0.18623073 -0.73012859 0.019907007
0.14272743 -0.31019151 0.67721522 0.9661116 0.078163527 -0.24600592 0.044472218
0.062199343 -0.29193044 0.60173529 0.63238734 0.05860512 -0.77243239 0.00037327872
0.045296337 -0.32467851 0.58564425 0.61794555 0.035713259 -0.78540933 0.000310011
0.045761049 -0.13756981 0.60437661 0.39995417 0.64078784 -0.65530735 0.044248343
-0.02814088 -0.13163471 0.59897053 -0.22645777 0.93927711 -0.25782806 0.035463247
-0.021235384 -0.41934356 0.54564059 -0.016134003 -0.14948601 -0.98863214 0.067603074
-0.062049922 -0.13917701 0.76712167 -0.41473487 0.81538498 0.40390876 0.047975224
0.11071339 -0.27326524 0.64534068 0.71008909 -0.069605976 -0.70066285 0.049028207
0.10931884 -0.13643935 0.65780771 0.40721312 0.81851232 -0.40523455 0.050715968
0.022045473 -0.13908537 0.58667374 0.31437224 0.73322564 -0.60295117 0.036810037
-0.017864678 -0.31407857 0.54860485 -0.067958944 -0.0050720247 -0.99767524 0.038392428
-0.030574145 -0.14359757 0.5638569 -0.41493669 0.57604206 -0.70427483 0.09121643
-0.12478474 -0.14246239 0.67272693 -0.53488493 0.76076108 -0.36761481 0.040051162
-0.021035206 -0.32041308 0.54871553 -0.14345695 0.0026419335 -0.98965305 0.041129429
-0.08187589 -0.13987988 0.62462962 -0.59535187 0.65241736 -0.46894321 0.039202988
-0.10421974 -0.38115638 0.62655759 -0.75885141 0.024208074 -0.65081376 0.00015208189
-0.023843262 -0.14790292 0.5539552 -0.27151242 0.45553225 -0.84780383 0.10620077
-0.017746428 -0.19781853 0.55101925 -0.23291804 0.012288643 -0.97241873 0.048092004
-0.12269171 -0.39033768 0.64754844 -0.78221208 0.035142075 -0.62202036 0.0011333694
-0.032085188 -0.24929179 0.55364758 -0.30364516 0.074544318 -0.94986457 0.02839859
-0.12510383 -0.36307895 0.65189296 -0.7929433 0.033147935 -0.60839307 0.001002343
0.087597951 -0.13032477 0.66097564 0.21819781 0.94966567 -0.22477752 0.03626522
-0.015167392 -0.27082798 0.54798126 -0.044934299 0.037543278 -0.99828428 0.044751178
-0.025063144 -0.25532639 0.54915881 -0.2145064 0.068133645 -0.97434324 0.039274435
0.076976217 -0.13326712 0.63060325 0.18376838 0.9498834 -0.25288472 0.017376471
-0.088882387 -0.20259252 0.61829287 -0.77133232 0.030188553 -0.63571626 0.00041047746
-0.028955225 -0.28791562 0.55056858 -0.36027774 -0.0066925106 -0.93282104 0.04061529
-0.12435941 -0.32593754 0.65282708 -0.81065756 0.030156787 -0.58474344 0.0028433243
-0.093166202 -0.36095998 0.61479294 -0.75765073 0.030049711 -0.65196812 2.9129382e-05
-0.13031873 -0.16175424 0.67150706 -0.7979731 0.29134464 -0.5275957 0.027491849
0.0030182078 -0.13576829 0.8218357 -0.025893584 0.88611054 0.46275008 0.066952616
-0.02531996 -0.37045848 0.54600793 -0.26918685 0.076361246 -0.96005589 0.03655212
-0.14689563 -0.18825613 0.69061559 -0.95492214 0.05139878 -0.29237276 0.028273884
-0.04510624 -0.13896112 0.58309287 -0.56573808 0.67946327 -0.46719372 0.049916029
-0.14575231 -0.32299289 0.68937582 -0.98075622 -0.0038887889 -0.19519788 0.03374733
-0.036508024 -0.38115898 0.55446899 -0.54293627 0.021122284 -0.83950818 0.016919337
-0.055912964 -0.26287436 0.57444203 -0.66366333 0.0013878256 -0.74803013 0.0028566071
-0.10267003 -0.18243773 0.6348514 -0.75876033 0.14120756 -0.63587981 0.0072846268
-0.081191234 -0.341683 0.60171837 -0.75132239 0.023920204 -0.65950161 0.00028885316
-0.047728017 -0.23815292 0.56735802 -0.57843232 0.048091482 -0.81431156 0.013450823
-0.083950296 -0.36968949 0.60294932 -0.75739354 0.03223139 -0.65216267 0.00015219495
-0.026953785 -0.15739049 0.55248922 -0.35558426 0.23690368 -0.90412188 0.077302821
-0.065693311 -0.40731087 0.5797388 -0.71445251 0.013781815 -0.69954818 0.0021833414
-0.020298798 -0.34084818 0.54742944 -0.14599794 0.051275376 -0.98795521 0.044193845
-0.02479188 -0.34694445 0.54874992 -0.33776698 0.068088017 -0.9387638 0.042053264
-0.051667027 -0.33648065 0.57008225 -0.63394994 0.033479471 -0.77264905 0.0054150326
-0.047603752 -0.22092703 0.56833076 -0.59458888 0.032124504 -0.80338788 0.015868377
-0.11486078 -0.2659438 0.64344364 -0.78641635 0.03914877 -0.61645496 0.00078056066
-0.095536388 -0.20724784 0.62621254 -0.76493877 0.037046812 -0.64303672 0.00031179338
-0.067565754 -0.35182706 0.5854274 -0.72616583 0.022421807 -0.68715388 0.00071953726
-0.14846808 -0.26850063 0.7053228 -0.9946034 -0.01643718 0.10243986 0.042140253
-0.022245262 -0.30036929 0.54806513 -0.13605954 -0.015581349 -0.99057817 0.038772486
-0.14927883 -0.16254546 0.70545542 -0.95548928 0.2807698 -0.090601243 0.063898452
-0.04694118 -0.29659811 0.56659412 -0.59881973 0.0065899328 -0.80085665 0.011346246
-0.065119803 -0.17346455 0.5896588 -0.73315305 0.21835232 -0.64405656 0.012361631
0.03362881 -0.1324338 0.60572714 0.24569283 0.8785097 -0.409702 0.041956156
0.0047221743 -0.1396403 0.57541919 0.33745092 0.72939032 -0.59507704 0.040769838
-0.027520416 -0.36487931 0.54840565 -0.32794547 0.10576174 -0.93875784 0.047924481
-0.1110661 -0.23009877 0.64213073 -0.77532482 0.055306703 -0.62913638 0.00039283975
-0.061410028 -0.15817273 0.58940184 -0.6862669 0.37851593 -0.62109864 0.025378788
-0.1242786 -0.22235404 0.65900171 -0.80254376 0.051164225 -0.59439516 0.0017840603
-0.12456588 -0.22450979 0.65862072 -0.8033151 0.051241297 -0.59334564 0.0017725771
-0.055279631 -0.22787611 0.57725227 -0.67421007 0.01951085 -0.73828179 0.0052093356
-0.13635436 -0.15179682 0.68155932 -0.78404415 0.52045327 -0.33823529 0.057010803
-0.13187943 -0.32261002 0.66276991 -0.85893041 0.027947675 -0.51132911 0.0082506556
-0.055450849 -0.16167417 0.58401394 -0.71784329 0.34824622 -0.60284781 0.02547824
-0.079682864 -0.17214656 0.60655475 -0.75631374 0.23233993 -0.61156178 0.014572101
0.056175053 -0.12704842 0.73348546 0.080554403 0.98921251 0.12234995 0.0077255443
-0.043317519 -0.13084413 0.71947914 -0.061978664 0.99687898 0.048897289 0.00062617951
-0.06085572 -0.16247168 0.58697307 -0.70074427 0.3455916 -0.62411851 0.023370694
-0.021599405 -0.18166797 0.55174482 -0.19606484 0.035517033 -0.97994751 0.051126789
-0.14827901 -0.31967947 0.69595093 -0.99733108 -0.055495184 0.047443803 0.043627378
-0.1491702 -0.41615996 0.69241142 -0.99056381 0.10530091 -0.087720998 0.067087606
-0.1002968 -0.41243494 0.62225819 -0.7579807 0.033723217 -0.65140468 0.00055358489
-0.070718922 -0.25732672 0.59241366 -0.74765086 0.04160383 -0.66278762 0.00043022283
-0.10257637 -0.38101304 0.62515187 -0.75851971 0.02516851 -0.65116382 0.00011321029
-0.040480305 -0.37616086 0.5581882 -0.56963629 0.034709461 -0.82116371 0.015296357
-0.12397137 -0.21173611 0.66016912 -0.80258316 0.040517449 -0.59516275 0.0015564662
-0.061730657 -0.2053853 0.58461839 -0.73695457 0.04076153 -0.67471212 0.0031790463
-0.064645134 -0.36561176 0.58124638 -0.71949285 0.035780627 -0.69357747 0.00086428772
-0.14956219 -0.20683926 0.69999546 -0.97138339 -0.0087700924 -0.23735477 0.036738221
-0.035676707 -0.26279977 0.55709851 -0.40741459 0.035822004 -0.91254038 0.038850632
-0.11731463 -0.23192206 0.64952928 -0.79388463 0.061400712 -0.60496044 0.0013631755
-0.021327473 -0.13470423 0.80396134 -0.26590475 0.89735895 0.35219538 0.0367692
-0.027491454 -0.14661117 0.55908275 -0.33862039 0.50304288 -0.79516298 0.099877484
-0.10258911 -0.16934448 0.63702285 -0.70694578 0.27897686 -0.64992273 0.02080651
-0.021850975 -0.28523892 0.54742008 -0.12262405 0.026874565 -0.99208927 0.045362521
-0.049360808 -0.40804067 0.56329417 -0.58402461 -0.076178618 -0.80815351 0.018103998
0.023899753 -0.12797877 0.73030132 -0.024090178 0.99897081 0.038431995 0.00041619153
-0.094830707 -0.29501662 0.61851209 -0.76070249 0.012295136 -0.64898413 0.00013200565
-0.067379571 -0.30471325 0.58669752 -0.72332525 0.018639592 -0.69025588 0.00063014304
-0.14023609 -0.34855938 0.67390478 -0.90756756 0.027174134 -0.4190259 0.016172109
-0.13490495 -0.14076559 0.6831553 -0.69109273 0.65081912 -0.3143647 0.056138102
-0.10393816 -0.18282801 0.63572055 -0.75919122 0.13263574 -0.63720995 0.0068328967
0.12167312 -0.38872322 0.65153718 0.70025545 -0.025244502 -0.71344596 0.015023448
-0.14395605 -0.21756698 0.69094038 -0.94826806 -0.055085026 -0.31265524 0.02994035
-0.035705812 -0.24519418 0.5559898 -0.40964904 0.080362 -0.90869665 0.027576068
-0.12510987 -0.22860852 0.6595723 -0.80363619 0.054423437 -0.59262711 0.0017679016
0.074484311 -0.12768306 0.7212382 0.14284861 0.98407495 0.10578594 0.016762028
0.10129733 -0.13014941 0.69758099 0.3389377 0.92397004 0.17720217 0.049373887
-0.12548988 -0.15716627 0.66374069 -0.71114051 0.38589191 -0.58767897 0.035286758
-0.052728318 -0.19523284 0.57351935 -0.66511708 0.057576679 -0.74451607 0.0072215982
0.01303516 -0.20209576 0.56557906 0.46359816 0.069770619 -0.88329428 0.013926757
-0.016748233 -0.26361164 0.54868168 -0.066013359 0.067255281 -0.99554956 0.044943172
-0.022820517 -0.13910697 0.5581364 -0.28756228 0.6141209 -0.73495823 0.10444515
-0.028784443 -0.27253094 0.55057341 -0.28541681 0.029725911 -0.95794243 0.046543609
-0.093551792 -0.39133021 0.61308652 -0.76151133 0.026340438 -0.64761609 0.00013735192
0.017957088 -0.12789674 0.65687746 -0.0053246403 0.99971771 -0.023156464 0.00053067232
-0.10397685 -0.15099935 0.64174473 -0.64774173 0.51987123 -0.5569241 0.03390386
-0.11748259 -0.15708043 0.65650553 -0.68097574 0.4403477 -0.58512038 0.038267393
-0.0022017832 -0.33941221 0.55199844 0.15271626 0.014723786 -0.98816043 0.039714798
-0.14925693 -0.27798513 0.70150405 -0.99440742 0.043912653 0.096049786 0.041549239
-0.034633048 -0.18860531 0.5600304 -0.46060798 0.021269858 -0.88734871 0.033187859
-0.098125197 -0.17696524 0.62905508 -0.72741097 0.23949029 -0.64305341 0.015417972
-0.02686475 -0.30172685 0.5495261 -0.23064001 -0.03350284 -0.97246224 0.042145364
-0.013911901 -0.30609149 0.54883283 0.038788877 -0.00075760635 -0.99924713 0.038161479
0.045890752 -0.33802989 0.58674717 0.61725819 0.024316981 -0.78638476 0.00076384365
-0.066859774 -0.40444162 0.58121073 -0.71576566 0.015086485 -0.69817752 0.0022142851
0.03214616 -0.1272824 0.66144502 0.0075289304 0.99920231 -0.039216172 0.00074700551
-0.074957728 -0.36634687 0.5921554 -0.74396026 0.036338918 -0.66723508 0.00046528591
