# .PCD v0.7 - Point Cloud Data file format
VERSION 0.7
FIELDS x y z normal_x normal_y normal_z curvature
SIZE 4 4 4 4 4 4 4
TYPE F F F F F F F
COUNT 1 1 1 1 1 1 1
WIDTH 249
HEIGHT 1
VIEWPOINT 0 0 0 1 0 0 0
POINTS 249
DATA ascii
0.011361961 -0.25936621 0.62457824 -0.58621299 0.095294535 -0.80453295 0.042553212
0.0088188099 -0.26512554 0.62591773 -0.60019124 0.064596213 -0.79724389 0.03839748
-0.011123174 -0.22719492 0.66350591 -0.87415981 0.1597116 0.4586249 0.0813656
-0.0062031834 -0.271474 0.64624715 -0.83967048 -0.0014305593 -0.54309428 0.0099961832
-0.0088600172 -0.23524965 0.65537435 -0.8935135 0.018963942 -0.44863579 0.0043424875
0.0040205191 -0.34288859 0.61897564 -0.4374387 0.28900671 -0.85154122 0.040914759
-0.014386378 -0.24651892 0.67914361 -0.91623002 0.034737416 -0.39914384 0.0016046111
-0.01312406 -0.29347062 0.66210353 -0.85875672 0.026750313 -0.51168489 0.0055246572
-0.0029837517 -0.39823008 0.6297965 -0.83460093 -0.54724425 0.062968366 0.0056033446
0.090000443 -0.19889627 0.67667973 -0.056966502 0.99635392 -0.063511401 0.00049267168
0.0042463839 -0.30580029 0.63926542 -0.76971555 0.020652628 -0.63805288 0.030183863
-0.025184168 -0.20278873 0.80210131 -0.14518952 0.97662294 0.15851679 0.018404104
0.069552235 -0.20066735 0.852557 -0.044878308 0.99895555 0.0085976105 0.0014948699
-0.055253483 -0.34488684 0.73968905 -0.86480117 -0.056218855 -0.4989574 0.002018756
-0.058949016 -0.43993488 0.7421568 -0.90707499 0.011773633 -0.42080432 0.0065454068
-0.04528923 -0.25677294 0.72621876 -0.81645221 0.054431185 -0.5748418 0.0022071002
0.12170415 -0.20175241 0.83122861 -0.24753089 0.80804962 0.53458786 0.11791665
-0.085488148 -0.4961867 0.79083014 -0.88948917 0.33527905 0.31047866 0.052731492
-0.079232678 -0.29400519 0.78884459 -0.95346957 -0.28184134 -0.10705655 0.080947153
-0.060064815 -0.47324556 0.73837495 -0.89182132 0.018769789 -0.45199829 0.0089549264
-0.087430522 -0.28608179 0.79828346 -0.91146505 0.054014608 -0.40781593 0.0050207977
-0.079027578 -0.22971213 0.77015638 -0.7955398 0.27151671 -0.54165959 0.084962577
-0.01291558 -0.48629409 0.6660791 -0.84857363 -0.022108227 -0.52861518 5.3311044e-07
-0.031995714 -0.27452111 0.70955426 -0.86100864 0.095922366 -0.49946266 0.0033062403
-0.059111681 -0.40866756 0.74629033 -0.91071433 0.024351142 -0.41231841 0.002195013
-0.033283733 -0.22374053 0.71720898 -0.86538476 0.053506985 -0.49824321 0.0070418254
-0.051913034 -0.25960368 0.73405159 -0.81407773 0.067080311 -0.57686883 0.0028780401
-0.038324662 -0.28229424 0.7172308 -0.81226671 0.069286548 -0.57915646 0.0033556523
-0.059788097 -0.37837601 0.75242674 -0.9159385 0.026755799 -0.40042579 0.0035977312
-0.064063899 -0.21449946 0.76427084 -0.23828681 0.96725893 -0.087347068 0.040586654
-0.032338258 -0.2155222 0.71192336 -0.87976468 0.020039946 -0.47498682 0.0066819349
-0.061431944 -0.2113854 0.81699991 -0.17757797 0.78825647 0.58916706 0.046273489
-0.065901272 -0.40051788 0.76162434 -0.94094473 0.010488622 -0.33839777 0.004447367
-0.08031974 -0.51895118 0.76655269 -0.89828372 0.21210994 -0.38483217 0.00031677246
0.0247132 -0.43749249 0.62562519 -0.18129717 0.13423412 -0.97422403 0.022684464
0.027009914 -0.49556372 0.61866468 0.15506685 -0.030674454 -0.98742759 0.013582534
0.05617319 -0.48291111 0.62513608 0.26171595 0.11841183 -0.95785356 0.021342617
0.1003361 -0.24963661 0.66623098 0.94233185 -0.2143473 -0.25703296 0
0.081556536 -0.48392478 0.64450037 0.33378732 -0.81633097 -0.47137016 5.1046736e-05
0.10669038 -0.47770482 0.65192163 0.59102088 -0.23840031 -0.77062279 0.025487771
0.14460163 -0.32579893 0.68749696 0.51002073 0.29568136 -0.80774468 0
-0.091556035 -0.20745894 0.80492508 0.2945883 0.94609797 0.13459696 0.15943766
0.085544452 -0.29148394 0.64689994 0.4961713 0.21404561 -0.84142649 0.0089974348
0.076358549 -0.20201632 0.67144012 -0.021577006 0.99556035 -0.091619015 0.0016033687
0.090037405 -0.19906224 0.66231823 -0.082545541 0.99572206 -0.04151953 0.00081227405
0.13625482 -0.19687596 0.75802475 -0.0025518362 0.99950594 -0.031325236 0.0062613394
0.15766065 -0.19553657 0.71668828 -0.021232363 0.9991008 -0.03669966 0.0079518789
0.087460101 -0.19641908 0.72628325 0.084216036 0.99620241 -0.022098158 0.0036264739
0.021941263 -0.20282647 0.68477792 -0.57013047 0.35379356 0.74147242 0.0041902703
0.029161986 -0.35014248 0.6219781 -0.30169839 -0.93323356 0.19507208 0.044832621
0.1572319 -0.2025595 0.69668567 0.111381 0.95410281 -0.27799648 0.010447676
0.105035 -0.19530642 0.77855343 -0.046272188 0.998927 -0.0019157847 0.0019171194
-0.058590271 -0.20703946 0.7857976 -0.15339114 0.98698217 0.048346095 0.036486506
-0.049061347 -0.20331749 0.74338394 -0.78163534 0.50752634 -0.36257842 0.027818818
-0.035459936 -0.20206057 0.70485026 -0.90046 -0.28644606 -0.32729256 0.00086502568
0.1133744 -0.2009276 0.73153222 -0.020048307 0.9997769 -0.0066525815 0.0026373498
0.19281372 -0.28037378 0.72476882 0.71476316 0.13075431 -0.6870349 0.017046914
0.19792502 -0.27907601 0.72763801 0.78732574 0.2586664 -0.55965161 0.035664257
0.13475519 -0.20082444 0.84152877 -0.2251721 0.96393788 0.14184941 0.16938774
0.17745601 -0.20199279 0.76559752 0.24236363 0.92516613 0.29210874 0.04178286
0.17898729 -0.48878029 0.78088123 0.77736801 -0.50792021 0.37110108 0.028370775
0.18613453 -0.33348513 0.73122436 0.64320207 -0.6941222 -0.32324204 0.026095856
0.12217768 -0.24507281 0.84406406 0.93808371 -0.21970306 -0.26782355 0.013931734
0.17404629 -0.37243819 0.78190577 0.67448455 -0.28508711 0.68102556 0.048993371
0.098243721 -0.20023941 0.81329513 -0.040492523 0.99812818 0.045830365 0.0024833486
0.14212054 -0.19574194 0.81992364 -0.12813495 0.99154043 -0.020713812 0.0044111987
0.16124213 -0.19348466 0.78182167 0.28588358 0.95626813 -0.061821125 0.026868725
-0.038902868 -0.20958167 0.8205148 -0.34580687 0.86202765 0.37057531 0.036231671
0.018450564 -0.20866089 0.87069505 -0.156078 0.9740172 0.16410415 0.0039352579
0.03367896 -0.19935867 0.68170154 0.034455538 0.99284703 -0.1143137 0.0018547698
-0.074752249 -0.38488203 0.81402266 -0.76191032 -0.19542913 0.617495 0.031540539
0.092145175 -0.43333721 0.90719861 0.12254301 -0.11068846 0.98627144 0
0.07626126 -0.45861739 0.906335 -0.68633783 0.41237333 0.59907311 3.8205715e-05
-0.009326891 -0.35945579 0.849365 -0.42795578 0.027170746 0.90339118 0.0035165797
-0.061734017 -0.2102437 0.80787081 -0.20958784 0.967507 0.14143279 0.078553788
-0.024839604 -0.38516927 0.84196007 -0.46395126 -0.0064045619 0.8858375 0.0030159678
0.025182284 -0.30353281 0.87301093 -0.50476056 0.036959764 0.86246789 0.00015364001
0.043593518 -0.488078 0.8892473 nan nan nan nan
-0.072964914 -0.24255781 0.8232637 -0.43152672 -0.25937399 0.86400795 0.089411646
2.459902e-05 -0.39751199 0.85827827 -0.48985758 0.028052693 0.87135106 0.00040101417
0.061656211 -0.30631679 0.89412308 -0.41280875 -0.072998315 0.90788776 0.0016448071
0.13526866 -0.19574115 0.69142026 0.0062243682 0.99990362 -0.012413443 0.009665844
0.072810993 -0.21204472 0.90454209 0.58989906 -0.68537021 0.42695051 0.00039771068
0.001750694 -0.48419201 0.85548377 -0.42912292 -0.10526208 0.89709163 0.00011039005
0.051441111 -0.38294289 0.89416528 -0.47743854 0.11906476 0.87056077 8.1326252e-05
-0.050016426 -0.38265556 0.83418411 -0.46378243 -0.0062159873 0.8859272 0.0038486666
-0.05341408 -0.49600491 0.82179987 -0.69430375 0.030800659 0.71902263 0
-0.0088057434 -0.34117901 0.8526051 -0.48170745 -0.04896808 0.87496287 0.00051659549
-0.03154029 -0.2795743 0.84208661 -0.61798513 -0.0037027637 0.78618103 0
-0.021238886 -0.20767002 0.83173138 -0.42387038 0.69312894 0.58301485 0.051255222
-0.026340861 -0.20522726 0.81537372 -0.26598904 0.92646885 0.26628062 0.0067165084
-0.0091006337 -0.20897576 0.85127538 -0.54324061 0.52690756 0.65364981 0.036229648
0.025977973 -0.42784461 0.87187213 -0.46994236 -0.0077777104 0.88266289 0
0.077029862 -0.28653991 0.89857572 -0.33266556 0.013300373 0.94295102 0.00075135374
0.0030932419 -0.45688659 0.85933518 -0.42546889 -0.059144791 0.90303826 0.00034183313
0.018218402 -0.31669089 0.86894566 -0.53494376 0.025421878 0.84450513 0
-0.023579929 -0.2530081 0.84847373 -0.86712533 0.19998181 0.45618093 0.00111757
-0.034142215 -0.31276396 0.83988947 -0.49464607 -0.042303342 0.86806434 5.5384091e-05
0.040403906 -0.20189872 0.7866531 -0.094006501 0.9913677 0.091395013 0.0012599409
-0.06245346 -0.22547144 0.82430613 -0.17757797 0.78825647 0.58916706 0.046273489
-0.049701318 -0.39999112 0.82824951 -0.55838501 -0.17587531 0.81072444 0.011206364
-0.0144429 -0.35566616 0.84805435 -0.41993552 0.011374245 0.90748274 0.0021151279
-0.031049348 -0.46494758 0.84205782 -0.46862417 -0.16729254 0.86741263 0.00091809971
0.10541547 -0.30860299 0.90995663 -0.3541671 0.047080256 0.93399632 0.00036283207
0.033519402 -0.34861395 0.87963712 -0.57440674 0.0245254 0.8182025 6.4420659e-05
-0.059222549 -0.32034269 0.82455778 -0.55809498 0.48687011 0.67192817 0
0.06590949 -0.20111614 0.7965281 -0.076551564 0.99429297 0.074305497 0.0016091996
0.057576891 -0.2613014 0.89328671 -0.27036008 -0.0066753291 0.96273613 0
0.017821422 -0.41471511 0.8674252 -0.46994236 -0.0077777104 0.88266289 0
0.085928246 -0.38517141 0.91337579 -0.48774523 -0.17262438 0.85574841 0
0.1047199 -0.29822472 0.91088021 -0.3541671 0.047080256 0.93399632 0.00036283207
0.017916461 -0.2038338 0.85957086 -0.15709904 0.97443992 0.16058277 0.0028345245
0.0090490878 -0.33539417 0.62919354 -0.4374387 0.28900671 -0.85154122 0.040914759
-0.076847643 -0.31803009 0.7716791 -0.88447309 0.031417366 -0.46553221 0.0037166895
-0.068457618 -0.48162073 0.75782347 -0.92303157 0.17667802 -0.34175673 0.0017639223
-0.078199767 -0.39318904 0.78411895 -0.95980799 0.099461704 -0.26244241 0.0097070839
-0.017742554 -0.33135754 0.67327052 -0.83108163 -0.0078638829 -0.55609488 0.00044864186
0.001894098 -0.3932341 0.63918161 -0.10491134 -0.8538729 0.50979871 0
-0.011735 -0.23060188 0.66006136 -0.91804576 0.028144954 -0.39547428 0.0042527621
0.017523987 -0.19665644 0.73766893 -0.048629925 0.99064302 0.12752071 7.5353157e-05
-0.058478791 -0.37406504 0.74674559 -0.9159385 0.026755799 -0.40042579 0.0035977312
-0.066005558 -0.44782782 0.76059628 -0.94725138 0.043361835 -0.31754464 0.002111082
-0.057802405 -0.46449655 0.73474509 -0.89182132 0.018769789 -0.45199829 0.0089549264
-0.060767047 -0.40087631 0.74049193 -0.90312415 0.039004829 -0.42760435 0.0022840549
-0.058047175 -0.31608453 0.73681998 -0.84315944 0.050916456 -0.53524739 0.0030454898
-0.049982797 -0.30116192 0.72748268 -0.81109619 0.030353604 -0.58412468 0.0028983206
-0.060979988 -0.2856777 0.75150549 -0.87013614 0.085992329 -0.48525089 0.0024726333
-0.013380776 -0.24441363 0.67173934 -0.9564684 0.049206488 -0.28765753 0.00093021948
-0.01582168 -0.28476062 0.66996312 -0.88359302 0.017399173 -0.46793225 0.0052850978
-0.0062380303 -0.20052424 0.65662783 0.59792078 -0.26806557 -0.75540161 0.017477483
0.044624764 -0.1957254 0.74082249 -0.0076866555 0.99573529 0.091935486 0.0037168965
-0.010697637 -0.22422561 0.66569364 -0.66888756 0.34723306 0.65728122 0.024691636
0.0011644008 -0.30981553 0.64410812 -0.86749798 0.00024454543 -0.49744061 0.0089940205
0.080797911 -0.20069693 0.66314834 -0.079888999 0.99363124 -0.07946559 0.00079289946
0.055881079 -0.20052084 0.85757244 -0.065232702 0.99387741 0.089175701 0.003766818
-0.012007902 -0.21205868 0.85368371 -0.54324061 0.52690756 0.65364981 0.036229648
-0.042165328 -0.41402143 0.83269715 -0.55838501 -0.17587531 0.81072444 0.011206364
0.062487241 -0.1928678 0.72657979 -0.026326992 0.99674666 -0.076177567 0.0055401269
0.076396875 -0.20543794 0.90983272 0.58989906 -0.68537021 0.42695051 0.00039771068
0.095974103 -0.20051794 0.82433593 -0.057787053 0.99816364 0.018165343 0.0035723338
0.14710714 -0.19205748 0.84838146 -0.3857179 0.92257327 -0.0089647714 0.0083850259
0.11524029 -0.26570889 0.91215265 -0.2328935 0.41799757 0.87808806 0.042881586
0.1308357 -0.2413595 0.88384873 0.77384609 -0.62371266 -0.11020284 5.8645783e-06
0.1722571 -0.4949654 0.82821929 0.98463005 0.087125771 0.15137005 6.2317908e-06
0.1588064 -0.44281119 0.85437721 0.93999982 -0.13665688 0.3126103 0
0.21744795 -0.19704208 0.73741746 0.16061342 0.90474081 0.39452162 0.048670046
0.1882043 -0.37224349 0.79153168 0.67448455 -0.28508711 0.68102556 0.048993371
0.023672631 -0.20653023 0.86995745 -0.13193801 0.98111349 0.14145197 0.004388344
0.19753367 -0.32897565 0.72318667 0.75273544 -0.05223725 -0.6562475 0.060013674
0.19942859 -0.47992864 0.71074712 0.52592295 -0.57071739 -0.630624 0.063629851
-0.094021432 -0.21182895 0.79920417 0.2945883 0.94609797 0.13459696 0.15943766
0.19689606 -0.44015869 0.78369588 0.77522963 -0.07336694 0.62740445 0.00014070325
0.191479 -0.37227419 0.78810507 0.67448455 -0.28508711 0.68102556 0.048993371
0.1972587 -0.47291797 0.7804479 0.72019696 -0.28399372 0.63298023 0.0092485985
0.21496715 -0.32023406 0.73391926 0.61678869 -0.07424438 -0.78361946 0.071625136
0.21453112 -0.48063219 0.75036514 0.6885339 -0.70958316 0.14970924 0.063705795
0.2105761 -0.32423916 0.73422152 0.74630803 -0.01791025 -0.66535968 0.057506319
0.14141138 -0.19379489 0.84308672 -0.18779244 0.98125851 0.043196071 0.014240663
0.16414031 -0.19475164 0.7760272 0.28588358 0.95626813 -0.061821125 0.026868725
0.13077734 -0.19673559 0.68402183 0.14567718 0.95675552 -0.25178757 0.0051860465
0.06184651 -0.19838017 0.70870799 -0.020052781 0.99489951 -0.098857388 0.0023444272
-0.032586917 -0.20264508 0.79943734 -0.18376522 0.97777939 0.10088605 0.019298404
0.090719432 -0.2000272 0.82025582 0.0071907914 0.99895519 0.045131478 0.0019218884
0.21775167 -0.26448444 0.7390942 -0.22676246 0.84290892 -0.48793787 0.005311714
0.19813274 -0.21968007 0.76714569 0.60895067 0.18925326 0.77030015 0.012406578
0.22416106 -0.46434638 0.73205417 0.93452871 -0.15705886 -0.31935656 0.071911328
0.062493555 -0.19956353 0.85270834 -0.063748382 0.99778074 0.019228185 0.0028388193
0.2101106 -0.26407921 0.75206047 0.50064343 0.54650068 -0.67133689 0.056269124
0.010693254 -0.20213385 0.77591282 0.0053708027 0.99365354 0.11235618 0.00044114012
0.22150102 -0.43599698 0.72731668 0.66356814 0.15428708 -0.73203343 0.018209083
0.21601738 -0.32894096 0.7424261 0.44206461 -0.76663035 -0.4656789 0.02356228
0.2089247 -0.38282183 0.75140202 0.927944 -0.096997827 0.35987678 0.052207634
0.2016841 -0.25210139 0.76882392 0.85163748 0.38300878 -0.35779577 0.069640212
0.033704016 -0.20241773 0.86375344 -0.13193801 0.98111349 0.14145197 0.004388344
0.2001069 -0.19737987 0.71313429 0.0022653975 0.98210025 -0.1883453 0.0091454284
0.22022624 -0.44817713 0.71313226 0.75573313 -0.23673728 -0.61059219 0.076153435
0.21003629 -0.190827 0.72554332 0.80719453 -0.13628489 -0.57433742 8.4423293e-05
0.22466752 -0.47683847 0.71918064 0.91808808 -0.30877694 -0.24853809 0.070106409
0.17583376 -0.34319529 0.70114505 0.59237605 0.19088334 -0.78272229 0.032995909
0.208685 -0.42589095 0.71235824 0.67457986 0.12900367 -0.72684258 0.015595342
0.1767742 -0.2818059 0.70404661 0.72410744 0.24433351 -0.64495695 0.001130575
0.20045955 -0.32386351 0.71501559 0.74036533 -0.0053929565 -0.6721831 0.037536688
0.14234287 -0.35605586 0.67501146 0.50999326 0.29584455 -0.80770218 1.3837441e-05
0.17445651 -0.47073191 0.69376409 0.51466572 -0.15860736 -0.84259295 0
0.10036235 -0.19953464 0.66433549 0.024169622 0.99285978 -0.11681346 0.0090723494
0.18596479 -0.3877461 0.70192242 0.78276956 0.2067415 -0.58696657 0.0019990786
0.17978369 -0.34438404 0.70269006 0.65847844 0.15620361 -0.73621088 0.03928481
0.030868834 -0.43334967 0.61399555 0.78976226 -0.61340773 -0.0025503843 0.010479872
-0.0060389708 -0.19976342 0.657561 0.59792078 -0.26806557 -0.75540161 0.017477483
0.013757737 -0.46142739 0.62158793 0.13612147 -0.01670558 -0.99055135 0.022127541
0.1353009 -0.19765328 0.79059994 -0.036987316 0.99915767 -0.017773256 0.0072598238
-0.054631017 -0.42907497 0.73322165 -0.91369599 -0.0051420191 -0.4063659 0.0071490584
0.011953669 -0.33842441 0.62821054 -0.4374387 0.28900671 -0.85154122 0.040914759
-0.058398809 -0.44654027 0.7401343 -0.90468878 0.0049750013 -0.4260439 0.0079089934
-0.039078481 -0.25458068 0.71997863 -0.83902496 0.062998131 -0.54043353 0.0020930409
-0.03805773 -0.48670769 0.70645761 -0.82894194 0.051217191 -0.55698484 0.00050819153
-0.01398202 -0.37490377 0.66661346 -0.94436419 -0.049662866 -0.3251307 0.0074031251
0.0077910135 -0.30027106 0.63623154 -0.74531698 0.041208271 -0.66543555 0.032769125
-0.014019809 -0.29020238 0.6658594 -0.88359302 0.017399173 -0.46793225 0.0052850978
-0.013031593 -0.24784437 0.6665554 -0.88866687 0.032713801 -0.45738488 0.0028050353
-0.037349392 -0.45783448 0.70755464 -0.847794 0.025956661 -0.52968991 0.0009372512
-0.015959021 -0.44727269 0.66933608 -0.869169 -0.02655747 -0.49380153 2.2715788e-06
0.0071711536 -0.25867817 0.62689203 -0.64512998 0.13763933 -0.75157338 0.033146646
-0.078140177 -0.2631281 0.78316712 -0.98139697 0.031771611 -0.18934266 0.042928789
0.030868871 -0.20133275 0.85936803 -0.13193801 0.98111349 0.14145197 0.004388344
-0.054781418 -0.35140082 0.73284441 -0.94454086 -0.045752145 -0.32519114 0.0012607829
-0.076818384 -0.41135132 0.80235618 -0.63621873 -0.73527223 0.23366745 0.067923129
-0.086507566 -0.51391518 0.78139067 -0.89828372 0.21210994 -0.38483217 0.00031677246
-0.085648187 -0.51653135 0.77843469 -0.89828372 0.21210994 -0.38483217 0.00031677246
-0.067024566 -0.45387772 0.7723816 -0.93198311 0.12558551 -0.3400524 0.0028471991
0.028160378 -0.19869098 0.68178618 -0.089995354 0.99322295 -0.073545136 0.036134876
-0.087554783 -0.21209481 0.81200594 -0.055815484 0.98289192 0.17552267 0.18074946
0.055499841 -0.19353043 0.72346467 -0.024858322 0.99711597 -0.071706519 0.0033634999
-0.048372611 -0.39286825 0.83071613 -0.55838501 -0.17587531 0.81072444 0.011206364
0.13698384 -0.19637828 0.83938491 -0.13883483 0.99031401 -0.0017467461 0.0075487779
0.076050811 -0.19858347 0.81619626 -0.018053856 0.9996317 0.020265037 0.002107783
0.14189944 -0.19428764 0.83977401 -0.17997116 0.98364472 -0.0073177521 0.010104329
0.14985162 -0.19125307 0.81763327 -0.27856857 0.95834893 -0.062984593 0.0039004721
0.095042661 -0.20034239 0.8214314 -0.03248078 0.9988237 0.036001768 0.0027432917
0.11052816 -0.19306402 0.88322484 0.59886307 -0.64654982 0.4725849 0.00011827064
-0.047713518 -0.20289932 0.74169135 -0.93376464 -0.079020858 -0.34905472 0.019831631
-0.050291922 -0.20271628 0.76560175 -0.46103087 0.88407028 0.076618329 0.01907308
0.093643218 -0.20010847 0.89290047 -0.31166115 0.93660647 0.16011123 0.0051781391
0.19615529 -0.47131303 0.7817564 0.72019696 -0.28399372 0.63298023 0.0092485985
0.21610484 -0.48177207 0.74820381 0.6885339 -0.70958316 0.14970924 0.063705795
0.1841615 -0.37036991 0.78368068 0.67448455 -0.28508711 0.68102556 0.048993371
0.17000321 -0.33628163 0.81008309 -0.36055434 -0.61840278 0.69826829 0.0084902328
0.20299216 -0.34148851 0.74658322 0.73846537 -0.2574192 -0.62322086 0.048178323
0.17052491 -0.45235676 0.81495774 0.87742519 0.037567127 0.47824025 0.0054638139
0.17524166 -0.42263854 0.81375438 0.88077348 -0.067406207 0.4687157 0.012812106
-0.093678907 -0.20650651 0.80355775 0.2945883 0.94609797 0.13459696 0.15943766
0.10840111 -0.43618488 0.64541721 0.67782652 -0.13800175 -0.72215426 0.0020051342
0.04517388 -0.23598941 0.62464392 -0.22466612 0.34833318 -0.91004896 0.0018000547
0.088640749 -0.47368979 0.63189638 0.51248926 -0.2068588 -0.83340514 0.016061049
0.092432857 -0.26320171 0.64857262 0.94233185 -0.2143473 -0.25703296 0
0.043965742 -0.29221532 0.61904711 -0.17669244 -0.36578947 -0.91377127 0.01825959
0.051017527 -0.41158873 0.6200462 0.71544182 -0.675331 0.17908424 0.000437635
0.1415415 -0.2046555 0.68466002 0.30718949 0.86175501 -0.40374857 0.0039175977
0.076220267 -0.31172964 0.63390911 0.51570326 0.32046333 -0.79457748 0.0004878504
0.050687298 -0.20508429 0.63839978 -0.13692828 0.86314887 -0.4860293 0.029861476
0.014687331 -0.20141412 0.83679396 -0.18399718 0.96387243 0.19260041 0.0017849973
0.029378282 -0.27487484 0.61683279 -0.39276308 -0.050403994 -0.9182573 0.035813514
0.1021314 -0.3249127 0.64343131 0.46495122 0.31658971 -0.82679582 0
0.11891581 -0.45101544 0.65508521 0.67782652 -0.13800175 -0.72215426 0.0020051342
0.1845862 -0.4457314 0.69524151 0.5613578 -0.063777015 -0.82511204 0.016087532
0.20264974 -0.39232761 0.72164136 0.82990676 0.36610803 -0.42097458 0.0023511755
0.026943656 -0.49259287 0.61860818 0.15506685 -0.030674454 -0.98742759 0.013582534
0.019634716 -0.44684163 0.61359179 -0.014565146 0.0065490892 -0.99987245 0.015733847
0.028421424 -0.34599 0.60700279 -0.30169839 -0.93323356 0.19507208 0.044832621
