# .PCD v0.7 - Point Cloud Data file format
VERSION 0.7
FIELDS x y z normal_x normal_y normal_z curvature
SIZE 4 4 4 4 4 4 4
TYPE F F F F F F F
COUNT 1 1 1 1 1 1 1
WIDTH 585
HEIGHT 1
VIEWPOINT 0 0 0 1 0 0 0
POINTS 585
DATA ascii
-0.17611371 -0.060934838 0.94168013 -0.11599746 0.033070039 0.99269879 0.049501799
-0.19332458 -0.12987787 0.95956051 -0.3557564 0.70877594 0.60915852 0.043406434
-0.10065313 -0.21506459 1.1486537 -0.79938728 0.15244891 0.58115345 0.0010939612
-0.15866916 -0.27433762 1.0838717 -0.79620439 0.20544408 0.5690794 0.00085058261
-0.13346682 -0.22811769 1.1041877 -0.80153197 0.1340176 0.58273983 0.00050303416
-0.011781414 0.007262338 1.182519 -0.22719058 0.63313103 0.7399525 0.065456748
0.25816217 -0.11270305 0.99025118 0.61099917 0.17036311 0.77308249 0.028973436
-0.050330114 0.0038061743 1.1607027 -0.60917181 0.32917765 0.72149265 0.061776306
0.018367574 0.0092875967 1.167559 0.32945621 0.71570843 0.61580849 0.081440963
0.015719054 0.031319026 0.94941062 -0.058011722 0.9978295 0.031159902 0.00025681331
0.16709904 0.02009128 1.0373104 0.23432919 0.74301279 0.6269145 0.07202518
-0.014050507 0.02112099 1.1551646 -0.19038102 0.90751678 0.37439066 0.03941923
0.048219066 0.022488631 1.1270761 0.14218424 0.97863978 -0.14848451 0.081369862
0.046351768 0.019754101 1.1285721 0.11542158 0.97575802 -0.18594144 0.099785656
0.24605189 0.018955866 0.95889789 0.71890122 0.67788041 0.15381552 0.11410426
-0.010100936 -0.00061370403 1.1857406 -0.25010896 0.52006871 0.81668478 0.076977454
-0.030812655 -0.16362868 1.2172719 -0.46851164 0.11637665 0.87575871 0.034434404
-0.051483713 0.0035629668 1.1583004 -0.61668354 0.32178947 0.71843785 0.069756947
-0.0067260703 -0.0063742311 1.1851306 -0.17748313 0.43127444 0.88459152 0.0982012
-0.010019206 0.017670261 1.1729537 -0.19790658 0.78919381 0.58138293 0.049730863
-0.021694601 0.025707358 1.0563608 -0.036961753 0.99921453 0.014286575 0.027834542
0.039204631 0.016811291 1.1420304 0.15415865 0.96503127 -0.21201372 0.098100699
-0.020811519 0.027169263 1.0826694 -0.034452256 0.99869484 0.037703045 0.0041134981
0.20690438 0.026060496 0.96734804 0.15224871 0.94156981 0.30044401 0.084907942
-0.0061342418 0.026355179 1.0731177 -0.0019537685 0.99961436 0.027700761 0.0034323889
-0.064368889 0.025957717 1.0347599 -0.067078769 0.99374038 0.089333959 0.0022027984
0.16590579 0.029979538 0.9502998 0.012460052 0.99947649 -0.029859208 0.0025461279
0.037382416 0.032233965 0.95254385 -0.047377408 0.99866647 0.020511327 0.00089915877
-0.022639155 0.028126912 0.97170275 -0.031493112 0.99926442 0.021879809 0.0004103063
-0.12480678 0.0035796864 1.0660369 -0.36115018 0.90284783 0.233316 0.0029684303
0.21279348 0.016850144 1.0057149 0.40726039 0.85831821 0.31213608 0.07163161
-0.14800449 -0.13782759 1.0559009 -0.46562603 0.77423537 0.42866313 0.06330961
-0.08383017 0.026788719 0.84981549 -0.092218734 0.99139625 -0.092892736 0.0014626241
-0.041472446 -0.1044807 1.1358752 -0.89225626 0.44199514 0.092299126 0.027484283
-0.034390483 -0.063224152 1.1271975 -0.99659246 0.069251508 -0.04480654 0.071087897
0.13726708 0.027218398 0.98116046 0.017285351 0.99615145 0.085927017 0.0026123906
-0.11001407 0.026498292 0.87779987 -0.024271505 0.99850488 -0.0489792 0.0016074609
0.2129983 0.016482884 1.006688 0.40726039 0.85831821 0.31213608 0.07163161
-0.088129856 -0.12044343 0.97952169 -0.19821225 0.91422594 0.35341585 0.011795466
0.17896867 0.022579188 1.0254437 0.19388989 0.90026367 0.38978481 0.050375499
0.22051267 0.024829149 0.97387928 0.32231319 0.90058458 0.29165328 0.086604886
0.20283672 0.012926636 1.0203625 0.53101969 0.70045805 0.47684032 0.058644921
-0.045178536 -0.1172126 1.0257168 -0.62118506 0.78366005 -0.002461527 0.022744596
-0.11157972 0.028848315 0.98503602 -0.087948009 0.99517053 0.043599498 0.0033508581
-0.024085112 -0.060824487 1.1963339 0.61679858 0.15375385 0.77195805 0.11616997
-0.0038725559 0.020805819 1.1683958 -0.14650296 0.85115296 0.50405908 0.057445407
-0.081946604 -0.1643582 1.1535276 -0.73617572 0.35267696 0.5776369 0.010887453
0.070227712 -0.18181993 1.1674137 0.60895985 0.25292501 0.75179571 0.0073678335
-0.082372673 -0.14008787 1.1300603 -0.55857986 0.74548692 0.36364523 0.039390359
-0.11927776 -0.13289231 1.0412862 -0.19550434 0.97225839 0.12841994 0.021395687
-0.18240313 -0.12903856 0.96754098 -0.33952826 0.77554423 0.53221405 0.045430098
-0.20472646 0.017935652 0.91852897 -0.57083452 0.81846279 0.065319046 0.077258661
-0.21106477 0.017318105 0.91762519 -0.65608007 0.75267768 0.055093575 0.088224731
-0.19292557 0.021751035 0.88245571 -0.54915375 0.57477993 -0.60667795 0.075252436
-0.20834711 0.020158291 0.90578878 -0.60768801 0.7761842 -0.16808707 0.096308857
-0.095887877 -0.30573758 0.73109937 -0.57030547 0.28427401 -0.770675 0.00098609552
-0.22072333 0.011876447 0.91320831 -0.80770022 0.58834118 0.038406957 0.10827355
-0.21729636 0.013733948 0.90978366 -0.74917299 0.65905011 -0.066278167 0.11049533
-0.17634113 0.022615651 0.89228368 -0.18966521 0.93197674 -0.30894414 0.056394663
-0.073334306 -0.13671234 0.76697183 -0.21594253 0.92644316 -0.30833742 0.024929771
-0.056940768 -0.14285819 0.74547487 -0.43027303 0.7490961 -0.50370634 0.026000369
-0.02454327 -0.070773862 1.1728084 -0.92570031 0.1574887 0.34391293 0.20836459
-0.054738384 -0.13029686 1.1537459 -0.71999741 0.63045615 0.29004964 0.022795808
0.093401544 0.028956739 0.8159622 0.04784761 0.99875897 0.013823128 0.00086363009
0.18254483 0.022148775 0.91017652 0.12286236 0.9234584 -0.36349601 0.094531596
0.13437983 -0.14864533 0.74743342 0.7185905 0.37597236 -0.58504057 0.0074800965
0.24167798 -0.18255298 0.86966932 0.73542547 0.25570184 -0.62750781 0.0033095824
0.10478412 -0.17693534 0.69678783 0.72069728 0.28025374 -0.63407671 0.0038790375
0.11599811 -0.16564852 0.71601743 0.70871186 0.36881119 -0.60141987 0.0064107673
0.15391169 -0.2207381 0.74585921 0.80167949 0.12408728 -0.58473277 0.00030127325
0.1109273 -0.13167438 0.73555672 0.68061405 0.54164988 -0.49333537 0.032742381
0.15808675 -0.18299688 0.76116651 0.78506148 0.20545679 -0.584351 0.0016136329
0.20977734 -0.077264234 0.93774241 0.98207891 -0.097941317 -0.16102336 0.16772978
0.20559683 -0.20466104 0.82084924 0.77087742 0.14880569 -0.61935836 0.0012180625
0.26870346 -0.17250705 0.90685356 0.76806343 0.25980774 -0.58530211 0.0041608037
0.21139994 -0.045168873 0.94030297 0.7425276 -0.57297301 -0.34692168 0.17602518
0.20697793 -0.058287967 0.93290699 0.93635303 -0.20432545 -0.28547174 0.20336372
0.23703441 -0.14434311 0.88468719 0.62852263 0.53334743 -0.56612706 0.024407269
0.26374921 -0.17483628 0.89959419 0.74448347 0.26635277 -0.61220968 0.0027774223
0.19910815 -0.057221897 0.92331403 0.50758654 -0.11502292 -0.85388851 0.14330843
0.19643058 -0.25574437 0.79985428 0.81566221 0.088620618 -0.57170045 0.00078674994
0.21447065 0.014634845 0.89668959 0.7326405 -0.12206585 -0.66958028 0.11489201
0.15403286 -0.25516745 0.74096072 0.79730749 0.091314472 -0.59662592 0.00015676046
0.21048273 -0.15626566 0.84733564 0.68794215 0.46731594 -0.55529398 0.021509271
0.13856497 -0.16206382 0.74493062 0.74627036 0.32643893 -0.58010191 0.0047733253
0.078327969 -0.25563413 0.65343368 0.56109679 0.15563972 -0.81298625 0.014696532
0.12806337 -0.27821374 0.70537913 0.77482176 0.033431288 -0.63129514 0.00070623175
0.22145694 -0.21203808 0.83730215 0.74892998 0.17756516 -0.63841558 0.0005675875
0.17168947 -0.26137507 0.76307428 0.80805725 0.092815965 -0.58174628 0.00014504242
0.19087496 -0.26444796 0.79007965 0.81713426 0.092625871 -0.56895703 0.0006175118
0.10685003 -0.26789621 0.68120396 0.74929899 0.058670014 -0.65962791 0.0017089141
0.16550475 -0.0020567733 0.88631999 0.2575739 0.39183566 0.88324434 0.079201214
0.18141407 -0.029296342 0.90681034 -0.12333351 0.6211226 0.77394807 0.087468609
0.11612823 -0.22282425 0.69684184 0.74874228 0.12931983 -0.65012401 0.00068041426
0.1703065 -0.18648253 0.77782631 0.79838771 0.1661738 -0.57876009 0.00075885002
0.13565877 -0.15954536 0.7418139 0.74237919 0.33628729 -0.57946867 0.0043593524
0.18696439 -0.23225552 0.79051328 0.80618435 0.10881232 -0.58157259 0.00051834207
0.29998922 -0.20986016 0.96105826 0.98398727 0.15084091 0.094953276 0.025011349
0.2656343 -0.17488679 0.90258276 0.74954629 0.2611129 -0.60827667 0.0031720235
0.28517887 -0.16682585 0.93316686 0.92437744 0.16130754 -0.34569663 0.014367985
0.12450682 -0.22936782 0.70520949 0.7661497 0.10919904 -0.63331681 0.00054688135
0.17657003 -0.26492688 0.76931739 0.81098849 0.09071216 -0.5779869 0.00026842768
0.17414033 -0.26259694 0.76639491 0.80843526 0.092665151 -0.58124483 0.0001607555
0.12579419 -0.24494378 0.70461529 0.77424926 0.07023111 -0.62897182 0.00052352372
0.084687993 -0.27390832 0.65771085 0.62562883 0.14047001 -0.76737005 0.015344526
0.093232058 -0.26995206 0.66560048 0.66713923 0.1216483 -0.73493326 0.0091989245
0.17304882 -0.23613226 0.76967597 0.80833554 0.11364523 -0.57764918 0.00013051479
0.16482192 -0.23085201 0.75961441 0.80732048 0.11483573 -0.57883197 0.00011683753
0.082976013 -0.30299783 0.64314264 0.58217078 0.21225221 -0.78487331 0.029871987
0.16673252 -0.26808196 0.75565684 0.80576044 0.092647344 -0.58495003 0.00017133678
0.11765417 -0.2433183 0.69514614 0.7558834 0.086381219 -0.64898264 0.00092479825
0.13612416 -0.10279816 0.92726892 0.22034602 0.96620899 -0.13374577 0.011824965
0.20504163 -0.063088261 0.94165641 0.84894937 -0.43278423 -0.30328643 0.19694029
0.22000374 0.0098840082 0.90719533 0.75608283 -0.13862735 -0.63962585 0.14484434
0.19760346 0.0079514822 0.89325267 0.3505851 -0.45380637 -0.81923729 0.1439497
0.20382668 -0.059371419 0.94150198 0.89873827 -0.33777359 -0.27960438 0.20488115
0.21374951 -0.034694098 0.94243962 0.5985381 -0.71447146 -0.36232954 0.16741008
0.20311972 0.0060845502 0.88952649 0.35087803 -0.46516651 -0.81271446 0.10595953
0.17753929 -0.11307256 0.93255168 0.32791984 -0.83006465 0.45106679 0.10193126
0.22517279 0.0030189871 0.91304636 0.72153509 -0.29373854 -0.62698066 0.080075368
0.17208877 -0.030900436 0.93358397 0.40775231 0.81351292 0.4146502 0.12947366
0.20372412 -0.081191495 0.95788485 0.81488216 -0.51116562 -0.2732704 0.1875336
0.20976874 -0.20557411 0.82633954 0.76669145 0.15377495 -0.62332779 0.0012909172
0.28745663 -0.15491377 0.94663393 0.97040689 0.1417328 -0.19550534 0.023157585
0.26018429 -0.20552939 0.8875342 0.77465874 0.16220953 -0.61122167 0.00060020044
0.057415295 -0.22673824 0.64664525 0.13636145 0.17429146 -0.97520667 0.042084903
0.054785501 -0.19232444 0.65304548 0.076896124 0.22472566 -0.97138321 0.03963656
-0.0063574105 -0.2764889 0.66847014 -0.56187773 0.22155069 -0.79699975 0.0025914561
-0.060181294 0.0002871982 0.76290673 -0.38392118 0.69964838 -0.60257494 0.033019997
-0.11930414 -0.078218557 0.89657259 -0.03078017 0.45051125 -0.89223993 0.048834994
-0.097892165 -0.28077745 0.74301064 -0.59860808 0.24156301 -0.76375109 0.0014708909
-0.063333631 -0.2212199 0.72577256 -0.63027215 0.089694805 -0.77117568 0.0086535625
-0.07872466 -0.22334784 0.73895973 -0.62962914 0.094259344 -0.77115643 0.0072296215
0.0314827 -0.1352295 0.6689983 -0.45560306 0.24924088 -0.85457879 0.016044131
0.0072769057 0.011437305 0.72539258 -0.37071174 0.42755541 -0.82448119 0.12479069
-0.14303707 -0.28686604 0.77744949 -0.58196026 0.22928278 -0.7802254 0.00042917143
-0.10161842 0.016000425 0.80135632 -0.17164163 0.88437796 -0.43406779 0.011917464
-0.11349746 -0.14012878 0.78741592 -0.2622928 0.87321627 -0.41072595 0.044906575
-0.042467706 -0.14373063 0.72942871 -0.44119281 0.70384836 -0.55672824 0.02700204
0.12288412 -0.13786155 0.74134874 0.69129598 0.44900757 -0.56612903 0.014787364
-0.055371407 -0.063256763 0.89520389 -0.28491464 0.06497702 -0.956348 0.014927479
-0.048158519 -0.13765582 0.74817455 -0.3705695 0.81609124 -0.44347858 0.023374397
-0.098241784 0.0094785811 0.79176468 -0.19010454 0.81759703 -0.54350281 0.012940867
0.036404826 -0.11621597 0.67485976 -0.47955614 0.33917138 -0.80931371 0.069037676
-0.045865905 -0.13906771 0.74241769 -0.38619605 0.79096228 -0.47458547 0.022366188
-0.072674423 0.003892944 0.77393818 -0.1809261 0.81222874 -0.55457211 0.016615344
-0.059361342 -0.13005504 0.82832927 -0.16177601 0.9789961 -0.12407762 0.0032054964
-0.099291235 -0.094949588 0.89170098 0.022513477 0.52946925 -0.84803039 0.021349451
-0.028426586 -0.13150564 0.75385588 -0.34169215 0.88065577 -0.32816431 0.016039006
-0.0081298416 -0.14253326 0.7095843 -0.4764092 0.6737296 -0.56490952 0.022004299
0.045241993 -0.065619297 0.6839487 -0.10928847 0.2512905 -0.96172196 0.078462183
0.033394091 -0.056403995 0.68987542 -0.30059195 0.22636227 -0.92650121 0.10943562
-0.098677061 0.017592 0.80414724 -0.14917463 0.89918751 -0.41134989 0.012535584
-0.11102781 -0.12886271 0.85471171 -0.19239435 0.8856076 -0.42270985 0.023470661
0.032339916 -0.099708639 0.68458432 -0.55782008 0.26141214 -0.78771859 0.11401181
-0.040307023 -0.12917446 0.79940265 -0.22689086 0.96755326 -0.11118087 0.0092337532
-0.0027692504 -0.11884702 0.75520039 -0.67802924 0.69070923 -0.25139013 0.031998355
-0.0053446782 -0.27049261 0.66909081 -0.57519263 0.21291478 -0.78982329 0.0023932152
-0.091461226 -0.13316531 0.79985863 -0.15139438 0.97886151 -0.13751327 0.0058277408
0.053870518 -0.10312431 0.67550009 0.13855559 0.21014418 -0.96780258 0.053197227
-0.13558964 -0.14274119 0.79863143 -0.35077235 0.83813494 -0.41771847 0.086718895
0.029102676 -0.056289643 0.69786429 -0.74290204 0.076024137 -0.66506904 0.12073261
-0.1157313 0.015319786 0.81424814 -0.18915218 0.93077135 -0.31286773 0.013193329
0.02598539 -0.026037894 0.69942087 -0.64014786 0.094450004 -0.76242363 0.042395148
-0.060407929 0.00098256744 0.76473892 -0.3587549 0.72158408 -0.59212434 0.031900879
-0.057873603 -0.13286281 0.77580422 -0.18829125 0.95397085 -0.23342235 0.017797766
-0.063137695 -0.13631603 0.76328766 -0.26758549 0.90769356 -0.32324973 0.026672557
-0.016336426 -0.13380153 0.73163837 -0.44017932 0.76925701 -0.46312612 0.025639873
-0.039838813 -0.14642254 0.7251507 -0.46055993 0.67173594 -0.5802201 0.02845085
-0.030415174 -0.14481567 0.72272158 -0.419651 0.72824627 -0.54180288 0.02485971
-0.12091786 -0.13088199 0.85214657 -0.12693861 0.93880749 -0.32019863 0.016352983
-0.062580697 -0.22259612 0.72502273 -0.63148469 0.093044117 -0.76978558 0.0078936089
-0.091540128 -0.22611555 0.74929649 -0.62292606 0.068153746 -0.77930623 0.015547728
-0.020829549 -0.14629984 0.71433109 -0.44103554 0.70416349 -0.55645436 0.025203854
0.022792201 -0.052127935 0.70798516 -0.86237383 -0.19720347 -0.4662855 0.11645154
0.050803166 -0.22017659 0.64812976 -0.078449197 0.18802579 -0.97902602 0.04579182
-0.13115779 -0.25564104 0.7767998 -0.59729379 0.15493165 -0.78691572 0.0013033274
-0.075629592 -0.22827376 0.73599333 -0.63123131 0.095984638 -0.7696324 0.0070022941
-0.045780879 -0.25941178 0.7055524 -0.63763022 0.16543716 -0.75236839 0.00051341829
1.9957111e-05 0.0010174096 0.72240931 -0.49700364 0.12466549 -0.85874665 0.096674658
-0.17387792 -0.20129468 0.81275785 -0.57286012 0.11191233 -0.81197721 0.00069791189
-0.16498898 -0.1034596 0.88297135 0.0016015794 0.54196042 -0.84040248 0.043311458
-0.1964802 -0.24033035 0.82432407 -0.57536077 0.096316233 -0.81220883 0.00029318468
-0.18385161 -0.22476541 0.81672972 -0.56559879 0.088841356 -0.8198812 0.00014492354
0.035935249 -0.1151187 0.67532116 -0.48886734 0.34565884 -0.80095482 0.072649337
-0.19075139 -0.23452257 0.820557 -0.57027912 0.091578737 -0.81633013 1.9117981e-05
-0.10774077 -0.14090581 0.78159636 -0.26078323 0.85257745 -0.45288387 0.039856151
-0.13035071 -0.14026646 0.80654514 -0.28540403 0.91368407 -0.28935441 0.065033019
-0.088974416 -0.13218282 0.81385475 -0.13152295 0.9823072 -0.13331999 0.0028626421
-0.11297099 -0.082599752 0.8963905 -0.0033356918 0.42219725 -0.9064979 0.034876693
-0.12559608 -0.076543398 0.90244538 -0.029838035 0.72595441 -0.68709522 0.069143616
-0.18578224 -0.031532764 0.88326955 -0.47186655 -0.20013542 -0.85865462 0.035711959
0.0069008884 -0.16772938 0.67836219 -0.62242246 0.22943766 -0.7482971 0.01105782
-0.089554749 -0.12525423 0.85498726 -0.1366055 0.91575086 -0.37780845 0.016822893
-0.079440236 0.015496534 0.79196113 -0.15578423 0.84009475 -0.51958841 0.014587211
-0.13590218 -0.21251474 0.78522545 -0.5871048 0.082745425 -0.80527079 0.00040399411
-0.17896166 -0.25115675 0.81218624 -0.56677556 0.106438 -0.81696784 0.00054657867
-0.0077163014 -0.10079028 0.83979982 -0.80581868 0.54708236 -0.22662094 0.026356412
0.013796974 -0.090853773 0.7469995 -0.81752288 0.43167529 -0.38119909 0.095185675
-0.18338068 -0.24595325 0.81523967 -0.56844634 0.098270118 -0.81683028 0.00038275254
0.011816898 -0.11174741 0.73194855 -0.76212382 0.58604163 -0.27517724 0.030689863
0.0063545182 -0.21050954 0.67266077 -0.55129808 0.10601348 -0.82754552 0.0013583166
-0.07065659 -0.21870121 0.7330454 -0.63110089 0.10036247 -0.76918077 0.008086537
-0.18672749 -0.22496417 0.8186639 -0.56633759 0.087926209 -0.81946981 6.8521818e-05
-0.19898553 -0.24348195 0.82584172 -0.57762527 0.097350374 -0.81047636 0.00038737562
-0.0087489057 -0.1213956 0.76267946 -0.58516532 0.77751875 -0.23031735 0.031421639
0.032209419 -0.20954089 0.65616095 -0.31539598 0.14223637 -0.93823993 0.017150179
-0.22395934 -0.25062615 0.84411883 -0.61317897 0.12153431 -0.78053898 0.00061613345
-0.099750564 0.020761304 0.81768662 -0.17648442 0.93658417 -0.30275968 0.011954083
-0.092454255 -0.074231572 0.89850622 -0.050764471 0.24092975 -0.96921396 0.010874549
-0.1497355 -0.25518456 0.79077858 -0.57829303 0.15922557 -0.80014032 0.0011388529
-0.13510549 -0.24171492 0.78165334 -0.59645003 0.11162444 -0.79485053 0.00069486938
0.0077443412 -0.054231454 0.78698242 -0.95265549 0.14957237 -0.26471785 0.13130523
-0.17870495 -0.03575512 0.88197201 -0.395982 -0.25759569 -0.88138682 0.051808953
-0.021544317 -0.14391422 0.71792269 -0.42679343 0.72983015 -0.5340367 0.024080994
-0.16187696 0.007897283 0.84222168 -0.42436838 0.78413975 -0.45280942 0.023105111
-0.020130042 0.0094910879 0.73027092 -0.57383186 0.084521562 -0.81459993 0.091813304
0.0068926001 -0.021937348 0.72544873 -0.78009236 -0.21059909 -0.58915514 0.037482485
0.012615537 -0.050090488 0.74464893 0.910604 0.36376867 0.19614445 0.13229658
0.023755061 -0.052723024 0.70441413 -0.84573859 -0.10739454 -0.52267838 0.11175314
-0.01584929 0.01354468 0.74394798 -0.44110039 0.59148651 -0.6749624 0.11788633
-0.1902397 0.014495115 0.87599128 -0.62947744 0.3487936 -0.6943351 0.081284702
-0.19546859 0.015429552 0.8806408 -0.61070585 0.36749482 -0.70141715 0.066784911
-0.17030978 0.010081244 0.85676277 -0.60924512 0.51081091 -0.60654157 0.14145944
-0.16618945 -0.10239623 0.88329035 0.0044925772 0.5398463 -0.84175164 0.044261735
-0.13728854 -0.25293291 0.7817058 -0.59022015 0.14985967 -0.79321009 0.0010871777
-0.1227544 0.012013229 0.81270444 -0.23308633 0.92123014 -0.31145766 0.011538846
0.0003672181 -0.13788658 0.71504664 -0.48574147 0.70999426 -0.50986606 0.024262995
0.024242342 -0.14888021 0.66864139 -0.50882465 0.20817956 -0.83531952 0.02011355
-0.037221909 -0.15989454 0.71469843 -0.55668497 0.49870348 -0.66437691 0.028787201
-0.015814112 -0.11896714 0.82228023 -0.65467566 0.75084668 -0.087343894 0.03530195
-0.14123209 -0.23797809 0.78643698 -0.58949292 0.09743771 -0.80187523 0.00049602037
-0.11747999 -0.23700847 0.7688719 -0.61630929 0.10525949 -0.78043795 0.00039701851
-0.052440207 -0.2251617 0.71593833 -0.64198095 0.10534508 -0.75944912 0.00018489035
0.00045067177 -0.086262755 0.81529564 -0.92366695 0.37238488 -0.090381876 0.03897905
-0.1033575 -0.23748286 0.7575686 -0.62441307 0.078533791 -0.77713621 0.011913548
-0.05488177 0.00034529163 0.75842249 -0.48379737 0.61078638 -0.62680149 0.033392031
0.032445129 -0.092854664 0.68534386 -0.52488577 0.23376344 -0.81844342 0.11726695
-0.20278829 -0.008761432 0.88274318 -0.65192825 0.1353665 -0.74610019 0.050192561
-0.043042999 0.0077345693 0.7527858 -0.48976836 0.62543476 -0.60741949 0.027128113
0.0022790867 -0.08482071 0.79897916 -0.94017738 0.32374823 -0.10608259 0.040851362
-0.081455462 -0.26935735 0.73345917 -0.61748701 0.1939335 -0.76229888 0.0014382466
0.014978815 -0.032630898 0.72236818 -0.89268416 -0.2934114 -0.34208891 0.037803359
0.031145966 -0.1017241 0.68517673 -0.60888672 0.2590231 -0.74977601 0.10588724
0.024213526 -0.20896308 0.66032749 -0.37099215 0.14407572 -0.91739142 0.01173002
0.010352246 -0.028052999 0.7336393 -0.86249065 -0.33758825 -0.37701985 0.039150897
-0.17955068 -0.078630477 0.88971573 0.12628667 0.067585163 -0.98968881 0.14200518
-0.12517369 -0.14149821 0.79076225 -0.30010891 0.79809964 -0.52246684 0.074509278
-0.15649232 -0.1692054 0.80539364 -0.57968545 0.1493189 -0.8010422 0.0060162162
-0.07532344 0.002471209 0.773431 -0.19982238 0.79509217 -0.57262516 0.015758127
-0.17882735 0.0067855162 0.86664778 -0.6851247 0.24012789 -0.68770838 0.12352405
-0.12032479 -0.14018717 0.79054749 -0.25557387 0.84457338 -0.47050825 0.062844224
-0.1413523 -0.23952921 0.78650057 -0.58879662 0.10774817 -0.80106729 0.00069403829
-0.024630787 -0.14814378 0.7132737 -0.46120855 0.6702916 -0.58137411 0.025902994
-0.065277621 -0.24410991 0.72558647 -0.6336152 0.13324463 -0.7620877 0.00027206985
-0.17305654 -0.2544508 0.80774933 -0.56710756 0.12403487 -0.81425077 0.00084668503
-0.056606427 -0.13788733 0.75316244 -0.34001315 0.84807795 -0.40639237 0.027531371
-0.17306282 -0.23705061 0.80904567 -0.56635731 0.092166923 -0.81899005 5.4452204e-05
-0.17282495 -0.079286084 0.89626586 0.18322569 0.94891751 -0.25687337 0.21322089
-0.054667301 -0.14114307 0.74481249 -0.41868621 0.76600522 -0.48778874 0.024872402
0.004828468 -0.073948011 0.79405308 -0.9553768 0.1041865 -0.27640599 0.053486645
-0.002207082 -0.033666454 0.8355419 -0.97396624 0.025334414 -0.22527292 0.0010721642
-0.16140385 -0.25280759 0.79978681 -0.56918079 0.13735628 -0.8106581 0.00096947962
0.012064934 -0.055512868 0.77888674 -0.68176502 -0.43644768 -0.58712 0.17918812
-0.17375849 -0.086988829 0.89434141 -0.0048814984 0.89189458 -0.45221692 0.16130252
-0.1227907 -0.23589139 0.77348351 -0.60992122 0.1061218 -0.78532434 0.00034968957
-0.11569435 -0.11920533 0.86808264 -0.070874058 0.74723804 -0.66076636 0.019890774
-0.1438863 -0.25561854 0.78618556 -0.58388418 0.16318637 -0.79526699 0.0010907745
-0.048647702 -0.14891054 0.73011577 -0.49427989 0.63320792 -0.59559643 0.028783662
-0.096743308 -0.25189224 0.74983436 -0.62871176 0.14662184 -0.76369077 0.0005129425
-0.12067461 -0.25543457 0.76906061 -0.60970992 0.15147477 -0.77801615 0.0011175094
0.00068464241 -0.11781634 0.7422927 -0.66331035 0.67593133 -0.32114804 0.04018857
-0.18656482 -0.25495067 0.81701577 -0.56954902 0.11444286 -0.81395137 0.00073582132
0.019471705 -0.089861028 0.74271405 -0.78402591 0.45064452 -0.42687559 0.11554538
0.0099339234 0.0038965344 0.7169348 -0.41792768 0.2933017 -0.85983163 0.079714239
-0.15909277 -0.24083531 0.79922438 -0.56923658 0.096542142 -0.816486 0.00019551054
-0.016687796 -0.1176106 0.82274908 -0.64925665 0.75591499 -0.084014975 0.035741147
-0.1007901 -0.25512493 0.75268453 -0.62776762 0.14740135 -0.76431704 0.00040647259
-0.16642575 -0.12724437 0.86664879 -0.10687505 0.64758581 -0.75446028 0.018206084
-0.18022645 -0.25679189 0.81244528 -0.56805938 0.12636366 -0.81322855 0.00088587491
-0.02797338 -0.061343718 0.88116622 -0.62079883 -0.012511371 -0.78387004 0.02643018
-0.18717323 -0.23778072 0.81809616 -0.56786609 0.092047811 -0.817958 8.9946021e-05
-0.18259765 -0.24875091 0.81457591 -0.56697351 0.098139487 -0.81786895 0.00045343235
-0.024747152 -0.25439027 0.68884742 -0.6280089 0.17228258 -0.75889629 0.00056113064
0.013572657 -0.048520666 0.74141127 0.91651291 0.34435934 0.20352098 0.11853927
0.062710188 -0.26926902 0.64216089 0.13389334 0.084507041 -0.98738605 0.038911011
-0.061465036 -0.23576584 0.72324944 -0.64014858 0.11325592 -0.75985712 0.00031066267
-0.18989508 -0.25436041 0.81893998 -0.56699461 0.10625473 -0.81683958 0.00039755506
0.022500958 -0.16373934 0.66758955 -0.41148725 0.14115193 -0.900419 0.017108491
0.035192452 -0.082587145 0.68484586 -0.4734239 0.25725234 -0.84243166 0.12731741
0.0075090961 -0.050101776 0.792647 -0.92926407 0.20862766 -0.30486512 0.10818762
0.02776435 -0.21824715 0.65726399 -0.3454625 0.14043422 -0.92786521 0.015720746
-0.0040144511 -0.035547644 0.83974969 -0.94185615 0.081645526 -0.32594633 0.011711359
0.00038675021 -0.090273723 0.79713303 -0.9288739 0.35985854 -0.087722436 0.039900906
-0.057549998 -0.1880593 0.72616529 -0.67007172 0.18160316 -0.71973902 0.0029902596
0.054788213 -0.17141923 0.65886337 0.040049024 0.25357404 -0.96648657 0.047372196
0.01333962 -0.15990122 0.67583346 -0.57656509 0.23775592 -0.78169352 0.019906456
0.032146256 -0.15846758 0.6626426 -0.36543784 0.14505757 -0.91946369 0.01443453
-0.018178126 -0.15306622 0.70442039 -0.51565397 0.54940838 -0.65745819 0.018282896
0.028136861 -0.17322846 0.66285789 -0.370868 0.13514335 -0.91879982 0.014802479
-0.088192001 -0.23614374 0.7452966 -0.63063616 0.10824633 -0.76849246 0.0055249678
0.028063787 -0.096977025 0.69399893 -0.75726974 0.18937244 -0.62504447 0.11136602
0.02924793 -0.028998865 0.69699645 -0.60059631 0.12570658 -0.78960872 0.053516105
0.029128913 -0.16359888 0.66404659 -0.37461403 0.13353495 -0.91751438 0.014870699
-0.19398284 0.022854885 0.88488203 -0.5429948 0.58484787 -0.60258579 0.071748495
-0.17835025 -0.082453184 0.89968085 0.16420306 0.94992089 -0.26587161 0.19221681
-0.1345264 -0.14183192 0.80543506 -0.30231827 0.90484941 -0.29975191 0.070270456
-0.16078769 -0.16845602 0.80777538 -0.61117768 0.18540409 -0.769472 0.012861723
-0.19338228 -0.079499453 0.8917858 -0.19550233 0.12722318 -0.97241616 0.13462569
-0.15391566 -0.23926418 0.79597843 -0.57233471 0.095533915 -0.81443614 0.00022069503
-0.22657412 -0.012176205 0.91795176 -0.9494186 0.24788155 0.19276686 0.082381614
-0.16652422 -0.25488055 0.80317646 -0.56543118 0.14051016 -0.81273884 0.0009399355
-0.19384596 -0.25169596 0.82168907 -0.56955427 0.10519121 -0.81519496 0.00049385341
-0.20352496 -0.0089991102 0.88565409 -0.66666329 0.14148466 -0.73180747 0.052450921
-0.18418749 -0.024139134 0.88921553 -0.54448956 -0.096774548 -0.83316612 0.062314134
-0.011855138 -0.1341808 0.72373831 -0.48509037 0.7404542 -0.46520415 0.027068054
-0.27299708 -0.234892 0.90004051 -0.98340404 0.11290596 -0.14201646 0.036995728
-0.26418784 -0.17574534 0.89727068 -0.90614873 0.19235304 -0.37668914 0.042976517
-0.26910806 -0.18481207 0.90501428 -0.96051276 0.14547466 -0.23717594 0.040249959
-0.22743189 -0.0089591816 0.90693176 -0.95107549 0.26469347 -0.15935083 0.10974154
-0.22419639 0.0090987282 0.9017536 -0.81121641 0.47247449 -0.34452236 0.099376939
-0.22464663 0.0029574567 0.91023934 -0.90707862 0.420403 -0.021670185 0.11338122
-0.23637542 -0.048051402 0.91273266 -0.90521628 0.217251 0.36521992 0.072636984
-0.031212719 -0.051162329 1.1090919 -0.80351979 0.54192203 -0.24632581 0.20100081
-0.10474058 -0.27290255 1.1527097 -0.77443033 0.089506313 0.62629575 0.0028002872
-0.24008575 -0.063947365 0.91325766 -0.88564253 0.18324579 0.42668298 0.082042724
-0.1612159 -0.3055169 1.0928757 -0.79625577 0.25438535 0.54887587 0.0011833443
-0.030414242 -0.05948453 1.1206812 -0.92803001 0.34725326 -0.13481592 0.17797442
-0.15526502 -0.23525165 1.0775222 -0.78737515 0.1309754 0.60240018 0.00020129934
-0.17523514 -0.2704061 1.0588275 -0.79986823 0.17123863 0.57522881 0.00027464144
-0.12556474 -0.24310689 1.1185817 -0.80494469 0.13875732 0.57689726 0.00056873297
-0.093729645 -0.21545528 1.1576718 -0.78680396 0.14643887 0.59957916 0.0010698608
-0.032967854 -0.030776801 1.154128 -0.85004145 -0.26158994 0.45716542 0.051774573
-0.19040069 0.012251429 0.96559769 -0.4965831 0.80831707 0.31627321 0.041762915
-0.20444734 -0.16159005 0.9958185 -0.72316551 0.50236768 0.47398132 0.025285926
-0.033338383 -0.052412927 1.1131682 0.90928864 -0.31239671 0.27495906 0.15829338
-0.10763928 -0.27429107 1.1492285 -0.7782678 0.093044817 0.62100077 0.0031809928
-0.21928148 -0.033808526 0.93417561 -0.81459755 0.1529469 0.55949801 0.077308513
-0.23771796 -0.061792694 0.91608 -0.8846705 0.17732827 0.43117598 0.084094226
-0.23419422 -0.20775121 0.97433972 -0.79678637 0.16820709 0.58037734 0.0020189718
-0.055484805 -0.22779955 1.2036985 -0.63379675 0.081752948 0.76916713 0.0082960222
-0.032098368 -0.06786941 1.1224544 -0.98493427 0.16029088 -0.064894661 0.10473025
-0.17611042 -0.21928801 1.0470563 -0.77812678 0.10459705 0.61933684 0.00088928256
-0.1803371 -0.23431695 1.0443567 -0.78198808 0.10734987 0.61397934 0.000473486
-0.18661173 -0.25477043 1.039268 -0.79038954 0.12241989 0.60024798 0.001251667
-0.13970654 -0.22774968 1.0955173 -0.79056227 0.13958956 0.59626013 0.00029959029
-0.031206781 -0.075765952 1.1222606 -0.98544866 0.16973461 -0.0090070479 0.0669939
-0.053344104 -0.1233502 1.0885401 -0.60092092 0.7985146 0.035614628 0.040865228
-0.09882886 0.010107705 1.0903354 -0.32886216 0.91550708 0.23172481 0.0051028053
-0.037939563 -0.098225296 1.1409866 -0.88863528 0.42705807 0.1671792 0.045233957
-0.11611795 -0.17257789 1.1149319 -0.77816427 0.35080695 0.52095574 0.0090305498
-0.17386036 -0.20660982 1.0484895 -0.76855522 0.12502669 0.6274482 0.0011574039
-0.13145022 -0.24138805 1.1092925 -0.79815787 0.15109181 0.58319414 0.00067465712
-0.081768781 -0.199251 1.1690263 -0.7753104 0.17828225 0.60589546 0.0015263073
-0.17253649 0.0034943807 0.99847835 -0.5178706 0.75315601 0.40566739 0.01601219
-0.13565868 -0.18562254 1.0896448 -0.78508878 0.19061832 0.58932197 0.002504711
-0.18340236 -0.2798084 1.0506496 -0.79993552 0.17506674 0.57398152 0.00042944658
-0.22787316 -0.011984318 0.91394317 -0.96700525 0.24456516 0.07133548 0.095604517
-0.25911406 -0.19168954 0.88574702 -0.84087229 0.14958946 -0.52015072 0.030359253
-0.030301057 -0.087164707 1.0595139 -0.89762253 0.4374367 -0.054065201 0.010507995
-0.0071590026 -0.15744631 1.2184547 0.33110589 0.16752979 0.92860246 0.030622615
-0.1112531 -0.12874185 1.0014488 -0.097900636 0.98645347 0.13162422 0.0021614889
-0.19845171 -0.26258695 1.0251375 -0.78464758 0.12960105 0.60624391 0.0014655387
-0.25684407 -0.22365825 0.94580185 -0.86409688 0.13642026 0.48448542 0.0058584311
-0.025749635 -0.078527644 1.0269171 -0.90949231 0.4140107 0.037667941 0.016390249
-0.0203868 -0.057519779 1.0199869 -0.90640205 0.39769566 0.14238538 0.03572911
-0.066981278 -0.20344952 1.1881607 -0.73092657 0.12596823 0.67072964 0.0031339256
-0.19534601 -0.25628883 1.0283312 -0.78813034 0.12238507 0.60321838 0.0013521437
-0.11165892 0.010474717 1.0714709 -0.32481456 0.92150152 0.21290946 0.0036041108
-0.12055527 -0.14343548 0.78661424 -0.26828524 0.78466266 -0.55886263 0.061367813
-0.026404148 -0.066735819 1.0710671 -0.89528066 0.42466867 -0.13464443 0.055845868
-0.12229028 -0.13174807 1.0262859 -0.16799513 0.97898895 0.11557806 0.01319316
-0.17213629 -0.26605397 1.0620607 -0.79939902 0.16385719 0.57802427 0.00046358892
-0.23638466 -0.041231811 0.90174556 -0.9567675 0.24526414 0.15633772 0.077582985
-0.23167418 -0.056048971 0.92497617 -0.86789072 0.16714624 0.46779031 0.069749914
-0.022981111 -0.067192383 1.0248516 -0.92367095 0.372857 0.088372394 0.023966696
-0.19560839 0.0046266015 0.96228087 -0.77535909 0.51545358 0.36486417 0.058654342
-0.19555244 -0.27292415 1.0312843 -0.78783417 0.15439518 0.59622109 0.00141041
-0.081787184 -0.12858398 1.0194368 -0.17461203 0.98117119 0.082545586 0.004699436
-0.09730541 -0.27453834 1.1634279 -0.77016664 0.076715074 0.63321263 0.0035715671
-0.25290972 -0.12362226 0.91432977 -0.95541102 0.29326245 -0.034451075 0.097576879
-0.035233032 -0.094294541 1.0618496 -0.88125521 0.47141242 -0.034052566 0.01375891
-0.20074426 -0.23489724 1.0197101 -0.77074915 0.088214226 0.63100243 0.00082709454
-0.090272665 0.0092990212 1.1056017 -0.34621921 0.90124261 0.26056463 0.0085591013
-0.022430379 -0.066600993 1.0489963 -0.93090051 0.35831222 -0.070969217 0.029371606
-0.1790875 -0.20507042 1.0413029 -0.76944894 0.11586921 0.62811035 0.00096502958
-0.2290242 -0.1989398 0.97966164 -0.78586316 0.21138552 0.58114994 0.0040718834
-0.1609858 -0.20823871 1.0636119 -0.77152365 0.14786768 0.61877817 0.0013094571
-0.037196551 -0.10789794 1.0026902 -0.76509917 0.64271224 -0.039297301 0.051560655
-0.20452251 -0.011249569 0.95137012 -0.83660418 0.13859725 0.52998513 0.032449499
-0.20967388 0.004799678 0.9428131 -0.81611854 0.35682321 0.45456335 0.032068055
-0.23802054 -0.075571038 0.92179894 -0.89765286 0.16127977 0.41013187 0.070288047
-0.17686827 -0.13991289 1.0103894 -0.48098251 0.81833726 0.31461078 0.019434603
-0.24389535 -0.08095701 0.90660983 -0.9656443 0.16068335 0.20423481 0.086301103
-0.078674205 -0.15823306 1.1548501 -0.7304548 0.39788455 0.55508888 0.013500066
-0.10981185 -0.21827446 1.1374487 -0.80666828 0.1411252 0.57390761 0.00029794776
-0.1491632 -0.18047777 1.0692067 -0.76875907 0.32600248 0.55021077 0.0051403232
-0.14603481 -0.1824834 1.0756429 -0.77714002 0.26747391 0.56965882 0.0041842866
-0.03014224 -0.065229416 1.1021165 -0.89514935 0.43525031 -0.096254259 0.10770394
-0.12119617 -0.23854408 1.1245152 -0.8075304 0.13430494 0.57433176 0.00056225574
-0.23318397 -0.047976982 0.92058325 -0.881235 0.21555661 0.42066637 0.063760333
-0.2711584 -0.21819727 0.90198088 -0.98356622 0.095281295 -0.15335894 0.03907093
-0.22106305 -0.04772377 0.93138772 -0.76430923 0.15078145 0.62697393 0.084374286
-0.16886604 -0.12464835 0.96513003 -0.22080316 0.79509693 0.56485999 0.047755312
-0.066277817 0.0048526274 1.1245252 -0.46551794 0.73624837 0.49115321 0.081993811
-0.16500045 -0.29716381 1.0835373 -0.79602617 0.23955657 0.55583715 0.00084355794
-0.06769976 -0.20472638 1.1877248 -0.73176217 0.12553649 0.66989899 0.0027555185
-0.028893573 -0.068595879 1.0837113 0.92671096 -0.33367631 0.17282043 0.068527512
-0.14215624 -0.25058731 1.0973601 -0.7923131 0.16539495 0.58726859 0.00062503264
-0.21907793 -0.21359004 0.99563962 -0.76663792 0.13735834 0.62721515 0.0021219486
-0.16980371 -0.27209872 1.0655551 -0.79895115 0.18296833 0.57288712 0.00025372411
-0.10302217 -0.14264773 1.1146896 -0.61335891 0.58032298 0.53573877 0.029446183
-0.097847678 0.012532506 1.0858932 -0.30772832 0.92779523 0.21094839 0.0051186322
-0.041741174 -0.017550882 1.1343728 -0.74381685 -0.39859834 0.53652191 0.081969917
-0.26432014 -0.24567179 0.94036829 -0.9082523 0.10377039 0.40535101 0.009620605
-0.27359831 -0.23818217 0.90366602 -0.98865581 0.13306744 -0.069661617 0.037325677
-0.2622261 -0.23590545 0.94145179 -0.89513594 0.13192725 0.42582491 0.0079204394
-0.045765132 -0.10831726 0.98347574 -0.47856924 0.59784979 0.64307624 0.092445664
-0.2397379 -0.070886336 0.91596931 -0.90799099 0.16946973 0.38318714 0.082202785
-0.17474772 -0.051585674 0.94229287 -0.10069261 0.034604948 0.99431562 0.017381579
-0.22878931 -0.072065353 0.93207276 -0.82821107 0.13808869 0.54313713 0.080383196
-0.037388377 -0.23618688 1.2187481 -0.33827308 0.049890686 0.93972456 0.024098931
-0.038770996 -0.17719166 1.2093452 -0.50372642 0.089024328 0.85926384 0.027159814
-0.15861294 -0.2350547 1.0730501 -0.78754371 0.12600525 0.6032393 0.00015185661
-0.14521192 -0.27079299 1.1004612 -0.79296505 0.21182774 0.57125771 0.0011727001
-0.1846126 -0.2707178 1.0451865 -0.79536754 0.15344664 0.58638257 0.0010850312
-0.21799701 -0.046148509 0.89867347 -0.79485023 0.081471592 -0.60131139 0.16606
-0.18625918 -0.00094462303 0.98415875 -0.61695778 0.64749986 0.44733322 0.019470308
-0.034116395 -0.096677646 1.002784 -0.88116789 0.44555825 0.15818021 0.042543828
-0.22786126 -0.063149072 0.93227297 -0.83944243 0.1760456 0.51414436 0.082342163
-0.19335675 0.013383633 0.96084362 -0.6316399 0.70834321 0.31508872 0.059533726
-0.037871439 -0.070438921 0.99138415 -0.84607846 0.1012474 0.52335477 0.033104822
-0.21072648 -0.029245064 0.94340855 -0.76891834 0.030480636 0.63862008 0.054335307
-0.23339124 -0.20732585 0.97484159 -0.79441875 0.17712411 0.58096987 0.0025733635
-0.27891907 -0.27181551 0.89653194 -0.97542709 0.12770663 -0.17953534 0.044302616
-0.033889376 -0.24086739 1.220171 -0.26489902 0.031064399 0.96377563 0.021156622
-0.039623342 -0.099265657 1.1306622 -0.90746045 0.409024 0.095994383 0.024797397
-0.16249754 -0.31138289 1.0935678 -0.80105639 0.25219673 0.54286796 0.0013179556
-0.22539394 -0.10507806 0.93461704 -0.70022869 0.0097230393 0.71385241 0.069837563
-0.18128812 -0.25498226 1.0460802 -0.79184765 0.12578298 0.5976252 0.0010834974
-0.019426631 -0.024773255 1.0706328 -0.54593241 0.80426055 -0.23478244 0.13420819
-0.016177569 -0.049242273 1.0674241 -0.48719239 0.8636449 -0.12946478 0.083748758
-0.071060836 -0.19823967 1.1814826 -0.75699127 0.16951764 0.63105309 0.0024746368
-0.23968273 -0.080542155 0.91949493 -0.92664558 0.15622188 0.34193966 0.080607153
-0.20518465 -0.2161822 1.0107073 -0.76568216 0.1080256 0.63408297 0.0011734882
-0.20322095 -0.27672848 1.0221083 -0.78228676 0.16094054 0.60176861 0.0013223289
-0.24078745 -0.071144864 0.90538883 -0.94832212 0.1559962 0.27631566 0.094904654
-0.17903045 -0.051467951 0.94102198 -0.13117522 0.0077645481 0.99132884 0.028781088
-0.12175188 -0.16905189 1.1043417 -0.77528006 0.37163082 0.5107165 0.0086712008
-0.1562985 -0.30019438 1.0970155 -0.7929517 0.2537941 0.55390984 0.0012763385
-0.022935705 -0.10719278 1.2113686 0.42154434 0.26459998 0.86734492 0.079274498
-0.19518465 0.0051617739 0.96210814 -0.77535909 0.51545358 0.36486417 0.058654342
-0.010597048 -0.012441851 1.1879097 -0.26929733 0.30158305 0.91461825 0.089949459
-0.18300785 -0.27861434 1.0507805 -0.79918581 0.17392783 0.57537037 0.00045675458
-0.17121197 0.0025118766 1.0011002 -0.51465058 0.75651532 0.40350875 0.012707973
-0.018754631 -0.057530057 1.0266507 -0.88000083 0.45555094 0.13443191 0.036850441
-0.20530714 0.0062266812 0.94894278 -0.79356307 0.40326676 0.45566833 0.03521762
-0.18166587 -0.12970401 0.96866852 -0.35233974 0.77771622 0.52059013 0.043630827
-0.26928034 -0.26190591 0.93498534 -0.9262588 0.075375959 0.36927393 0.011141784
-0.093527637 -0.12906973 1.0197669 -0.13342918 0.98684752 0.091261394 0.002321871
-0.21853855 -0.018432362 0.93544608 -0.87348175 0.19627339 0.44554064 0.034187961
-0.10100153 -0.17000031 1.1334252 -0.76662487 0.31671774 0.55854815 0.011037893
-0.18256003 0.0077335704 0.98331809 -0.51917505 0.75535589 0.39986849 0.018450426
-0.19356218 -0.12303531 0.95357049 -0.31803548 0.64730603 0.69271088 0.039051212
-0.052281093 -0.062655568 0.96865243 -0.62159818 0.21846817 0.75225478 0.050138511
-0.10012932 0.0065374989 1.0948762 -0.34014952 0.90433556 0.25782853 0.0075087901
-0.026942687 -0.095724091 1.206248 0.41389567 0.31188524 0.85522974 0.064593904
-0.18993321 -0.30608484 1.0526371 -0.79657871 0.21736833 0.56410408 0.00037328136
-0.16864227 -0.073446266 0.94009632 -0.21843021 -0.12284657 -0.96808934 0.20371303
-0.16582152 -0.30023798 0.78895122 -0.58151406 0.234146 -0.77911299 0.00043801995
-0.047728714 0.012798215 1.147507 -0.50076973 0.62362742 0.60026538 0.091108337
-0.04238138 -0.1326836 0.75944573 -0.30358529 0.90914726 -0.28510895 0.018066073
-0.21829283 0.015561488 0.91511613 -0.74329782 0.66776377 0.039999068 0.1026814
-0.16194919 -0.19506451 1.0599662 -0.76695114 0.18808499 0.61352247 0.0035643547
-0.20760681 -0.24295393 1.0123625 -0.76481605 0.090128347 0.63791311 0.00057572493
-0.17228904 0.0015452291 1.0008626 -0.51465058 0.75651532 0.40350875 0.012707973
-0.23249198 -0.10420944 0.92645687 -0.78454381 -0.039280344 0.618828 0.10712763
-0.24793178 -0.10899017 0.9065066 -0.98023611 0.19621143 -0.025262864 0.095831804
-0.19509713 0.0094089815 0.95996523 -0.70086521 0.63957721 0.31579891 0.07007087
-0.21490607 -0.030296214 0.93553269 -0.80199206 0.11109127 0.58691353 0.07558161
-0.22707112 -0.062179029 0.93289536 -0.82508063 0.17525674 0.5371471 0.083544798
-0.24373548 -0.091116458 0.90174526 -0.98271567 0.17949533 0.045292635 0.10139441
-0.17013577 -0.095768467 0.94806379 -0.26526645 0.35328498 0.89711952 0.033203162
-0.075994812 -0.12680407 1.0222664 -0.20809069 0.9744643 0.084366187 0.0056829518
-0.082487516 0.01446769 1.1063973 -0.33641553 0.90442783 0.26236418 0.0080399076
-0.020934632 -0.022293204 1.0700473 0.94996953 -0.04972389 0.30835909 0.094287686
-0.21580145 -0.19863008 0.8438161 -0.60496783 0.14677085 -0.78260607 0.0010497994
-0.14284161 -0.14798655 1.0535749 -0.5002358 0.714692 0.48885536 0.063954771
-0.099690869 -0.1284208 1.0426836 -0.15356983 0.98544317 0.072926112 0.0041625085
-0.17947292 -0.080279857 0.94103813 -0.14294833 0.23416874 0.96162921 0.096965343
-0.053373192 -0.12409433 1.0603305 -0.62425548 0.76858026 0.13996278 0.025377929
-0.1466392 -0.28266245 1.1024191 -0.79159147 0.22895278 0.56653649 0.0013990833
-0.22459178 -0.22602119 0.98982805 -0.77295035 0.096653953 0.62706125 0.0009343425
-0.19637249 -0.13198966 0.96069586 -0.37785742 0.7028597 0.60267067 0.039767347
-0.071691133 -0.25232732 1.1896913 -0.71386433 0.064359412 0.69732028 0.0023903251
-0.079765894 -0.28243172 1.1791277 -0.73743832 -0.00028481922 0.67541432 0.0032222394
-0.11860125 -0.046911798 0.95059192 -0.13830389 0.3869268 0.91167963 0.084380634
-0.16709894 -0.11958698 0.95892876 -0.23846115 0.69588435 0.6774078 0.057124179
-0.145456 -0.26620021 1.0977387 -0.79366231 0.202599 0.57363212 0.00099525298
-0.20808248 -0.22138014 1.0082304 -0.76669884 0.090330712 0.63562053 0.00084778521
-0.21743268 -0.16658722 0.98200393 -0.77303535 0.39844799 0.49361482 0.018677406
-0.050628822 -0.27030489 1.2112743 -0.57240778 -0.077665523 0.81628263 0.013681855
-0.052692257 -0.15194161 1.1872282 -0.75751394 0.33964068 0.55750948 0.011608388
-0.13114041 -0.28471094 1.1235142 -0.75881904 0.20447086 0.61837304 0.0021986654
-0.27293769 -0.2269499 0.90525413 -0.98924762 0.090392977 -0.11497024 0.036024764
-0.079762094 -0.06964425 0.96940821 -0.3373588 0.37530977 0.86332589 0.066384777
-0.036459055 -0.10199752 1.0653355 -0.88076514 0.47283173 -0.026135277 0.012218333
-0.13837495 -0.058493946 0.93757975 -0.40647614 0.74157816 -0.53370315 0.073716223
-0.039901733 0.005867335 1.1580479 -0.55488318 0.46655667 0.68878841 0.063622095
-0.043358516 0.00057744153 1.153666 -0.58823431 0.38816476 0.70944232 0.076777332
-0.19653887 -0.30679074 1.0418818 -0.78661203 0.21143053 0.58011961 0.00072038418
-0.20038374 -0.21267624 1.0174384 -0.76779979 0.099338733 0.63294178 0.0011876433
-0.22684549 -0.0053997645 0.90833551 -0.94396549 0.30275416 -0.13141203 0.11066125
-0.22862673 -0.04334075 0.9260323 -0.87532932 0.19678263 0.44167334 0.063680165
-0.2373492 -0.30866495 0.84052157 -0.61220002 0.2062517 -0.76332921 0.0010309183
-0.12487397 -0.038356449 0.94978327 -0.22423671 0.6544832 -0.72205931 0.08863125
-0.043780167 0.00013640198 1.1525202 -0.61877894 0.30924225 0.72213697 0.087308399
-0.013467246 -0.015306666 1.1901594 -0.34267002 0.2724286 0.89908838 0.074817859
-0.066433243 -0.19866942 1.1876001 -0.72999203 0.16280803 0.66378093 0.0040691681
-0.039299935 -0.10565724 0.99285215 -0.7910673 0.60393608 0.097333543 0.08428967
-0.18436846 -0.27560723 1.0472336 -0.79866225 0.16718574 0.57808965 0.00058816478
-0.13464206 -0.2384076 1.1044225 -0.79530966 0.15372431 0.58638835 0.0004485457
-0.135738 -0.13361068 1.0360739 -0.23417294 0.96011096 0.15280727 0.019883474
-0.056268543 -0.12984054 1.1492068 -0.70675647 0.65464199 0.26821473 0.025652921
-0.053294737 -0.13307814 1.175095 -0.76016086 0.5382002 0.3639999 0.011071083
-0.273505 -0.25513479 0.89623177 -0.97231007 0.12344228 -0.19843167 0.03572451
-0.27094087 -0.2203095 0.91488761 -0.99393803 0.10994188 4.5304801e-05 0.039229136
-0.26328066 -0.27027479 0.94720089 -0.87835389 0.064568095 0.47362992 0.0069583235
-0.25301194 -0.17957899 0.93675417 -0.87607485 0.191319 0.44259438 0.022021094
-0.18336724 -0.30137733 1.0579677 -0.79893208 0.21592507 0.56132323 0.00017034523
-0.028991854 -0.062312286 1.0836707 -0.9007737 0.3897503 -0.19157641 0.079946272
-0.030784173 -0.070270799 1.1191591 -0.97766691 0.20834631 -0.027552301 0.11136676
-0.15541767 -0.062608801 0.94609159 0.1138522 -0.081808046 0.99012381 0.13754876
-0.13286349 -0.04562794 0.948856 0.03467283 -0.17456806 0.98403448 0.071923934
-0.10248888 -0.235779 1.1493416 -0.79835665 0.11010242 0.59203386 0.00061463576
-0.12689042 -0.12854481 0.98472387 -0.10388169 0.9716199 0.21251681 0.0075605116
-0.057787284 -0.1237995 1.0984507 -0.49233168 0.87032986 0.011640198 0.034173422
-0.091897398 -0.27919891 1.1712867 -0.76019216 0.045029141 0.64813596 0.0048635551
-0.13285811 -0.13526733 1.0485132 -0.32263845 0.92124194 0.21729623 0.048918255
-0.21226792 -0.16904072 0.98918074 -0.75642633 0.36604407 0.54206187 0.015051705
-0.24906461 -0.10866117 0.90651435 -0.98023611 0.19621143 -0.025262864 0.095831804
-0.2318086 -0.12006686 0.9342435 -0.71612602 0.21263948 0.66479164 0.07287246
-0.26967591 -0.21309286 0.92005974 -0.98863763 0.12545159 0.082810141 0.035085574
-0.19259857 -0.14453024 0.99972403 -0.6358031 0.69286746 0.34013093 0.023616383
-0.10370777 -0.29129374 1.1538597 -0.76299846 0.032799583 0.6455676 0.0073515032
-0.22796424 -0.10312078 0.93548787 -0.70459175 -0.0012589406 0.70961177 0.063393615
-0.25976002 -0.19147028 0.93266457 -0.93428242 0.15468459 0.32123044 0.028254189
-0.020528927 -0.12423095 1.2164901 0.36945376 0.28844276 0.88334858 0.069217823
-0.14310168 -0.1197543 0.96593308 -0.22282529 0.75654101 0.61481267 0.035630424
-0.25679055 -0.18783242 0.93636698 -0.89638513 0.17781468 0.4060488 0.021862278
-0.2254812 -0.27949497 0.83962661 -0.60492998 0.16802756 -0.77834851 0.00088772527
-0.17436996 -0.11581065 0.95643842 -0.28624439 0.6355207 0.71706176 0.056252353
-0.26878849 -0.27844831 0.93863142 -0.92009431 0.047616065 0.38879195 0.0099680768
-0.22161958 -0.17846838 0.98235023 -0.78569961 0.27049601 0.55633444 0.0081183286
-0.24618502 -0.24927531 0.9663431 -0.80423766 0.1020176 0.58548617 0.00084520673
-0.0055171885 -0.16071711 1.2190803 0.34531343 0.14754459 0.92681676 0.02601202
-0.25643316 -0.16152135 0.92705804 -0.91003519 0.217952 0.35260856 0.039283141
-0.19132169 -0.22429189 1.0280213 -0.77276665 0.093101211 0.62782472 0.00094007072
-0.25491768 -0.1263299 0.90795863 -0.93684453 0.30770668 -0.16624971 0.10283544
-0.084158003 -0.25225303 1.1750227 -0.76062745 0.086355656 0.64341944 0.0017177605
-0.23281348 -0.23437315 0.85301584 -0.63969773 0.11668389 -0.75971818 0.00071334234
-0.18328002 -0.20444387 1.0364187 -0.77072108 0.10623098 0.62825483 0.0010069102
-0.22784683 -0.15471868 0.95883846 -0.65646714 0.50988591 0.5559383 0.018357933
-0.2393222 -0.27156436 0.97706586 -0.79248673 0.094109923 0.60258448 0.0012260246
-0.26931342 -0.17884892 0.91366678 -0.98854947 0.14172904 -0.051795706 0.034241576
-0.043459352 -0.10665588 0.98768622 -0.59222382 0.60021198 0.53760254 0.10458758
-0.22261287 -0.10834587 0.93526739 -0.68211657 0.053178888 0.72930717 0.071042016
-0.260584 -0.28107458 0.95133728 -0.8433305 0.052516017 0.53482306 0.0055978536
-0.23364548 -0.16566107 0.95862967 -0.75177652 0.33978066 0.56513828 0.0071079484
-0.27158973 -0.27902302 0.93336737 -0.93981653 0.06094981 0.33619916 0.0094481325
-0.24151959 -0.13879205 0.88208497 -0.70086533 0.28899238 -0.65212822 0.025278816
-0.013463832 -0.14818081 1.2171103 0.1909014 0.24258129 0.95116299 0.059066772
-0.27964962 -0.30250776 0.88570976 -0.84836107 0.17876688 -0.49832311 0.030369442
-0.17847285 -0.20604515 1.0426631 -0.77014321 0.11219462 0.62792671 0.0011761393
-0.12383576 -0.29037628 0.76023352 -0.60051912 0.2635209 -0.7549395 0.00088556996
-0.053979054 -0.25634983 1.2083417 -0.59138685 -0.043925941 0.80519074 0.012232516
-0.25662678 -0.18964556 0.93575233 -0.90666753 0.17178917 0.38528231 0.023731666
-0.18827935 -0.19902991 1.0311822 -0.76808852 0.12533218 0.62795848 0.0013544487
-0.23127809 -0.16752476 0.96290314 -0.76181895 0.34812087 0.54630005 0.0085172169
-0.27904654 -0.28367534 0.89688337 -0.96924251 0.13019952 -0.20884705 0.046610236
-0.26391876 -0.27142158 0.94629073 -0.8791309 0.063622601 0.47231454 0.0075632413
-0.19717632 -0.20033556 1.0201564 -0.76317257 0.14487816 0.62974429 0.00099802029
-0.25735062 -0.26370952 0.95390117 -0.82912832 0.080083407 0.55329269 0.0037177773
-0.16081411 -0.0029666603 1.0228972 -0.48630393 0.79850948 0.35481146 0.0045279767
-0.097245142 -0.20541947 1.1506771 -0.79074305 0.17076969 0.5878461 0.0010555168
