# .PCD v0.7 - Point Cloud Data file format
VERSION 0.7
FIELDS x y z normal_x normal_y normal_z curvature
SIZE 4 4 4 4 4 4 4
TYPE F F F F F F F
COUNT 1 1 1 1 1 1 1
WIDTH 592
HEIGHT 1
VIEWPOINT 0 0 0 1 0 0 0
POINTS 592
DATA ascii
0.1218534 -0.23696995 1.0080942 0.85048777 0.45574775 0.26261106 0.0078190332
0.15897503 -0.39941683 1.0320562 0.97848552 0.12255745 0.16596878 0.00012850843
0.1185933 -0.24977294 1.0973173 0.94296163 0.32878199 0.052208651 0.0039624628
0.08415705 -0.3886961 1.3633968 0.38069376 0.40301374 0.83225733 0.040095117
0.069799803 -0.23864473 1.3402363 0.76737005 0.27395523 0.57973409 0.034295164
0.12338511 -0.26868469 1.1169196 0.95540875 0.28490844 0.077596657 0.0014129184
0.11668424 -0.24593507 1.099937 0.94272596 0.32997772 0.048811045 0.0044348775
0.13777865 -0.30904981 1.0789505 0.9753629 0.16162921 0.15014394 0.00017852082
0.13880299 -0.30284911 1.0681055 0.97423983 0.17580849 0.14123806 0.00062857271
0.11400989 -0.24065411 1.1000421 0.94496572 0.32525671 0.035323683 0.0064058709
0.13603824 -0.30539936 1.08935 0.97484714 0.16414386 0.15076414 0.00029503449
0.13154627 -0.30239332 1.1167518 0.9770689 0.1518404 0.14926822 0.00038184063
0.0061722626 -0.24440977 1.1284645 0.77431834 0.51629418 0.3658843 0.037492629
0.10343708 -0.41400242 1.358973 0.63439834 0.31272405 0.70692468 0.052840754
0.043808144 -0.21092053 1.0513756 0.51945865 0.30131751 0.79960644 0.012612513
-0.0088107027 -0.23083973 1.1164201 0.81762934 0.39905649 0.4150134 0.028713638
0.033854194 -0.18445867 1.051209 0.5948382 0.16654955 0.7864024 0.0016579222
0.018838659 -0.21293531 1.0692384 0.61005622 0.31909564 0.72526503 0.0093814628
0.09525691 -0.087817803 1.0540354 0.6253444 0.78027105 -0.011020261 0.015408117
0.028687345 -0.18502219 1.055259 0.60108387 0.16666323 0.78161466 0.0018355144
0.017446512 -0.20610088 1.067855 0.60890508 0.29462209 0.73650008 0.009778711
-0.002791127 -0.19333465 1.085018 0.74994528 0.1726155 0.63858122 0.0086361179
0.1078117 -0.3751933 1.3209894 0.89519411 0.18815373 0.40401205 0.010225241
0.12929775 -0.33101726 1.1530838 0.97966152 0.13025463 0.15263338 6.9003698e-05
0.14784929 -0.36235699 1.0710067 0.97599894 0.13803975 0.16843714 0.00015854086
0.10965589 -0.34101528 1.2934629 0.95401704 0.15279335 0.2578868 0.00082939508
0.077984482 -0.18952683 1.0179987 0.62643582 0.073872767 0.77596462 0.0042419918
0.13330002 -0.31529957 1.1145878 0.97701377 0.14880519 0.1526475 0.00030577762
0.086200982 -0.38103503 1.3608663 0.43831569 0.39383611 0.80794334 0.039176278
0.058646832 -0.22103591 1.3409539 0.74499661 0.25312445 0.61717749 0.088435583
0.06228381 -0.24371785 1.3466312 0.46606144 0.15707502 0.87069756 0.053345796
-0.21422178 -0.23043567 1.2551131 0.25745183 0.69585115 0.67045498 0.048179183
0.059124202 -0.20440018 1.3378017 0.7939347 0.19811843 0.57481891 0.031756409
0.004230978 -0.24176022 1.3264621 -0.19791007 0.57466114 0.79410082 0.0099439034
0.06086215 -0.23217173 1.3441439 0.72346103 0.27499825 0.63322991 0.072879091
0.064990051 -0.24046792 1.3449186 0.70094371 0.22128236 0.67802072 0.049372941
-0.048153874 -0.33252853 1.3493789 -0.19718084 0.15216483 0.96848625 0
-0.029096702 -0.3150939 1.3510365 -0.15518261 0.19832614 0.96777326 0.0011093464
-0.21059045 -0.18705076 1.234804 0.49752316 0.22023745 0.83902687 0.014366102
0.0043893852 -0.31577855 1.355209 -0.10634418 0.15269172 0.98253554 0.00097984402
-0.069532469 -0.10040492 1.3079894 -0.12844656 0.69994998 0.70254642 0.023431398
0.051602446 -0.38851944 1.369692 0.1253846 0.17519693 0.97651666 0.0068586972
-0.087791719 -0.098907992 1.3066788 -0.15968862 0.84965688 0.50257611 0.012721781
-0.0090409499 -0.10615634 1.3106235 -0.15304673 -0.31442797 0.93686271 0.014961494
-0.0310617 -0.38827461 1.3610326 -0.15763687 0.17795825 0.97132981 0.0012802439
-0.23838152 -0.23132627 1.2721109 0.28008619 0.76474422 0.58027399 0.059289552
-0.21451509 -0.24260439 1.2805279 0.042077873 0.80963367 0.5854252 0.044404753
-0.050070565 -0.24295139 1.3240728 -0.043473236 0.43711334 0.89835507 0.012824265
-0.10796459 -0.22747625 1.2238491 -0.37138176 0.85281909 0.3671174 0.045271624
-0.0039732158 -0.36484319 1.3611706 -0.11668921 0.13804103 0.98352844 1.1220785e-05
-0.06371478 -0.089664117 1.3054492 -0.14300291 0.84229022 0.51970881 0.025124159
-0.11081023 -0.21520543 1.193998 -0.06634739 0.53638512 0.84136146 0.074872442
0.0052571953 -0.097654462 1.3174138 0.038678247 -0.19287154 0.98046148 0.028143866
0.018934678 -0.30148539 1.3550727 -0.10044583 0.18098912 0.97834229 0.00047606966
0.084279478 -0.36888486 1.3575265 0.45590672 0.37991089 0.80487067 0.038211185
-0.087899379 -0.35318497 1.3444921 -0.18595254 0.16937125 0.96785074 0.00022958577
-0.035353374 -0.38730839 1.3601289 -0.15962972 0.17627071 0.97131199 0.00065135548
-0.19179848 -0.24691273 1.3010445 -0.084946074 0.83561218 0.54271221 0.025262304
-0.022617547 -0.32441777 1.3541237 -0.13665727 0.14708497 0.9796381 0.00046998559
-0.018509047 -0.38669017 1.3623624 -0.14436051 0.17843035 0.97330499 0.00042835312
-0.074200884 -0.24883468 1.3252668 -0.16437635 0.36861393 0.91493398 0.014698144
0.079060867 -0.29743177 1.3470732 0.63069797 0.17062607 0.75703818 0.041155428
0.053251751 -0.11430275 1.3218061 0.35196811 0.35551888 0.86586648 0.049584039
-0.10222806 -0.09974096 1.3052956 -0.13437878 0.86702925 0.47979435 0.0088564707
-0.11758609 -0.18858632 1.1843464 -0.18532208 0.24075228 0.95272982 0.021761823
-0.011122963 -0.40270945 1.3659716 -0.13869092 0.17523301 0.97470933 0.00082898943
-0.00028326098 -0.36511928 1.3618643 -0.11301854 0.13862611 0.9838748 0.00012705523
-0.13995415 -0.10130344 1.2988347 -0.063243449 0.86215973 0.50267363 0.0049643004
0.0035307703 -0.093280785 1.3185977 0.03318527 -0.26808637 0.96282315 0.018774895
-0.10920743 -0.18033773 1.1877042 -0.37750614 0.14099194 0.91521055 0.017632524
-0.16323406 -0.31561026 1.3285229 -0.11915068 0.15643552 0.98047489 0.0012039974
-0.080020823 -0.28363463 1.3355963 -0.17774171 0.31130102 0.93354142 0.00042101584
-0.15713271 -0.31609744 1.3295017 -0.11970927 0.15618078 0.98044741 0.00086258422
-0.13501506 -0.42607284 1.354411 -0.11892785 0.28703725 0.95050824 0.0015561339
-0.17009127 -0.36688372 1.3337096 -0.10129677 0.14502186 0.98422951 0.00087541179
-0.064120278 -0.25285903 1.3286233 -0.16184963 0.36724097 0.91593599 0.010747276
-0.017117206 -0.31315991 1.3520445 -0.14598081 0.20229124 0.96838415 0.0011680768
-0.20680477 -0.25346589 1.310524 -0.3464168 0.7334801 0.58480966 0.015355795
-0.16531189 -0.32759583 1.3299422 -0.11116344 0.11660422 0.98693776 0.0010614691
-0.11326069 -0.41974407 1.3536928 -0.14999273 0.23009072 0.9615407 0
0.01849168 -0.097348094 1.3182639 0.03761591 -0.084909916 0.99567837 0.046344835
-0.034231823 -0.40315637 1.3631065 -0.16184723 0.18020228 0.97022301 0
0.0014847078 -0.085148871 1.321834 -0.050736267 -0.3032279 0.95156646 0.019438606
0.01596752 -0.094053723 1.3184633 0.037639979 -0.084837288 0.99568361 0.046620637
-0.21307063 -0.18472801 1.2354141 0.51839483 0.18049403 0.83587599 0.014193384
-0.12682009 -0.23072417 1.219622 -0.048206486 0.9094969 0.41290623 0.031296458
0.065036602 -0.25341612 1.3468109 0.4827632 0.13261002 0.86565256 0.032790922
-0.23256832 -0.22302282 1.2594813 0.34101808 0.54420316 0.76651782 0.042051282
0.057066508 -0.40671885 1.3711606 0.14239548 0.20211558 0.96895456 0.0059221718
0.012628732 -0.10139464 1.3171132 0.01976097 -0.10154949 0.99463421 0.040791135
0.087986872 -0.39567804 1.3672278 0.31957379 0.32204384 0.89115667 0.032955442
-0.21189907 -0.39247173 1.334778 -0.085381657 0.24176823 0.96657026 0.0031577018
-0.24344824 -0.21091117 1.2613225 0.40266934 0.36757675 0.83829868 0.023432923
-0.22397524 -0.27142712 1.3122498 -0.16561827 0.51898164 0.83858728 0.026513571
-0.097997807 -0.38504383 1.3482693 -0.1653984 0.19055052 0.96764344 0.00017071114
-0.23773508 -0.27426311 1.3118145 -0.12326181 0.33542255 0.93396908 0.015322617
-0.20991805 -0.24791788 1.2971294 -0.22873417 0.79914159 0.55592573 0.029744949
0.03357571 -0.38577673 1.3691801 -0.070570819 0.1428712 0.98722214 0.0012847823
-0.17959526 -0.32189265 1.3279685 -0.10365515 0.11673979 0.98773855 0
-0.10261023 -0.37923038 1.3463391 -0.16756034 0.18930282 0.96751636 0.001050495
-0.12037431 -0.23737769 1.2393332 -0.050308652 0.97043133 0.23607635 0.0050984672
-0.16990772 -0.38823283 1.3369589 -0.10443096 0.22697532 0.96828532 0.0034442085
-0.2033827 -0.3699747 1.3317682 -0.078433409 0.14921336 0.9856894 0.0011461214
0.0096840579 -0.13568516 1.3082516 -0.40216139 -0.30289942 0.8640129 0.031605713
-0.18318199 -0.30845198 1.3252119 -0.10701399 0.1687564 0.97983128 0.00046068744
0.0013068973 -0.081557922 1.3228914 -0.0704998 -0.27866411 0.95779747 0.016111359
-0.042562228 -0.41206831 1.3631874 -0.1630719 0.18337883 0.9694224 0.00019250583
-0.11579242 -0.21891071 1.1999407 -0.043862432 0.56387544 0.82469422 0.078427263
-0.24781154 -0.14981623 1.2573804 0.46752539 -0.080512553 0.88030553 0.012439632
-0.18664846 -0.40964764 1.3410356 -0.087334789 0.2616213 0.96121114 0.0048660608
-0.0016492126 -0.40836367 1.3678606 -0.12896518 0.16932133 0.97708666 0.00025903262
-0.06753809 -0.18421972 1.2100786 -0.59259152 0.14109255 0.79304987 0.011101019
-0.076567881 -0.40676779 1.3562686 -0.16253316 0.19729772 0.96677637 0
-0.089882299 -0.19303739 1.1960703 -0.47882769 0.26856595 0.83582085 0.026044199
0.043766998 -0.40182224 1.3719459 0.043757461 0.1335396 0.99007696 0.0054215835
-0.0067270105 -0.090919957 1.3172674 -0.11511219 -0.29816163 0.94754887 0.01384638
-0.063389383 -0.24155879 1.3235929 -0.16069403 0.37405562 0.91337824 0.014818833
-0.038847964 -0.17081906 1.2425632 -0.76911557 -0.0026856046 0.63910401 0.0032066489
0.0040017962 -0.074239515 1.1153989 0.0023382597 0.99976683 -0.02146549 0.00023709614
-0.052860688 -0.28166264 1.3398201 -0.1459087 0.28607169 0.94703406 0.0032415413
-0.099327281 -0.20777425 1.1956811 -0.42868787 0.46387866 0.77526981 0.05812224
-0.068937294 -0.23921119 1.3216525 -0.15638384 0.38517001 0.90949887 0.020985452
0.078578264 -0.3045513 1.3487924 0.56183571 0.1661976 0.81038207 0.040803667
-0.19079366 -0.33395016 1.3282915 -0.096753828 0.12475415 0.98745894 0
-0.17533396 -0.33710361 1.3300662 -0.09998592 0.12241031 0.98743021 0
-0.0084921224 -0.31019056 1.3526872 -0.13883543 0.19910815 0.97009307 0.00091002806
-0.08610782 -0.38388768 1.3501661 -0.16906264 0.18750286 0.96760553 0.00092354405
-0.064673424 -0.15942466 1.2086712 -0.68176538 0.11489855 0.72249174 0.0081343707
-0.19470057 -0.41209403 1.3413578 -0.076874137 0.26819277 0.96029317 0.0036323576
-0.23081425 -0.41248563 1.3397435 -0.12066691 0.25042194 0.9605875 0.0017957977
-0.22958827 -0.41229033 1.3387945 -0.11668233 0.25552818 0.95973462 0.0019066988
-0.12041678 -0.20232113 1.1894107 -0.019457277 0.44178554 0.89690959 0.055661928
-0.12567101 -0.18373092 1.183121 -0.14293928 0.23227425 0.96209002 0.012474957
-0.047427163 -0.16067956 1.2292928 -0.75286973 0.09927924 0.65063876 0.0026847736
0.051495004 -0.1168665 1.3224081 0.1579174 0.26742029 0.95055163 0.044978354
-0.045039337 -0.15685093 1.2327513 -0.75882155 0.083989061 0.64586049 0.0022088857
-0.016319035 -0.17237842 1.2711189 -0.75450158 -0.1556661 0.63756996 0.0080588702
-0.20349431 -0.17292462 1.2269504 0.54799044 0.14350292 0.82408345 0.0070147286
-0.13715065 -0.10296269 1.2999597 -0.072142899 0.8642782 0.49781376 0.0046050204
-0.12086853 -0.1732838 1.1834992 -0.16359332 0.18686546 0.9686684 0.0099899359
-0.069920853 -0.24644822 1.3252244 -0.16414736 0.36822787 0.9151305 0.014255734
-0.026564483 -0.39217591 1.362686 -0.15650819 0.179317 0.9712624 0.0016275086
-0.21820129 -0.32947224 1.3250374 -0.11512765 0.14527036 0.9826709 0.0003434871
-0.059389211 -0.28063601 1.3381273 -0.14844668 0.29549819 0.94373953 0.0027063596
-0.085077159 -0.40166187 1.3537437 -0.15955529 0.19395865 0.96794742 0
-0.1875096 -0.41895333 1.344192 -0.081489787 0.27847633 0.95697981 0.0039857021
0.061061066 -0.20704597 1.3363123 0.7975359 0.19821796 0.56977725 0.031656776
0.022192612 -0.083569437 1.3186424 0.07955046 0.13468432 0.98769009 0.039029684
0.0143381 -0.31194627 1.3555534 -0.098890394 0.16683759 0.9810127 1.4957478e-05
0.0099727707 -0.29727662 1.3533629 -0.12197296 0.21744901 0.96842068 0.00071712182
-0.0018813921 -0.31675425 1.3546544 -0.12218622 0.14925553 0.98122036 0.00042952984
0.10135978 -0.41547608 1.3641398 0.46315026 0.29397637 0.83610386 0.04574367
-0.14791685 -0.25912437 1.3127813 0.10096612 0.6895442 0.71717125 0.013665344
-0.085623614 -0.3517895 1.344587 -0.18745108 0.16804239 0.96779329 0.00050554227
0.0015839965 -0.093136728 1.3182944 0.0022976212 -0.27495345 0.96145475 0.01947123
-0.24306507 -0.28969797 1.3150134 -0.12013085 0.23078957 0.96555924 0.0054956586
-0.069077313 -0.15850736 1.2064198 -0.6041702 0.094242193 0.79126281 0.012784891
0.060614988 -0.27503878 1.3516539 0.32917312 0.10599599 0.93830156 0.023002958
-0.06615375 -0.28449419 1.3376633 -0.15985723 0.29024342 0.94350648 0.0026666268
-0.020810146 -0.30823547 1.3508477 -0.14884606 0.20709369 0.96693176 0.0013253239
0.019838847 -0.41159037 1.3732805 -0.096933879 0.14913367 0.98405439 5.4796779e-05
-0.089955002 -0.40664142 1.3544513 -0.15215805 0.21129578 0.96550614 0.0010427434
-0.097100556 -0.3730846 1.3463854 -0.17002413 0.18305229 0.96828902 0.00021982442
-0.2890456 -0.31987444 1.3121179 -0.23482509 0.16402733 0.95809823 0.0010969809
-0.027718645 -0.17336315 1.2568507 -0.78862822 -0.063643634 0.61156762 0.0057274904
-0.01509127 -0.36108097 1.3593367 -0.13474835 0.14071864 0.98083705 0
-0.10935143 -0.20621635 1.190577 -0.18846697 0.41430911 0.89040905 0.059609402
-0.068824776 -0.17171384 1.208617 -0.58290297 0.08189822 0.80840391 0.010618567
-0.2868039 -0.18775791 1.2815893 -0.12489249 -0.0021461844 0.99216795 0.032675438
-0.22732663 -0.23749092 1.2751306 0.17957418 0.84591889 0.50216967 0.049606457
-0.047855999 -0.18545745 1.2308317 -0.74866164 0.094148993 0.65623295 0.0024036157
-0.21953298 -0.26279098 1.3101259 -0.25657722 0.63973612 0.72450393 0.02681273
-0.017368101 -0.17783351 1.2668467 -0.7836284 -0.092945263 0.61423749 0.0073004803
-0.09937641 -0.19392532 1.1907706 -0.40983739 0.235828 0.88114613 0.032257862
-0.065547287 -0.24999924 1.3272939 -0.16518657 0.36829534 0.9149164 0.012294124
0.050006174 -0.10420395 1.3169233 0.37119034 0.4399727 0.81770515 0.052302606
-0.32356447 -0.28641585 1.2939787 -0.62923449 0.15278767 0.76204985 0.014869681
-0.10928109 -0.17466934 1.188598 -0.37199563 0.09817154 0.92302853 0.012313931
-0.057179425 -0.17693542 1.2198737 -0.73006099 0.14231417 0.66839927 0.004398284
-0.11643258 -0.40926117 1.3501997 -0.15575199 0.22102569 0.96275067 0
-0.069892891 -0.38541293 1.3534173 -0.17452227 0.17319295 0.96930188 0
-0.16002516 -0.30617371 1.3282295 -0.13166592 0.17149606 0.97634685 0.0015262144
0.051718835 -0.091533653 1.310263 0.38561663 0.56044275 0.73294175 0.048653577
-0.21047631 -0.34968019 1.3279542 -0.092808187 0.14012699 0.98577422 0.0010588457
-0.071234107 -0.39260069 1.3544757 -0.17080717 0.17839444 0.96902031 0
-0.16527425 -0.4062033 1.3431319 -0.10662688 0.26372418 0.95868671 0.0020024164
-0.2430802 -0.27880093 1.3129604 -0.12365703 0.26289997 0.95686597 0.0090881409
-0.20246868 -0.24554752 1.3007655 -0.20418081 0.80233467 0.56086469 0.028767567
-0.25191948 -0.08959958 1.2689359 -0.18633303 0.46432549 0.86584169 0.086701035
-0.25551352 -0.089728251 1.2677929 -0.24927603 0.47764197 0.84244859 0.081195697
-0.28888956 -0.16066726 1.2756339 -0.22518715 0.18474039 0.9566409 0.035599317
-0.30427992 -0.17685673 1.2758871 -0.37730408 0.1788006 0.908665 0.039795086
-0.29423898 -0.18588962 1.2800571 -0.28891888 0.10495168 0.95158345 0.023817066
-0.21778321 -0.23356403 1.2580818 0.28709859 0.77076578 0.56876582 0.050465621
-0.19340964 -0.25009128 1.3074278 -0.094657287 0.74206585 0.6636101 0.022613492
-0.20084906 -0.15903027 1.2232605 0.55989748 0.11480644 0.82056952 0.0043942709
-0.295169 -0.15676208 1.2740891 -0.32710746 0.23501897 0.91529596 0.032799192
-0.2674793 -0.12452747 1.272493 -0.10038741 0.1555369 0.98271596 0.033333141
-0.25804517 -0.3174161 1.3180811 -0.15735938 0.1727941 0.97230667 0.0011335419
-0.17730272 -0.4237296 1.3494135 -0.10435692 0.30571929 0.94638538 0.0018335084
-0.25432682 -0.33875301 1.3207918 -0.15491278 0.13730913 0.97833949 0
-0.22468795 -0.35477221 1.3274004 -0.11116239 0.14402114 0.98331112 4.7062695e-05
-0.26367494 -0.30907911 1.3153462 -0.18284354 0.20013475 0.96255612 0.0024205511
-0.25269201 -0.30463314 1.3162591 -0.14265259 0.20463081 0.96838856 0.0020599288
-0.30785349 -0.30332243 1.3038644 -0.41520199 0.19312602 0.88899368 0.0075157671
-0.19669573 -0.19664729 1.2348653 0.33191836 0.3097966 0.89098608 0.015260156
-0.18005927 -0.41395551 1.343892 -0.1003402 0.27144328 0.95720971 0.0038217111
-0.27316338 -0.39483085 1.3260432 -0.23556685 0.13507518 0.96242553 0.00041180916
-0.30689818 -0.39270121 1.3176143 -0.28468865 0.13032019 0.94972056 0.0021811635
-0.26515797 -0.27233818 1.3073436 -0.1732031 0.26232302 0.94930887 0.0032036372
-0.31271002 -0.37320358 1.3133284 -0.35625663 0.14902072 0.92242837 0.0018591982
-0.31145269 -0.14257535 1.2668566 -0.546794 0.35904565 0.7563746 0.038707417
-0.19187681 -0.33145526 1.3280845 -0.099247105 0.12635604 0.98700768 0
-0.31327209 -0.3837429 1.3147962 -0.33322078 0.13894102 0.93255526 0.0027327877
-0.22628343 -0.071571067 1.1513484 0.031853117 0.99857163 0.042894937 0.00045423635
-0.3130683 -0.27664843 1.2956053 -0.46938303 0.28900057 0.83436102 0.011506558
-0.26749972 -0.34797388 1.3203497 -0.19820219 0.13707875 0.97052836 5.8708254e-05
-0.29681596 -0.10593592 1.2552916 -0.59115493 0.46375799 0.65989721 0.043178681
-0.26831311 -0.34807244 1.320249 -0.19969614 0.13746534 0.97016734 0.0002344313
-0.29766348 -0.30960879 1.3084574 -0.2760486 0.17880145 0.94436604 0.0017376519
-0.29190794 -0.39968359 1.322984 -0.24756405 0.12244913 0.9611026 0.000264045
-0.30055285 -0.12258276 1.2600522 -0.56933594 0.37938738 0.72932976 0.047341228
-0.29426506 -0.20995016 1.2793885 -0.20427656 -0.11927131 0.97162002 0.036395706
-0.24358284 -0.1213918 1.2590342 0.26376283 -0.023444505 0.96430254 0.065138735
-0.30385736 -0.10416663 1.2573885 -0.6232869 0.46271911 0.6304003 0.042633772
-0.038945362 -0.23964126 1.3193022 -0.012849422 0.49389994 0.86942375 0.0090497332
-0.33810523 -0.28167152 1.280347 -0.71410412 0.16417739 0.68051541 0.029169343
-0.35890052 -0.3916893 1.2974561 -0.41706762 0.23304911 0.8784889 0.016484175
-0.31290814 -0.16489719 1.2685918 -0.47744435 0.23839229 0.84570444 0.044340651
-0.31124839 -0.14232205 1.25993 -0.58040071 0.39575616 0.71169668 0.039450496
-0.35140386 -0.35134876 1.289176 -0.56783968 0.34369287 0.74795276 0.027701017
-0.3577731 -0.37604538 1.2935956 -0.44407174 0.25236827 0.8597154 0.014190307
0.058627415 -0.24791199 1.3465383 0.42650065 0.13892375 0.89375472 0.043736666
-0.2955783 -0.082983457 1.2127912 -0.64678168 0.75680828 0.094417468 0.036624581
-0.34048316 -0.26549396 1.2317591 -0.96183497 0.26340356 -0.0741091 0.0083949044
-0.30426082 -0.096847817 1.1852348 -0.77585745 0.63082594 0.010195239 0.026358763
-0.28654769 -0.089805938 1.0896524 -0.44606903 0.88911134 -0.10248671 0.011373993
-0.31330708 -0.11748498 1.2321672 -0.88026458 0.40514666 0.24696247 0.011349535
-0.28725603 -0.090779386 1.0853742 -0.44980884 0.88511562 -0.11934034 0.010939715
-0.314006 -0.17052987 1.2695144 -0.49311501 0.21682948 0.84250969 0.052424975
-0.22388831 -0.22775517 1.0359454 -0.4748241 0.82377607 0.30973408 0.047043979
-0.24865483 -0.091261417 1.2716231 -0.19441737 0.41592783 0.88837266 0.085788921
-0.31373563 -0.12020185 1.2270404 -0.89926344 0.39358908 0.19082181 0.010501534
-0.31147704 -0.11263809 1.2204914 -0.87901539 0.45200473 0.15173526 0.016922841
-0.33532676 -0.31565431 1.1346554 -0.97247517 0.15493478 -0.17403248 0.0010159442
-0.33999833 -0.26681447 1.2225944 -0.93349832 0.34007922 -0.11369694 0.0072425734
-0.1793965 -0.389689 1.3364972 -0.10027674 0.22715464 0.96868223 0.003828642
-0.35141513 -0.41850677 1.131241 -0.96626276 0.20995539 -0.1491814 0.00024765157
-0.35226282 -0.4056839 1.1550497 -0.96961683 0.19142181 -0.15231833 0.00031176355
-0.24940467 -0.19648668 0.96281725 -0.8363567 0.30564043 0.45507288 0.014878485
-0.22721367 -0.17656164 0.98842889 -0.82559109 0.10092936 0.55516893 0.0058201728
-0.32914421 -0.3250474 1.0953871 -0.97627109 0.12288975 -0.17830545 0.00017403111
-0.32552257 -0.32146028 1.0784459 -0.97919863 0.1268837 -0.15833652 0.00031115985
-0.30035853 -0.09821026 1.1545136 -0.58823097 0.80292755 -0.09639325 0.0046042101
-0.32848749 -0.27247739 1.1542251 -0.88257968 0.44797114 -0.14274056 0.029279413
-0.31419584 -0.24686065 1.1201323 -0.64077652 0.76683068 0.037096918 0.026238613
-0.22379814 -0.16328794 0.9976508 -0.84757203 -0.012174343 0.5305407 0.0036107909
-0.30142593 -0.091194339 1.2075782 -0.71651602 0.69605386 0.04597709 0.027563851
-0.30147916 -0.092325106 1.2257239 -0.71142203 0.6718995 0.2059851 0.025758376
-0.28791317 -0.10052378 1.0483041 -0.49014595 0.84853017 -0.19938287 0.0032587342
-0.33073062 -0.22102936 1.2574859 -0.94084054 0.26660293 0.20914541 0.061133057
-0.018848687 -0.418134 1.3687922 -0.14798565 0.18327492 0.97185934 3.5220721e-06
-0.32232219 -0.34075826 1.0434034 -0.98350042 0.11938534 -0.13591914 0.00016416077
-0.23434582 -0.17121078 0.97777355 -0.8352325 0.053962968 0.54724282 0.006163144
-0.33791187 -0.27046219 1.2026346 -0.8433041 0.49084467 -0.21888258 0.013890035
-0.2174184 -0.1956498 1.0094019 -0.67461491 0.42228487 0.60545033 0.019023899
-0.25015423 -0.1945174 0.96093893 -0.84004289 0.29164284 0.457463 0.014091323
-0.32863078 -0.37110838 1.0584987 -0.97747576 0.15819265 -0.13970074 0.00033070287
-0.33366773 -0.28017616 1.1712536 -0.90443277 0.37661007 -0.20041524 0.023478508
-0.34547925 -0.38333645 1.1395596 -0.96919221 0.18343547 -0.16437118 0.00044454454
-0.28729793 -0.10730369 1.0349545 -0.52358454 0.82804984 -0.20048128 0.0049698516
-0.26182085 -0.23783822 0.99909854 -0.40467498 0.91146606 0.073944017 0.0080807218
-0.24995595 -0.23515123 1.1484697 -0.16598429 0.9795056 -0.1140964 0.0051459908
-0.20308332 -0.1964387 1.0263592 -0.64113921 0.42158994 0.64125073 0.027038373
-0.27883253 -0.24116671 1.0512843 -0.25298139 0.96699268 -0.030424001 0.0081629409
-0.34371999 -0.27908203 1.2288113 -0.95984447 0.2745032 -0.057849403 0.0069344058
-0.33062589 -0.39961663 1.0300447 -0.97697914 0.18069592 -0.1134055 0.00020191299
-0.32292646 -0.24167877 1.2152331 -0.79089898 0.47980669 -0.37982151 0.012488093
-0.32215393 -0.20143378 1.2677215 -0.5558967 0.029998062 0.83070993 0.053052336
-0.3449586 -0.31889391 1.1854153 -0.9741106 0.15497778 -0.1645913 0.0010164526
-0.20697768 -0.18349382 1.0201459 -0.77131319 0.26428762 0.57898861 0.013638418
-0.34701061 -0.36268589 1.1669354 -0.97597474 0.12512259 -0.17837495 0.00026040003
-0.22103751 -0.19844364 1.0072987 -0.68178451 0.42323226 0.59669441 0.020356836
-0.2159909 -0.2162337 1.0226007 -0.64541638 0.56073135 0.51866949 0.020771358
-0.34656742 -0.40645835 1.1181629 -0.96527237 0.20843738 -0.15749031 0.00025194424
-0.21923831 -0.22653368 1.0382893 -0.52496558 0.78361326 0.3322069 0.043862656
-0.35359237 -0.35583806 1.2131548 -0.98389775 0.12477511 -0.12797055 0.00042349304
-0.32290149 -0.3161397 1.0627042 -0.97936195 0.13202359 -0.15303557 0.00037111546
-0.34999585 -0.32047182 1.2724577 -0.9362269 0.19187753 0.29438448 0.018333167
-0.26731536 -0.09290044 0.95893764 -0.77551144 0.5660547 -0.27957848 0.075178444
-0.26283792 -0.12978336 0.95182085 -0.97034663 -0.23502177 0.056499343 0.049614578
-0.35631737 -0.42725447 1.1553586 -0.96821415 0.20383039 -0.14496402 0.00016464254
-0.3365154 -0.3135187 1.1426692 -0.96940392 0.16430065 -0.18237659 0.0011955458
-0.34867883 -0.30174133 1.2608185 -0.96255177 0.1766949 0.20560367 0.018486297
-0.30342522 -0.2487542 1.1612219 -0.56159413 0.79790753 -0.21898741 0.029563837
-0.31052217 -0.25360674 1.0739175 -0.5937553 0.79658592 -0.11360257 0.042241093
-0.32256952 -0.34239727 1.0431437 -0.98350042 0.11938534 -0.13591914 0.00016416077
-0.32702807 -0.38802218 1.0165433 -0.97930986 0.16976635 -0.11014318 0.00016198136
-0.29739189 -0.25143299 1.005617 -0.58465421 0.81076884 -0.02886869 0.011787347
-0.30718929 -0.2722576 1.0164584 -0.87871951 0.45426661 0.14660764 0.021362578
-0.34685704 -0.41063812 1.1132599 -0.96481186 0.21226703 -0.15517998 0.00030430307
-0.31249267 -0.14515474 1.2612948 -0.56757563 0.36827171 0.73636526 0.03958679
-0.21246187 -0.23715997 1.0901507 -0.11625335 0.99279958 0.028882861 0.0062431577
-0.19766584 -0.20871143 1.0451276 -0.68886822 0.60846061 0.39400041 0.020633768
-0.31953767 -0.17769553 1.2675285 -0.52734274 0.17665756 0.83108473 0.053570881
-0.32153523 -0.192646 1.2671666 -0.58456552 0.074530691 0.80791599 0.053822156
-0.32665199 -0.41303313 0.97882563 -0.97562879 0.18227172 -0.12216949 0.00016428066
-0.34968984 -0.34650224 1.2879255 -0.60855103 0.34423542 0.7149598 0.036420237
-0.33539289 -0.31434 1.1360323 -0.97187382 0.15690188 -0.17562179 0.00101248
-0.24986999 -0.23716471 1.1191517 -0.071889311 0.99612361 -0.050693419 0.0021214236
-0.34929281 -0.30954826 1.2697015 -0.92633152 0.15774402 0.34209192 0.023357803
-0.3198998 -0.34596151 1.0178802 -0.98327214 0.14012115 -0.1163697 0.00020262472
-0.29853407 -0.23595232 1.1897459 -0.55182958 0.7527141 -0.3590343 0.011742277
-0.18435444 -0.41678411 1.3443017 -0.090668157 0.27930623 0.95591182 0.0040762299
-0.3119618 -0.11325856 1.2351968 -0.86318648 0.4286918 0.26670679 0.014045252
-0.31908882 -0.2814126 1.0795602 -0.91601741 0.27812806 -0.28906214 0.012915972
-0.31325492 -0.27251294 0.98435521 -0.73303825 0.67774206 -0.057625677 0.011015499
-0.27339071 -0.10300625 0.96538597 -0.82325017 0.44085416 -0.35764048 0.099846572
-0.34486878 -0.31560051 1.1872846 -0.97185367 0.17000796 -0.16308819 0.0010565353
-0.21154386 -0.23402435 1.1089971 -0.14494725 0.98898995 -0.029818255 0.0075879819
-0.32478952 -0.35409737 1.0473435 -0.98161501 0.13460378 -0.13532835 0.00022430162
-0.33621022 -0.35309982 1.1167734 -0.97546792 0.12440371 -0.18162093 0.00020321277
-0.35224965 -0.32937777 1.2678159 -0.96513218 0.1670949 0.20149221 0.013100945
-0.29115513 -0.097280517 1.0687609 -0.50426751 0.84782153 -0.16405125 0.0065796366
-0.19793382 -0.20985296 1.0478942 -0.69203132 0.61422455 0.37923735 0.02096449
-0.31759286 -0.25336003 1.1105063 -0.79528689 0.59706175 -0.10505257 0.033492181
-0.33083317 -0.36342058 1.0810126 -0.97676247 0.13722289 -0.16463573 0.00030335697
-0.30737522 -0.24993549 1.0699917 -0.49426475 0.86465722 -0.089834996 0.033698026
-0.33280173 -0.36758897 1.0886865 -0.97342569 0.14955805 -0.17342079 0.00047415853
-0.35286963 -0.3625603 1.2044376 -0.98171568 0.12541151 -0.14320014 0.00038615664
-0.31917918 -0.35958788 0.99307954 -0.98176211 0.15729553 -0.10677639 0.00016321168
-0.34353378 -0.36396468 1.1494337 -0.97461683 0.13312992 -0.17999582 0.00034583986
0.045688592 -0.3490631 1.3649572 0.10545222 0.17373091 0.97913092 0.0043001287
-0.32466307 -0.36623278 1.0363324 -0.97991079 0.15753093 -0.12230612 0.00020178311
-0.32506198 -0.27879336 1.1064328 -0.95220029 0.25053182 -0.1747814 0.0079373037
-0.2178777 -0.1601695 1.008378 -0.84862691 -0.0049809748 0.52896839 0.00365551
-0.31841195 -0.3117165 1.0383815 -0.97832096 0.14706488 -0.14580849 0.00033084964
-0.33813146 -0.27044776 1.2037632 -0.84598595 0.48338071 -0.22505736 0.013378218
-0.33739305 -0.26006824 1.2745626 -0.82325727 0.2374509 0.51562065 0.039465416
-0.25284016 -0.23792662 1.0944393 -0.083003365 0.99637502 -0.018636139 0.000740599
-0.32107553 -0.3620691 1.0095761 -0.98097438 0.15793832 -0.11289281 0.00010035437
-0.3073014 -0.26831844 1.018942 -0.87109715 0.47955489 0.10590989 0.023170253
-0.35508442 -0.36815363 1.2111056 -0.98111212 0.1375076 -0.13605359 0.00054158841
-0.33299774 -0.2242271 1.2679715 -0.86219537 0.26119429 0.43404672 0.049733788
-0.3229036 -0.31467488 1.063357 -0.97936255 0.13191396 -0.1531263 0.00038611394
-0.35752079 -0.36748233 1.2563324 -0.97612542 0.20908423 0.058846511 0.0069138682
-0.31966099 -0.39160517 0.95138103 -0.97808069 0.15840356 -0.13515368 0.00037568167
-0.26954871 -0.23719157 1.1503947 -0.31376556 0.92393082 -0.2188675 0.010786925
-0.34159145 -0.27071026 1.2266179 -0.94805366 0.30680114 -0.084067345 0.0071853721
-0.33866781 -0.35911199 1.125465 -0.97480333 0.12924115 -0.18181071 0.00024634
-0.29785508 -0.2519438 0.992854 -0.58623004 0.8101055 -0.0079636779 0.01307126
-0.32267705 -0.3513636 1.0335091 -0.9822427 0.13932043 -0.12565459 0.00030600844
-0.2760933 -0.2351305 0.95849115 -0.67339051 0.73701584 0.057903305 0.031201193
-0.29622799 -0.10003366 1.1109118 -0.66246414 0.74703491 -0.055499479 0.0028617212
-0.32041928 -0.3667843 0.99408817 -0.98133367 0.15912628 -0.10799532 0.00019075176
-0.3425678 -0.27575397 1.2719163 -0.84447551 0.22907828 0.4841325 0.054778602
-0.3411378 -0.26650649 1.2740587 -0.80904698 0.23444456 0.53896075 0.039664041
-0.33860129 -0.25447321 1.2721895 -0.86578655 0.23169754 0.44354251 0.038894381
-0.35409042 -0.40460843 1.1684581 -0.96966666 0.18590446 -0.15870136 0.00033370004
0.060660683 -0.079651289 1.1591514 0.53220975 0.81499708 -0.22920012 0.0093467319
-0.30609527 -0.26457906 0.96157014 -0.70598871 0.69615209 -0.130201 0.0082771191
-0.33365571 -0.27184257 1.1819608 -0.83085448 0.51162785 -0.21890126 0.022032229
-0.3542268 -0.39793712 1.1744626 -0.97125691 0.17616409 -0.16008213 0.00038322207
-0.34258527 -0.3172361 1.1738502 -0.96935558 0.16752198 -0.17968354 0.0012865555
-0.31484273 -0.34837282 0.95383942 -0.98477483 0.13424402 -0.11044027 0.00026635377
0.045241322 -0.24496578 1.3451977 0.040058799 0.23236279 0.97180384 0.047744606
-0.32088122 -0.1538357 1.2418461 -0.77698094 0.33879012 0.5305863 0.022600107
-0.22998284 -0.16061004 0.98674142 -0.84269035 0.015134113 0.53818572 0.0047220537
-0.32317787 -0.372529 1.0079408 -0.98060268 0.16035542 -0.11271423 7.8886362e-05
-0.33451551 -0.35157663 1.1096014 -0.97560376 0.12446267 -0.1808493 0.00019980986
-0.34281281 -0.36741382 1.1420358 -0.97312164 0.14654388 -0.17764905 0.0004483329
-0.34094888 -0.35768959 1.1413566 -0.97545797 0.12417999 -0.1818271 0.0002070654
-0.33774233 -0.36831146 1.1126902 -0.97033042 0.16840829 -0.17348653 0.0005987655
-0.34539476 -0.36329064 1.1582134 -0.97530293 0.12955555 -0.17888406 0.00030277614
-0.31957626 -0.37277895 0.97860223 -0.97993612 0.16387455 -0.11344736 0.00021829494
-0.267214 -0.10388091 1.2699211 -0.22540095 0.31568271 0.92170423 0.048225246
0.052273322 -0.23577049 1.3448915 0.30776131 0.22015354 0.92564321 0.079868235
-0.32038116 -0.18518883 1.266348 -0.57588238 0.11944723 0.80875951 0.054050636
-0.34590849 -0.30579609 1.2791107 -0.76908702 0.16771467 0.61674708 0.033285726
-0.023652399 -0.42173809 1.3689578 -0.15344949 0.18557875 0.97057402 0.00094997318
-0.34695441 -0.36639184 1.1648254 -0.97506809 0.13572605 -0.17555787 0.00040999346
-0.34996203 -0.42249683 1.1122048 -0.96461892 0.21648006 -0.15048815 0.00033223943
-0.34133336 -0.3658767 1.1347103 -0.9723767 0.14951506 -0.17924476 0.00053211878
-0.33213645 -0.35432327 1.0950035 -0.9761979 0.13028368 -0.17338938 0.00019998959
-0.22271188 -0.1582671 1.001371 -0.85138083 -0.013807429 0.52436632 0.0042128419
-0.28570038 -0.10311945 1.0377201 -0.49769759 0.84310287 -0.20365334 0.0039201598
-0.25673655 -0.23342814 0.98521823 -0.57848859 0.76999795 0.26917285 0.024421206
-0.32780406 -0.350676 1.072611 -0.98004889 0.12159815 -0.1572196 0.00016189489
-0.30734408 -0.25093377 1.0817897 -0.54329348 0.83367831 -0.099058934 0.048522178
-0.31101847 -0.27385449 0.96816087 -0.74701941 0.65736216 -0.099181548 0.011040835
-0.3403239 -0.28224021 1.1956662 -0.9441095 0.27901682 -0.17551881 0.0068501648
0.053348951 -0.25411132 1.3494037 0.284457 0.13148716 0.94962913 0.040761229
-0.32950303 -0.42000782 0.98565125 -0.97559893 0.18565138 -0.11721887 0.00018350374
-0.32423785 -0.3635667 1.0363359 -0.98043913 0.15408152 -0.12246609 0.00023058415
-0.32131571 -0.31442136 1.0532908 -0.98014492 0.1324424 -0.14756298 0.00030965617
-0.26905018 -0.10015801 0.95793569 -0.79640883 0.52130723 -0.30654812 0.071818791
-0.32479885 -0.21592326 1.2333382 -0.84816438 0.36788511 -0.38115308 0.0226676
0.048872724 -0.088778041 1.3072443 0.34463894 0.67258674 0.65486729 0.048339777
-0.35406148 -0.37114403 1.1993154 -0.97865158 0.12621805 -0.1622041 0.00038500701
0.042448688 -0.074462652 0.9905417 0.12963535 0.98213953 -0.13636962 0.0078518866
-0.34308639 -0.28697413 1.272171 -0.83527613 0.18811095 0.5166508 0.055564206
-0.3549192 -0.39106119 1.1921854 -0.97564387 0.15097456 -0.1591403 0.00032319906
-0.26367623 -0.22273391 0.94981307 -0.73102707 0.63884616 0.23973958 0.034173191
-0.28284052 -0.24358675 0.97321624 -0.61057711 0.79188085 0.01096967 0.018599069
-0.34156817 -0.34916013 1.1475046 -0.97555029 0.12225872 -0.18263218 0.00014200072
-0.2940968 -0.25174278 0.95658457 -0.68480909 0.72009003 -0.11183432 0.011831615
-0.35403195 -0.39052159 1.1846749 -0.97284919 0.16358899 -0.16371681 0.00031414098
-0.19671355 -0.2084607 1.0412804 -0.68274194 0.59373027 0.42584938 0.021360461
-0.28847256 -0.10099911 1.0498095 -0.49034187 0.84523392 -0.21247227 0.0027501574
-0.33445984 -0.36814541 1.0958453 -0.97142971 0.1623621 -0.17309819 0.00046978428
-0.33015284 -0.35270256 1.0857115 -0.97819412 0.1248515 -0.16597682 0.00017612158
-0.3336255 -0.26272991 1.2074382 -0.78772032 0.5489617 -0.27953115 0.013987346
-0.32873598 -0.35055298 1.0778635 -0.97969222 0.12140703 -0.15957272 0.00016149567
-0.26409179 -0.2334729 1.1541898 -0.33820474 0.89384186 -0.294388 0.012622868
0.047003273 -0.3488391 1.3638376 0.12480477 0.17324229 0.97693962 0.0040546758
-0.34688556 -0.33845964 1.2867954 -0.69628388 0.27230507 0.66410744 0.041734036
-0.34947726 -0.3615914 1.1806532 -0.97669041 0.12089293 -0.17737171 0.00017419847
-0.33310762 -0.36178523 1.0954474 -0.97482413 0.14139058 -0.17241439 0.00029550679
-0.30196095 -0.091538288 1.2454168 -0.63580459 0.66902697 0.38490966 0.028732723
-0.34168157 -0.26761326 1.2648673 -0.93797106 0.21082245 0.27525294 0.038297318
-0.3471733 -0.29121086 1.262935 -0.95185244 0.18967377 0.24083343 0.027107147
-0.34092999 -0.26133117 1.2634691 -0.95887518 0.19999894 0.20139192 0.026994545
-0.33988088 -0.2557652 1.2481229 -0.97088963 0.23499769 -0.046362229 0.012225307
-0.34132168 -0.25914752 1.2577449 -0.97357607 0.1964411 0.11644962 0.021254348
-0.32703039 -0.37023282 1.0481515 -0.97830492 0.16114739 -0.13019611 0.00019375845
-0.33913118 -0.25023606 1.2606136 -0.97197288 0.23331019 0.02889576 0.0099210674
-0.32825148 -0.36794621 1.0584666 -0.97865385 0.14867941 -0.14188369 0.00035665391
0.030848905 -0.13579313 1.3221009 0.00083013496 0.22392356 0.97460634 0.038637601
0.055607609 -0.25138003 1.3520268 0.32655829 0.11972825 0.93756324 0.033852626
0.051625319 -0.20516182 1.3420635 0.71007174 0.20187722 0.67456931 0.04166954
-0.3366034 -0.2591331 1.2129627 -0.80567837 0.50662071 -0.30694914 0.014838769
-0.22399268 -0.25371775 1.2960801 -0.26569656 0.73690349 0.62159365 0.023335934
-0.20574085 -0.18331926 1.0222274 -0.77298152 0.26702118 0.57549912 0.014661789
-0.34224471 -0.27156678 1.2333076 -0.95887721 0.27934429 -0.050210942 0.0085829515
-0.34206387 -0.31372017 1.1727571 -0.9682554 0.1751117 -0.17837438 0.0012860624
-0.3552596 -0.3770377 1.20056 -0.97686541 0.1412749 -0.16054711 0.00032876007
-0.31566256 -0.31024885 1.021288 -0.9791255 0.14806321 -0.13925011 0.0003913425
-0.31178823 -0.25808606 1.0246297 -0.61179602 0.7876789 -0.072577454 0.012813836
-0.32952267 -0.27644789 1.1516093 -0.90892798 0.39632958 -0.12950994 0.025862593
-0.32912371 -0.26387346 1.1886805 -0.75423223 0.62533873 -0.20021313 0.011335305
-0.29692036 -0.26018327 0.94182181 -0.77696216 0.60531694 -0.17297742 0.014901742
-0.33366299 -0.31671137 1.1250608 -0.97524989 0.13607752 -0.17427167 0.00058775698
-0.32547861 -0.2648246 1.145974 -0.79520339 0.60612285 -0.016333235 0.018408669
-0.33956513 -0.31446126 1.1585259 -0.96869659 0.16594876 -0.18462926 0.0012564253
-0.3208549 -0.23653643 1.2188295 -0.77890301 0.48442408 -0.39830074 0.011314198
-0.32980293 -0.26805487 1.1688633 -0.77693456 0.60709876 -0.1667444 0.020225799
-0.35605395 -0.41222152 1.1732088 -0.97167486 0.18224636 -0.150447 0.0003516039
-0.33733746 -0.28049406 1.1831052 -0.92304546 0.32903934 -0.1992991 0.015534439
-0.33986729 -0.28771415 1.1800191 -0.9606874 0.2182437 -0.17160831 0.0011536996
-0.35446674 -0.3515909 1.2321439 -0.99078459 0.12266766 -0.057432596 0.0014169817
-0.35284644 -0.34458622 1.2147042 -0.98360729 0.12921849 -0.12577465 0.00044577522
-0.33242324 -0.28347114 1.140925 -0.95952249 0.23751074 -0.15134476 0.0053316033
-0.35009715 -0.40726507 1.1385148 -0.9677915 0.20040306 -0.15237509 0.0002700263
-0.30427364 -0.23852663 1.1940658 -0.62745649 0.67751151 -0.38376611 0.014900678
-0.341993 -0.29094186 1.1901153 -0.95787674 0.22906289 -0.17321198 0.002019892
-0.33060551 -0.27228063 1.1698766 -0.83696496 0.51732767 -0.17849858 0.027305633
-0.30191803 -0.23129621 1.2022998 -0.58676106 0.69691563 -0.41233489 0.015271484
-0.27301222 -0.10417064 0.96308422 -0.83663833 0.43706658 -0.33016533 0.097300753
-0.27298388 -0.31907883 0.85222453 -0.50743133 0.22218952 -0.83255351 0.02384625
-0.29289043 -0.33492887 0.8659665 -0.75644904 0.17471829 -0.63028443 0.038487714
-0.28981495 -0.38799149 0.85129511 -0.58386898 0.10303798 -0.80528265 0.065459393
-0.34160382 -0.40265176 1.0957563 -0.96278059 0.21176174 -0.16796017 0.00021076517
0.075996824 -0.30182311 0.89516151 0.19528463 0.15326561 -0.96869689 0.0010346042
0.057618082 -0.24869688 0.91294795 0.043524697 0.47835684 -0.87708622 0.015620898
-0.27626741 -0.27205703 0.86892587 -0.70624352 0.15510377 -0.69076973 0.026375366
-0.25454411 -0.12376064 0.88854545 -0.5271439 0.30137035 -0.79454094 0.053870317
-0.19256748 -0.095318146 0.89074969 0.053121455 0.84386748 -0.53391564 0.017421275
-0.048139729 -0.23901485 0.94041181 -0.0011644942 0.98639268 -0.1644022 0.0055844313
-0.060689587 -0.38087952 0.86764479 0.13824208 0.14753671 -0.97934777 0.00072247669
-0.26474363 -0.33369723 0.84853202 -0.36142257 0.13423745 -0.92268848 0.032297436
0.023296816 -0.34425336 0.88095856 0.12375773 0.14031005 -0.98234266 0.00041765018
-0.26946229 -0.32953227 0.84840238 -0.5103094 0.21914296 -0.83160126 0.029129596
-0.28721991 -0.24334143 0.89542073 -0.88371754 0.15418567 -0.44189376 0.011044913
0.014344924 -0.24097836 0.93022472 -0.21086514 0.74282378 -0.63541222 0.01395467
-0.16398807 -0.30217037 0.86175811 0.14106356 0.25371131 -0.95693862 0.0038086192
-0.21962339 -0.3853476 0.84226525 0.043176617 0.09618777 -0.99442631 0.001868554
-0.12620676 -0.38829502 0.85662413 0.13371316 -0.11932462 -0.98381019 0.042000357
-0.08377441 -0.3020094 0.87382346 0.13805495 0.17281353 -0.97523147 0.0012490732
0.043863423 -0.15914579 0.9524408 -0.50709248 -0.0087384712 -0.86184734 0.0066027641
-0.26985291 -0.28568709 0.8594681 -0.45795634 0.28052795 -0.84355205 0.027759029
0.046124004 -0.14486445 0.94980574 -0.49796015 -0.040457953 -0.86625558 0.012264497
-0.25952449 -0.38162082 0.84250695 -0.1536795 0.065838724 -0.9859249 0.011866529
-0.21657036 -0.28835541 0.8559224 0.072963312 0.18030542 -0.9809007 0.0023938778
-0.21506895 -0.35615221 0.84539205 0.056782551 0.13623245 -0.98904818 0.00042934378
-0.2118292 -0.34979665 0.84764189 0.090921491 0.1494386 -0.98458183 0.0005243406
-0.029353863 -0.3988916 0.86680543 0.10390234 0.14997485 -0.98321503 0.00070234312
-0.18598862 -0.35689965 0.84847957 0.12432598 0.14399534 -0.98173743 0.00087226537
-0.11070129 -0.30747566 0.86954725 0.14038105 0.15374908 -0.97808707 0.0014169213
-0.33545381 -0.25346717 1.2722585 -0.83084267 0.24401529 0.500157 0.039716773
-0.055095367 -0.091858029 0.9125576 -0.1028152 0.9063431 -0.40984297 0.013541515
-0.32457978 -0.21152206 1.2687813 -0.61765909 0.10617447 0.77924597 0.052611623
-0.13298459 -0.38104871 0.85500276 0.12020155 -0.048252005 -0.99157619 0.040104419
-0.053438302 -0.3963359 0.86584944 0.11094887 0.16405281 -0.9801923 0.00066648837
0.0054738112 -0.37280509 0.8748318 0.12287749 0.11808281 -0.98537177 0.00047919867
-0.067699261 -0.39177188 0.86422104 0.14213881 0.16348726 -0.9762522 0.0010217108
-0.1339196 -0.098765433 0.89547533 0.079390913 0.8546294 -0.51313317 0.0091373054
-0.15139098 -0.28240213 0.86754692 0.15316534 0.32858261 -0.93197316 0.007635206
0.054755416 -0.14080946 0.9456175 -0.37118292 -0.07426364 -0.92558527 0.020016521
-0.17993991 -0.24245487 0.90001577 0.33415753 0.85096002 -0.40522325 0.014074747
-0.12444968 -0.094006889 0.90326685 0.095170163 0.87470573 -0.47521853 0.005709799
-0.2053227 -0.091545783 0.89169943 0.017048815 0.86426449 -0.50274873 0.02989932
0.03897671 -0.17231533 0.95576817 -0.555646 0.044013001 -0.83025318 0.010639694
-0.14927557 -0.26843679 0.87611949 0.13740703 0.59892923 -0.78892529 0.016188106
-0.0079784207 -0.33485228 0.8787154 0.102868 0.13763924 -0.9851262 0
-0.13301492 -0.28411013 0.87040466 0.16692004 0.36423048 -0.91622806 0.0071452991
-0.11916529 -0.37254411 0.85904759 0.15430811 0.067378186 -0.98572266 0.014544998
-0.089642562 -0.34740072 0.86730641 0.15666471 0.13080582 -0.97895145 0.00032220149
-0.25030854 -0.30711266 0.85202193 -0.1024114 0.19689888 -0.9750604 0.0082473578
0.074368723 -0.29380953 0.89633924 0.15428203 0.26805684 -0.95096928 0.0044223107
-0.13958192 -0.38326436 0.85373986 0.15106615 -0.1139807 -0.98193043 0.024476795
-0.10671774 -0.38701233 0.85882097 0.13595252 0.077587068 -0.98767263 0.0085587148
-0.28894469 -0.34402114 0.85683787 -0.699278 0.15020561 -0.69889104 0.026633173
-0.063570872 -0.36567637 0.86969537 0.13803682 0.13304155 -0.98145086 0.00040592012
0.019823423 -0.25806931 0.90169108 0.054258943 0.60657948 -0.79316908 0.019236891
-0.099479333 -0.29436153 0.87248844 0.15067217 0.19435363 -0.96929079 0.0023792272
0.026653614 -0.35534498 0.88008577 0.12644491 0.13400137 -0.98288107 0.00037716003
-0.218345 -0.27739972 0.85905224 0.070968919 0.36229664 -0.92935711 0.011225737
-0.08722119 -0.096307702 0.90484232 0.031484243 0.88118768 -0.47171703 0.0097140186
-0.24787806 -0.080466218 0.93953532 -0.5044353 0.84103858 -0.19544584 0.022359047
-0.11101029 -0.38344672 0.85865241 0.13034444 0.080494121 -0.98819578 0.0095040575
-0.20758906 -0.092046566 0.89076847 -0.07108885 0.82426059 -0.56173033 0.033220906
0.039717309 -0.14467834 0.955046 -0.52056277 -0.039413549 -0.8529132 0.010601337
-0.082399093 -0.23339677 0.99236453 0.085240513 0.91969609 -0.38326645 0.040362265
-0.10118616 -0.30426365 0.87121212 0.1435755 0.16153032 -0.97636783 0.0021205381
-0.12985092 -0.28410825 0.87071204 0.16828461 0.37513116 -0.9115684 0.0068724034
-0.068247378 -0.25702685 0.88645911 0.036067739 0.57127678 -0.81996459 0.041044962
-0.047799975 -0.34883139 0.87358803 0.12732129 0.11751638 -0.98487514 0.00068361155
0.093926877 -0.28136131 0.90182292 0.22001626 0.2542519 -0.94177955 0.0061898418
-0.19408302 -0.35984549 0.84721863 0.11820462 0.14300141 -0.98263842 0.00068084738
-0.1463813 -0.091903508 0.90144461 0.080032185 0.84889692 -0.52246422 0.0084918654
-0.26003635 -0.39076877 0.84159255 -0.15607269 0.013432902 -0.98765427 0.018144881
-0.18980162 -0.35198426 0.84875906 0.12191778 0.14737152 -0.98153847 0.00088800176
0.0079247328 -0.13910694 0.9762041 -0.5585196 -0.020617148 -0.82923508 0
-0.065335952 -0.36017659 0.86985803 0.14638618 0.12540765 -0.98124617 0.00059095427
-0.043912165 -0.3366968 0.87527245 0.11707608 0.10857517 -0.98717004 0.00088877446
-0.24578846 -0.17842795 0.88185459 0.037048165 0.1541523 -0.98735231 0.063901849
-0.066224568 -0.09653037 0.90906912 -0.091169663 0.87277168 -0.47953904 0.014228278
-0.056774877 -0.091782264 0.91326725 -0.10253891 0.90612978 -0.41038346 0.013477884
-0.033926897 -0.088765606 0.91267705 -0.056568004 0.90869975 -0.41359982 0.01715775
0.11290564 -0.16999032 0.94162458 0.89947551 0.18434672 -0.39618182 0.082923971
0.10188588 -0.26837459 0.90838027 0.25663662 0.34266478 -0.90372485 0.010816263
-0.085552059 -0.18926857 1.0247464 -0.041816752 0.36551315 -0.92986643 0.015993048
-0.086441606 -0.16078874 1.0268456 -0.041900005 0.13766377 -0.98959243 0.00811854
-0.092221089 -0.30804336 0.87219888 0.14444272 0.15236604 -0.97771204 0.00087226706
-0.0069192857 -0.27603644 0.88887888 0.087565713 0.54457951 -0.83412552 0.01087833
-0.26696265 -0.20917641 0.87986505 -0.35679129 0.1301903 -0.92506772 0.020387998
-0.27947882 -0.33211342 0.85316873 -0.51387525 0.23457733 -0.82517016 0.031149002
-0.25210848 -0.3848699 0.84160584 -0.10656638 0.12054007 -0.98697197 0.010298614
-0.19513541 -0.34108073 0.85005254 0.11908928 0.16439541 -0.9791792 3.8823924e-05
-0.050768904 -0.25749007 0.89579713 0.24448629 0.79793781 -0.55092794 0.020279489
-0.24271262 -0.14911194 0.88484287 0.063811734 0.13731077 -0.98847044 0.059952926
-0.20681275 -0.36707774 0.84484911 0.067749932 0.12477337 -0.98986948 0.00076115335
0.035593484 -0.34023511 0.8828119 0.13042498 0.14057086 -0.98144239 0.0004200793
-0.19905247 -0.096272461 0.88787967 0.067191198 0.85087192 -0.52105886 0.030549102
0.053732175 -0.18464166 0.94598526 -0.47484106 0.10763715 -0.87346452 0.022259504
-0.19374992 -0.23867853 0.89811146 0.4731971 0.78326577 -0.40321109 0.053926695
-0.12613794 -0.30215183 0.86762995 0.13844214 0.2439862 -0.95984608 0.0039023145
-0.025194068 -0.24126378 0.93322432 -0.023204647 0.96590745 -0.25784555 0.0094555849
-0.14289975 -0.22817001 0.97705835 0.1710811 0.95262235 -0.25147954 0.022140615
-0.09507902 -0.23046635 0.99665827 0.25100529 0.79985732 -0.54518306 0.058847245
-0.23198698 -0.085132636 0.90440106 -0.28733951 0.75455475 -0.58998585 0.02225714
-0.32342371 -0.21968524 1.2345941 -0.86171645 0.36070383 -0.35684389 0.023668084
-0.24783577 -0.18924919 0.87881523 0.0012827786 0.15043396 -0.98861927 0.054785661
-0.24534784 -0.13732459 0.88179004 -0.21328558 0.076570578 -0.97398472 0.056985378
-0.16402629 -0.21911649 0.94545335 0.5937196 0.48912835 -0.63894492 0.096394472
-0.087469772 -0.1647149 1.0270394 -0.041900005 0.13766377 -0.98959243 0.00811854
-0.17232592 -0.23475724 0.92739081 0.25571355 0.88223839 -0.39530507 0.032109983
-0.098022141 -0.1780628 1.0268406 0.03470777 0.30555719 -0.95154095 0.018088788
-0.044884715 -0.089351304 0.91256195 -0.070143126 0.91142297 -0.40544799 0.01573172
-0.093901001 -0.23697932 0.96241063 0.041225672 0.98923415 -0.1404146 0.0029276365
-0.19651221 -0.23084101 0.89705521 0.66847044 0.54750204 -0.50337738 0.057544574
0.01496984 -0.25752169 0.90323883 -0.020522095 0.67957568 -0.73331839 0.016524497
-0.28943288 -0.40339968 0.84422034 -0.39784065 0.40216008 -0.82461506 0.049431581
0.050860334 -0.085537583 0.92935622 0.33748782 0.19426464 -0.92106634 0.051405814
0.049196221 -0.087920599 0.92833191 0.34406197 0.092343137 -0.93439507 0.02989142
-0.073913783 -0.10263635 0.90562755 -0.002815709 0.81661439 -0.57717675 0.011973149
-0.065790735 -0.26292437 0.88478231 0.048169401 0.4209466 -0.90580553 0.015944438
-0.1941589 -0.28230426 0.86060536 0.16015185 0.35837063 -0.91974014 0.0096743954
-0.22404715 -0.17983159 0.89291883 0.4585945 0.106535 -0.88223654 0.031584758
0.034643799 -0.32052913 0.8862384 0.13038304 0.15868832 -0.97868186 0.00073246565
-0.083737127 -0.23274209 0.99336636 0.066254511 0.9060238 -0.41800869 0.040189143
-0.14559083 -0.28188372 0.86842787 0.14799364 0.34534648 -0.92673278 0.007185284
0.10701965 -0.29705113 0.90295047 0.35467419 0.1798773 -0.91752404 0.0071579991
-0.087528609 -0.21720989 1.0090064 0.12288819 0.62132621 -0.77385539 0.042795017
-0.018255597 -0.33616185 0.87771392 0.095704854 0.12416185 -0.98763573 0.00031673163
0.10749924 -0.27148354 0.90779966 0.3426767 0.26593918 -0.90102673 0.01269256
-0.16990823 -0.24201816 0.90717715 0.27486786 0.86362803 -0.42260408 0.016877973
0.040982094 -0.1890678 0.95461339 -0.56568807 0.12693445 -0.8147912 0.016622683
-0.17379379 -0.10098302 0.8910591 0.068613142 0.78349859 -0.61759382 0.016343268
-0.23332971 -0.17343473 0.88520205 0.26996273 0.1806328 -0.94577587 0.070119046
-0.032390464 -0.33618721 0.8760646 0.095240429 0.11592315 -0.9886815 0.00049489143
-0.20533995 -0.11805844 0.89772785 0.11612145 0.047713708 -0.99208832 0.099647373
